x,y,z,nx,ny,nz
1.865310487237344432e+02,1.032318501544258567e+02,1.726815501802490758e+02,2.356113356803386100e-02,-9.396298764179987772e-01,3.413803865568227347e-01
1.812445015822874552e+02,1.041337700101138353e+00,2.450874300973366715e+01,1.655124018042490874e-01,-9.691458383163946699e-01,-1.826526455351841216e-01
1.749896124023104278e+02,1.909732014159588687e+02,3.619331823268300496e+01,9.112910384935116737e-01,3.651599637366106932e-01,1.902809608008495801e-01
3.969353602148720483e+01,9.616163338197832644e+00,9.190976801196084978e+01,-2.265466066130290557e-01,-7.615774051498074293e-01,6.071873607012976404e-01
8.314223176209665667e+00,8.028187605415837425e-02,1.385816250163496193e+02,-6.812553837021126379e-02,-8.373774834545240076e-01,-5.423632189069769183e-01
9.608823522540990325e+01,1.843934834270843339e+02,7.850434330175325215e+01,-6.488870196938452406e-02,3.080393397806546751e-01,-9.491581646397119210e-01
9.432196148326758589e+01,1.140017711614564178e+02,8.241211925938678462e+01,-8.303631887455823479e-01,1.442017448411235803e-01,5.382404960229618673e-01
1.512122734519431901e+02,1.180904614817487897e+01,7.805099479474688451e+01,-3.926895416923653070e-01,-9.144054410388767762e-01,-9.827315626322938313e-02
1.227183395422691774e+02,1.052993570776157952e+02,1.791091422617905380e+02,-6.579477464740485226e-01,-7.268631208392655196e-01,1.969130937025891093e-01
7.704072975067883533e+01,3.291080119395670067e+01,1.774887344065150216e+02,4.491822260778203790e-01,-7.773605443672729765e-01,-4.403929062039839692e-01
1.695657934692679589e+02,9.903254913210645327e+01,5.166456375510784937e+01,5.875240184380314812e-01,-7.947650265222917509e-01,1.521975044915266362e-01
1.204144108608905128e+02,9.537204589059188109e+00,1.283061382332394942e+02,-1.907221953153403204e-01,-9.242447622467433455e-01,-3.307516646542504879e-01
8.611938200163771739e+01,1.306248280832035960e+02,1.663946040480740862e+01,5.416615315532383734e-01,5.957853026988271239e-01,5.929946528607719092e-01
5.673998217119364540e+01,1.647987059731125612e+02,1.241186442748851348e+01,-7.002050337284261572e-02,-7.528498665548306601e-01,-6.544571854092422480e-01
9.831842127030171241e+01,1.814633465275523463e+02,9.976931634657562142e+01,-3.797259785928119857e-01,-1.352071223537412714e-01,9.151651300418695012e-01
1.258865886391625111e+02,2.765553136064777462e+01,6.838246818192628496e+01,1.516237943071541659e-02,7.457209113332886607e-01,6.660858988510780510e-01
1.078530299509829007e+02,7.233984600962507727e+01,1.386310013751754298e+02,-1.003316006533939153e-01,8.705372278847638423e-01,-4.817660270038127135e-01
8.408547715955485558e+01,1.833390305120338439e+02,1.959063186311099685e+02,9.719996347223484046e-01,1.960169026609290543e-01,1.295919903730059775e-01
1.238384237883185364e+02,1.621167511113932278e+02,6.082097590757329186e+01,-4.186579819284250159e-01,-5.026038583896205170e-01,-7.563827441827877252e-01
1.659705391333187379e+02,1.474265134996035158e+02,9.953522869363085590e+01,6.145057746185430547e-01,6.834401827585907530e-01,3.940712747072137034e-01
6.354562542807764913e+01,1.564643992904061065e+02,1.550448322788748783e+02,5.398422145537209449e-01,2.065151887654479712e-01,8.160403545125117786e-01
2.379433136799051329e+00,1.025091614592340363e+02,1.894176292916128546e+02,-9.945196864354198807e-01,4.977946967425766339e-02,9.193801003580592823e-02
7.118077518881941046e+01,6.600414269520740618e+01,1.860763367078860142e+02,8.083578099639709968e-02,4.214007561879576924e-01,9.032646230163783319e-01
1.372216497910834789e+02,4.149956243075256879e+01,7.873964713056017217e+01,-3.036837283384378749e-01,8.806502532132027827e-01,3.636362532201480868e-01
1.323347640824829625e+02,1.147357445000726699e+02,2.594785756541863364e+01,4.001062068579730457e-01,-9.096584134135086153e-01,-1.115194787368707779e-01
1.963674773813678343e+01,2.780337246307536248e+01,1.456046029040393819e+02,6.556642735401002620e-01,5.980766797505920884e-01,4.608781243882598688e-01
1.521669445005654779e+02,1.272803623086192317e+02,7.270297780325263659e+01,-9.555777837371144390e-01,2.797930017037048023e-01,-9.266593453742993924e-02
8.190771655545957231e+01,6.556753346811011340e+01,1.781374657354048168e+02,4.077324573512043360e-01,-3.658981667924243730e-01,8.365839914547084089e-01
3.293749611287941548e+01,3.567097527940616430e+01,1.068754667715270017e+02,3.790861775579609239e-01,-4.488300336620002495e-01,8.092251051873402545e-01
1.113342308280732595e+01,2.496499801074712366e+01,5.700922842282824377e+01,-2.146172631296451860e-01,9.762534923445584933e-01,-2.947115623442318061e-02
2.630565326468096643e+01,6.304854245283728176e+01,3.509060616056856041e+00,6.599530518003576818e-01,-6.720756765356982187e-01,3.358217599061708025e-01
1.279624420867123007e+02,1.255649948490211898e+02,1.398668880730773001e+00,6.068983173602016112e-01,-7.694497062895125916e-01,-1.990517065346051051e-01
1.715139009487054693e+02,1.668371232016228589e+01,6.825353378402033400e+01,-1.733441749504054663e-01,9.654141893584530232e-01,1.947491719985592895e-01
1.680894246775572185e+02,3.323211806609254637e+01,6.569339495355096403e+01,-4.831422396250136253e-01,-6.178296135451003535e-01,-6.203709736237166261e-01
5.275442637584501426e+01,4.556471116873274241e+01,3.341620028248303242e+01,-9.225107059993468972e-02,9.953919684366900889e-01,-2.616427226003130435e-02
3.152882467343616568e+01,1.074600156537821647e+02,2.821392905264703543e+01,6.298252608400836117e-01,-5.982997040664858046e-01,-4.953358506303336961e-01
1.993899037573864916e+02,1.684336217815688599e+02,1.244602675614861376e+00,-6.696138461180975998e-01,4.212483931250368130e-01,6.116919881562151717e-01
4.475067286035415037e+01,8.247991227131073799e+01,1.848887916056562801e+02,-2.780597797520087400e-01,7.787733661993880840e-01,5.623120156823415705e-01
3.210959474000291891e+01,4.682656379741762009e+01,3.606515750256005504e+01,8.571408337739279126e-01,1.327851152086050313e-01,-4.976722860019164307e-01
9.986557164434221079e+01,1.123680697076445227e+02,1.210033700664499321e+02,6.462252704824655858e-01,6.565152170369925599e-01,-3.890766885676069098e-01
7.025291275621515119e+00,3.671679060914748760e+01,9.190903473391993828e+01,-3.011108631978350880e-01,-4.841061824906400246e-01,8.215676795837296709e-01
1.706505242827475968e+02,7.894414858811438762e+01,3.208846488309806944e+01,-9.319594400488835362e-01,-2.701670395946240699e-01,2.417878673929862166e-01
1.530865405023997141e+02,1.196498161506589639e+02,5.046869587783118050e+01,4.785024595984768703e-01,8.761037840996909187e-01,-5.897080330477418725e-02
1.369026186244493317e+02,1.027352227095154404e+02,1.504036836333006022e+02,-2.677514801953769785e-01,7.965755940947758518e-01,-5.420115014865821701e-01
8.363737128920018193e+00,5.970900037687232498e+01,1.134574191026064653e+02,-5.187982808540813062e-01,5.663193009508170617e-01,-6.404145478917758760e-01
7.996612295615791766e+01,1.739713455048757282e+02,1.758090368835753452e+02,-6.050943787335858470e-01,-3.286049462616448813e-01,7.251755526183969458e-01
1.279793390518503315e+02,8.232207394322949767e+01,9.249419486077890440e+01,9.154773745184084932e-01,6.496602181821560518e-02,3.970901569568260903e-01
9.945170468462992019e+00,1.750647369528361708e+02,1.374142827801654789e+02,-2.578525715886327840e-01,-7.913970459310213368e-01,-5.542587545675591310e-01
1.052653552146699383e+02,1.078029502646823943e+02,2.242443899622822201e+01,-7.469719283493957418e-01,6.519004452617075396e-01,-1.306091410414013110e-01
1.486275822803304720e+02,6.236175209530838970e+01,7.487355925933609058e+01,2.934353407823694915e-02,-7.530493066899764942e-01,6.573094390768664530e-01
8.529072416531739975e+01,1.123178704284559046e+02,2.570745885242045148e+01,-3.910698934507729763e-01,9.082554872158742354e-01,1.487827556427697984e-01
1.169862431019515725e+02,1.182570227564670944e+02,1.874102627096842610e+00,-9.774858297254228334e-02,-9.475115590964170442e-01,3.044126474106114699e-01
2.976208938484187883e+01,3.976387767231286574e+01,1.830630708378356246e+02,-1.076993352165831752e-01,2.693983416636637762e-01,9.569876627735458552e-01
2.002535981389410580e+01,1.761235686978398576e+02,1.491299166670557952e+02,3.077750941381409144e-01,-6.592426451951117761e-01,-6.860565765171342534e-01
6.068752009224935051e+01,1.088758519315676949e+02,1.617714582368144249e+02,9.429578457827557658e-01,2.484803581135827388e-01,2.215581474613161628e-01
5.026794058174033353e+01,1.391482406742506726e+02,1.885285541433704282e+02,2.478278839177298631e-01,9.314770290398942665e-01,2.663304044262921888e-01
9.953079750160840433e+01,1.155017490862872620e+02,1.955148859249756015e+02,-6.557432667882419075e-01,3.227257119646615435e-01,-6.825312321768044477e-01
1.785893409769971640e+02,5.766833651147885575e+01,1.425743573355622971e+02,-7.550082523436767445e-01,2.408777314794117441e-01,6.098692133304314256e-01
1.385319200153132897e+02,1.050287089733655677e+02,1.191249231325584503e+02,-7.278640289229793003e-01,-2.540360993943696633e-02,6.852507657785239514e-01
7.793103084314066109e+01,1.553101566690387472e+02,1.548955284212106562e+02,-6.848927031802344301e-01,4.176275533793585848e-01,-5.970839235709185511e-01
6.040929396643551286e+01,4.144736288661076351e+00,6.032869077293914728e+01,-9.317242413060852213e-01,-2.646838021569384858e-01,2.486612616318565894e-01
1.368688277798336799e+02,1.119055637566535211e+02,1.819937786187222457e+02,7.413232591868453847e-01,4.624840486854125965e-01,4.863623444492204961e-01
1.688213554876570299e+02,1.593952828625374707e+02,1.905172171577966651e+02,1.763345639241403473e-01,9.034320782053090193e-01,-3.907897153627758469e-01
1.413726888702852591e+02,1.774703178101756293e+02,1.137317008525732689e+02,-3.915250747617877169e-01,-7.998913515280626774e-01,-4.548427657788851608e-01
5.368168035895919843e+01,2.926977783105842335e+01,1.550184145543132388e+02,-7.535058297506693759e-01,6.345294376990874285e-01,1.720504496449667964e-01
1.810668898799397084e+02,6.818982010822679740e+01,1.633155919325245975e+02,-5.890846612412557054e-02,-8.497944364340267454e-01,-5.238121881196330376e-01
2.993151499742732824e+01,3.760245557841927422e+01,1.668925291233714461e+02,-6.454304174539137184e-01,8.144835358789870305e-02,-7.594641149659985269e-01
1.933142490554607775e+02,1.680159219691952899e+02,4.613974434810587866e+01,5.284310858259173571e-01,-6.315528356319539682e-01,5.673637310721231231e-01
4.655262125541705842e+01,1.432747029955382629e+02,1.172638715468834789e+02,5.870213053860845465e-01,8.020096457771951348e-01,1.103925500256039832e-01
1.464126801109889584e+02,3.135317278044044542e+01,1.271493775556962191e+02,3.781831101884263191e-01,-2.167985467967787905e-01,8.999866250522911004e-01
1.869552534936110533e+02,1.261857681290991735e+02,4.635367170749590571e+01,-3.647236007645526801e-01,-1.716877715778131197e-01,-9.151502631447928637e-01
8.627756692728765131e+01,6.997873552107382977e+01,2.977772164401881128e+01,8.824957510641709968e-01,4.694407905883944965e-01,2.875053883717420058e-02
7.669379895585876739e+01,8.499288001440379503e+01,4.221085346752281708e+01,3.294586742302878513e-01,-9.346579608364394831e-01,1.336842482025832612e-01
8.477316044492252445e+01,9.695876625297516682e+01,4.836227203007448239e+00,-9.836414065644945026e-01,1.257801146735453568e-01,1.289532707709750148e-01
1.880450123154313928e+02,7.987951288612224232e+01,5.857694782621014440e+01,1.270666606038373947e-01,-7.715493491223127664e-01,6.233503554422059612e-01
1.567983361511644489e+02,4.073225172465263277e+00,1.263793753501713724e+02,-3.673385951329766197e-01,8.437102661014775906e-01,3.914273156011279231e-01
1.757891670447772583e+02,1.566804201800197802e+02,5.434744975088301544e+01,-1.495978154925586001e-01,9.266337201541932078e-01,3.449209217647645764e-01
1.350377603269195106e+02,1.438766457135601513e+02,1.688377757161625539e+02,1.862501438633939414e-03,-9.395997440920325072e-01,3.422701447520337115e-01
1.573833036962994925e+02,1.859393323488503427e+02,1.791749180350196582e+02,7.725224549688033404e-01,-2.488468586866834087e-01,5.841954274801738345e-01
5.880113607927166441e+01,1.278666860461141255e+02,1.212630348820203494e+02,-2.897566587541378080e-01,2.830027780697925155e-01,-9.143032901124319434e-01
1.620797032529205595e+01,1.322178712017221436e+01,4.939857292100937514e+01,1.849709308090131399e-01,6.336810272460745574e-01,-7.511551840079430109e-01
8.248148345219665600e+01,1.932794725131110738e+02,1.829258522908532996e+02,8.520098567082441399e-01,-2.745280350841894368e-01,-4.457729938239994860e-01
5.805765935042578541e+00,7.086317848255108132e-02,1.969772754481054164e+02,4.600015327108241681e-01,-7.287889517068316114e-02,8.849221754145351060e-01
2.738513804041351207e+01,7.802033791526913120e+00,1.650655159597060972e+01,6.794576767591712502e-03,-9.861044857740658420e-01,-1.659872792138436248e-01
1.580816311155033134e+02,1.097988168127863595e+00,9.130849912274550206e+01,9.662544898212773598e-03,-5.078610646965334707e-01,-8.613848003008838239e-01
4.904306673692242491e+00,3.028573295345107397e+01,1.645319301131175109e+02,4.216929025294138822e-01,-1.017735559758980030e-01,9.010090117520129782e-01
1.961110810195762042e+02,1.697760196089232068e+02,1.147870849924595262e+02,2.144538863925384564e-01,-9.726389276278960550e-01,8.934789909109679129e-02
1.801612040685910756e+02,1.376780475212055421e+02,1.430171135762651886e+02,-2.217791052212605141e-01,-6.880210319362638494e-01,-6.909711195836015785e-01
2.105689823642869385e+01,1.700947816947670788e+02,1.170458077679211755e+02,-8.338050691618823507e-01,-5.509155022895501075e-01,-3.551360267561799733e-02
1.898576411750105137e+02,5.896653037354471216e-02,1.099286887957412873e+01,7.663763892918475928e-01,2.081609783345235720e-01,-6.077303983122815945e-01
3.504524631547207747e+01,1.813779298037976275e+02,1.335407148147883660e+01,5.290744838673953065e-01,2.394471309286252403e-01,-8.140916791175912826e-01
1.202180527830589085e+02,1.846481420420855102e+02,1.444381933099597006e+02,-2.647786093308073241e-01,4.463640530390887151e-01,-8.547815043584888750e-01
2.247358117379628339e+01,5.675203465464601749e+01,1.365757485034305319e+01,-7.454621473034016566e-01,-4.728789683811730482e-01,4.697570310262094706e-01
6.152770955112147000e+00,4.129484900649183743e+01,5.874659631977739593e+01,-6.785538899316067019e-01,6.805758557253599461e-01,-2.763713499268312113e-01
4.486739257270932768e+01,9.380121120830652615e+01,1.204860278931169546e+02,-7.386630608711206580e-01,-2.792051941217465472e-01,-6.135318590570054686e-01
1.927898846298575677e+02,9.887380376075805088e+01,8.722773636489951343e+01,-1.628172386592017240e-01,-6.073226773261296563e-01,-7.775922533042715079e-01
1.226287196431342181e+02,9.303583620167918866e+01,1.634964386397963949e+02,3.818321858458527673e-01,-9.191868535021495701e-01,-9.643500505001344203e-02
1.147035147822359704e+02,1.346818052680580990e+02,1.359530587453256771e+02,7.063769199314452463e-01,2.179473087734582482e-01,-6.734468186758115760e-01
1.545126309535617963e+02,1.864322785913518032e+02,1.265302161442922966e+02,-2.103869585990252034e-01,6.897523503395316391e-01,6.928051839085388464e-01
6.681192282667595350e+01,4.617942929378812522e+01,8.482299359325071464e+01,2.855546234220846524e-01,-9.003961525361426910e-01,3.282458309535442598e-01
