x,y,z,nx,ny,nz
2.662226629465376604e+01,1.662407171143576932e+02,9.628112313667759281e+01,5.498026861345105543e-01,9.490390951011332121e-02,8.298856874756748159e-01
8.360538103239240115e+01,1.421996271058248063e+01,6.457019917521230923e+01,-4.551354657468010267e-01,-8.724388240774552106e-01,1.780511332729723117e-01
6.003556278692497017e+01,2.974369454080782305e+01,3.615298922015048788e+01,1.548617450542980611e-01,6.118478481740171615e-01,7.756674871370866642e-01
1.891770204312765600e+02,2.831655049174226235e+01,1.250444503584988638e+02,1.018564187205585475e-01,4.864964118516698632e-01,8.677249052659907758e-01
1.788684459014485242e+02,2.393161663843253795e+00,8.155673335078400044e+01,-5.660774772769977536e-01,-5.930402076998628758e-01,5.725902564391168736e-01
2.375325121750028146e+01,9.769367439605537129e+01,8.771617378904694817e+01,-1.014112947562137157e-01,8.299105078578487005e-01,-5.486021310941073814e-01
1.488057270571982542e+02,4.937912651084160842e+01,1.277623698720278043e+02,-8.619910093411516927e-01,1.566684900885590981e-01,4.821062995091369707e-01
1.235833405547003707e+02,9.060360948267289416e+01,8.864890254452868135e+01,-4.780292271636764623e-01,2.907467075554001079e-01,8.288271291535967977e-01
3.488911333949288007e+01,1.555912212006196285e+02,9.582846672352229689e+01,-7.121000571793907330e-01,-6.009000795179956222e-01,-3.630875968666174014e-01
6.970609144563636050e+01,1.831757064722198436e+02,1.132268880776571862e+01,-5.988039124728087303e-01,-4.784604733222183048e-01,6.422689856076936321e-01
9.324150638562182181e+00,1.256176731332064804e+02,6.861794097152680294e+00,-5.510582815189297712e-01,-7.118229442926758965e-01,-4.354800412715949531e-01
4.367301921901271200e+00,1.717749608599529836e+02,1.800179522895853665e+02,4.724756076525690185e-01,-6.198044166559357748e-01,-6.265854173735061483e-01
6.714497739200271553e+01,8.267853831201577464e+01,1.607422865860913817e+02,8.502965361176997305e-01,4.916613593939639371e-01,-1.877895320381851585e-01
6.557838816816706640e+01,8.134696441602694961e+01,2.326584496637039123e+01,-9.687558461177419034e-01,-1.350689444828299668e-01,-2.080107950251436078e-01
1.736394758388922810e+02,1.183974251707936105e+02,1.294112466142777293e+02,3.446442285866732624e-02,-7.184744118242862854e-01,6.946990161996523527e-01
1.551621628363199648e+02,1.847384464442287424e+02,4.182635795092235043e+00,-1.460774478382302344e-01,7.332678954714951791e-01,6.640629282695078572e-01
1.597542234719739440e+02,1.483317793547663541e+02,3.927592159817871220e+01,8.820581288874459469e-01,3.076526802388171999e-01,-3.568238859766112991e-01
1.709842288513580684e+02,1.095793805647640227e+02,9.940321155556247845e+01,9.244175654294058964e-01,-3.644169239391898962e-01,-1.124831999467866828e-01
2.829599934448337706e+01,6.543238676880606874e+01,8.651797747086742163e+01,-2.485432082105326346e-01,7.902212199895519706e-01,-5.601577430765728449e-01
1.665101291297494299e+02,1.523552283347555658e+00,2.560473258820872644e+01,-6.165652917250122877e-01,-7.866298173056832654e-01,-3.256948823174307672e-02
3.577893366788331520e+01,1.216022022235241167e+02,2.395825740415349969e+01,4.855063076123439791e-01,-8.579752677465674049e-01,1.678155690090593344e-01
1.185087062174228123e+02,1.531230333193445290e+02,1.780722157858702417e+02,3.075813255436813942e-01,9.511286821519271406e-01,2.734882379062081315e-02
1.852823057709167074e+02,2.809275714766257082e+01,7.133492152111469409e+01,5.576306771066070755e-01,-4.232544698018285700e-01,7.140754033996690175e-01
1.356996838566739143e+02,1.620192704205666985e+02,1.273923718452137877e+02,8.133162098052558742e-01,3.115181005628720468e-01,-4.913992428644079480e-01
1.835264782233766994e+02,1.230976804328561158e+01,2.475278602731251709e+01,8.633120662770349396e-01,3.513358902428080355e-01,3.622918277380401952e-01
1.188938449072191483e+00,1.064291576118638716e+02,1.363771761533209883e+02,8.164555365221644045e-01,5.735390923339280800e-01,6.673279887041086433e-02
1.219512050938729715e+02,1.820524526726942156e+02,1.998264557951716824e+02,9.400325396257569466e-01,-8.690748005147259925e-02,-3.298270976645984454e-01
1.801842274393274295e+02,9.438167727255196837e+01,1.467303203329157668e+02,-6.164794207945760718e-01,-2.202662239810024847e-01,7.559338028610276261e-01
7.816454982451594091e+00,5.177301342888158331e+01,6.152270498098065588e+01,-5.636836477728351946e-02,-2.202168695316663038e-01,-9.738208961734228231e-01
1.399865131011372625e+02,1.953988216697340761e+02,8.403776188894151744e+01,4.962864753764906212e-01,8.099714163138443945e-01,-3.124836621503995215e-01
8.808662513037988617e+01,6.974065491929319194e+01,1.609035318540384196e+02,1.876612671859146098e-01,4.554595841634841991e-01,-8.702527311016052813e-01
8.793187278099054538e+01,5.315100353653607357e+01,1.946802130266895290e+02,9.641872100000892232e-01,2.573071304672895909e-01,-6.431224363162295343e-02
2.777497227713680417e+01,8.725358007132102500e+01,6.816604942460658378e+01,7.649668271726478563e-01,-2.462781962932566460e-01,-5.951241915381633163e-01
1.327454310802912687e+02,1.313215331937609562e+02,1.368942414685639903e+02,-4.927614835263783299e-01,-4.248078980161671958e-01,-7.594237092255999855e-01
1.211334894975923362e+02,4.746437847814356559e+01,1.232656894949967068e+02,-5.292040205943923104e-01,-8.483859333294907490e-01,-1.357986426217393586e-02
1.909114980698651607e+02,1.889111306620317805e+02,8.347118789480579437e+01,9.864006447313328207e-01,7.948703527393467805e-02,-1.438595818670810045e-01
1.457868017504890474e+02,1.352844353518273124e+02,1.497275012832506036e+02,-2.085949169463295061e-01,8.370469609123133425e-01,-5.058068266142857761e-01
1.213844386795647239e+02,1.972319386587776933e+02,1.760523758131398893e+02,-8.588749648731018871e-01,4.255925715974318013e-01,-2.849644850035048527e-01
1.184453815477020413e+02,1.780672332011868093e+02,1.335121430903627129e+02,1.255382327326112768e-01,-7.618296052433651822e-01,-6.354965025042317306e-01
1.732070538332629326e+02,1.127795057077061784e+02,5.541504785755422091e+01,-5.724373690523730795e-01,-7.762615998895959768e-01,2.640707993081439220e-01
1.772646098688751692e+02,6.016779384701886357e+01,1.747592369344462497e+02,8.862312993233604219e-01,2.150912458538375427e-01,4.102801970052568636e-01
6.518614893855590253e+01,1.645305387854835146e+02,1.271662884639450368e+02,6.523682466157513238e-01,-7.387691017600426235e-01,1.692214084864860635e-01
1.117620038337617103e+02,4.244629287900126258e+01,1.445175690538043511e+00,-6.515308662898895709e-02,8.428918641859375893e-02,9.943090104960364828e-01
7.780667691285387377e+01,6.402457789043873504e+01,1.718231701656158066e+02,8.560643101342306771e-01,-5.121060846695759672e-01,7.000896340327553147e-02
4.623032858401563772e+01,3.872214271359249338e+00,2.602941296842309882e+01,5.130338200497680523e-01,6.704068558592339855e-01,5.360512541726570879e-01
9.750671150501230500e+01,3.079804395888706026e+00,1.953011565893881709e+02,5.741081783426830176e-01,-7.704924436945090882e-01,-2.770220095366250912e-01
9.816975315079806919e+00,3.402396065414657045e+01,1.736117718762398709e+01,2.832886349219624900e-01,8.499486681691520440e-02,-9.552609182505195085e-01
1.831036112084140655e+02,9.546318480010369001e+01,2.704949393058528884e+00,5.772857407543332542e-01,2.795976281861723978e-01,7.671807738938635213e-01
9.914520544121199919e+01,1.807888452146220004e+02,1.577430388256231026e+02,-8.729711947495182311e-01,4.869270652487323603e-01,-2.869366243363260377e-02
1.707407114080607471e+02,1.663672990029595269e+02,1.476908183854459367e+02,3.922855272093134921e-02,3.481278491968060051e-01,-9.366259238687700828e-01
9.004602244576547321e+01,1.606307440419229522e+02,4.621888047302103786e+01,-7.005573722757387767e-01,6.680665964100570564e-01,-2.508114648679242165e-01
2.282410608514110351e+01,8.584143950053557148e+01,4.751852127928891889e+01,7.666042245809548961e-01,-5.350815178508850911e-01,-3.549728610852180277e-01
1.986574086783305972e+02,1.245273823438585197e+02,2.211519998711085222e+01,8.009076113962035892e-01,5.493395565147736193e-01,2.382709584774853340e-01
1.850913456333528302e+02,1.190879393337999090e+02,3.566717503044461068e+01,7.828781908910187326e-01,-6.195746341317533989e-01,5.682438706848777499e-02
1.367693476163501884e+02,1.567922516554487800e+02,1.619403537787156466e+01,4.320821152847686974e-01,8.941907956584912998e-02,8.973902572786470744e-01
1.609361358974127825e+02,9.842663295311140814e+00,1.583686481140757962e+02,4.305857667973904124e-01,-8.793999727563881486e-01,-2.031048629293921992e-01
4.468712239511107498e+01,1.358345041292276960e+02,1.573631393059355901e+02,9.677704839699434736e-01,4.333918433327334056e-03,-2.517965597572668357e-01
3.719852893457725429e+01,1.516579450006914520e+01,1.127448494134915080e+02,-7.822319416951838411e-01,6.148430166396213759e-01,-1.004054494500814521e-01
4.022357616380210033e+01,1.992777814441672604e+02,7.787705354455860629e+01,-7.514744271804940645e-01,-6.569862491010539651e-01,-6.045869485753038730e-02
5.593533211135665084e+01,1.331643427716315387e+02,1.284212461849275257e+02,-8.431474637099629632e-01,-1.050006615117885511e-01,-5.273302717648052917e-01
8.027422599434355277e+01,1.236741668282118383e+02,1.634894918658199288e+02,9.292333658740816738e-01,-2.280087078968232595e-01,2.907531270124987799e-01
1.164351763340471848e+02,1.463388104926278857e+02,9.911872777059961948e+01,4.348480425881000588e-01,8.219094666593208531e-01,3.679293525543846921e-01
9.923700982527792291e+01,5.467420785858445953e+01,7.884957586146352071e+01,4.395452170129141023e-01,-8.189300687606009266e-01,3.689898978005058394e-01
4.656245307254433641e+01,6.804201293773793680e+01,1.309510061519952018e+01,6.755337953076273605e-01,-3.208903577605089485e-01,-6.638399428262848900e-01
5.137760186801170903e+01,7.492872620563554165e+01,1.118220116993996953e+02,5.836769157313376200e-01,-6.631152241377856749e-01,4.686144017815153662e-01
5.605817187541317281e+01,3.198113755795041513e+01,1.007117563255753225e+02,-6.098331118697422060e-01,-7.470614213226476341e-01,2.645804384996217062e-01
1.162643245601334741e+02,1.698143292796252979e+02,1.758096580532640303e+02,2.778470730182348025e-01,4.274515444304456402e-01,8.602826170376957071e-01
2.566365839193161236e+01,1.909629688655266477e+02,4.746902655721930131e+01,-8.775364880766093334e-01,4.186038108890980380e-01,-2.338815118843190766e-01
1.120889269040350342e+02,8.549213098839123859e+01,4.974939947522718597e+01,6.506513543509030717e-02,-5.650210975629028631e-01,8.225069528323916135e-01
5.545536901444386757e+01,5.719754552432736006e+01,5.472294144083043221e+01,-8.646058652653396126e-02,8.708935934114124811e-01,4.838066927301080677e-01
2.502098782903203755e-01,1.760585058028628112e+02,1.959190446537859742e+01,-4.004008093347508623e-01,4.903212875120378511e-01,-7.741215840516356694e-01
7.956247330444257670e+01,3.385787608150350536e+01,6.187413530434032083e+01,4.525154202405254344e-01,-1.753168431753583389e-01,-8.743533604564962536e-01
7.462807764736240301e+01,1.578455164380737301e+02,8.490725804543528454e+01,-6.667329385441703726e-01,7.328860789828310907e-01,1.354443940937652691e-01
2.025523935276234866e+01,1.408444513156150606e+02,1.707064231260384872e+02,-8.732670780917495268e-01,2.093668730552354362e-01,-4.399660473106660752e-01
2.869217871473001225e+00,7.749938754118578288e+01,4.239933097631172387e+01,3.002323323756589390e-01,-8.980114745484133465e-01,-3.216145801633631951e-01
1.271289509944479619e+02,5.276372272453446755e+00,2.521953775995910263e+01,-3.236551042305410020e-01,6.543292819530098781e-01,-6.834475578143331953e-01
1.792377899005904283e+02,1.750025203138960990e+02,5.164940173004569601e+01,7.227244556068130876e-01,5.936616383877539593e-02,-6.885818904508768101e-01
7.796244932797425520e+01,8.884927508163359278e+01,3.697071035335246592e+01,-6.214455633750132213e-02,-7.748102205446323332e-01,6.291320817246515151e-01
1.742008107085459301e+02,3.207459879543166892e+01,1.311550788541732686e+02,6.878013314440220571e-02,7.130078770670097432e-01,6.977743621852513511e-01
1.362030988123271129e+02,7.436814076744157376e+01,1.860354007942617898e+02,-8.348668753189523173e-01,5.458551144591448079e-01,-7.098939717988186904e-02
2.613351250274444038e+00,1.890397004007679129e+02,2.487803952436413368e+01,-9.234513576508402988e-01,2.760118464399475280e-01,2.665615326254538453e-01
8.508928904624232459e+00,7.928967571695612548e+01,6.961123553424279464e+01,1.974670418831801499e-01,-7.826534517873310337e-01,5.903052953966129168e-01
1.940972659854883275e+01,1.969151031030913543e+02,7.254600980329614401e+01,-4.667134563702095007e-01,-3.904954783989123546e-01,-7.935312413452776381e-01
1.062829114550025977e+01,1.912462761330962451e+02,1.913123056466446315e+02,-9.101251379817230924e-02,-2.405904377287506613e-01,9.663503317139315874e-01
1.721891116762162994e+02,8.715507967185450866e+01,9.744179488991564142e+01,2.894606477412162149e-01,4.805747565337508687e-01,-8.278045885290572503e-01
6.043170933173323789e+01,6.114815307646027875e+00,6.134104076209879253e+01,2.533859930035754493e-01,6.328458628270843267e-01,7.316431182278934076e-01
1.405297505134142000e+02,1.283562939975132338e+02,1.690661516695060129e+02,5.345362085960490006e-01,2.166807643248186699e-01,-8.168968650137995446e-01
1.795923445471065634e+02,1.577694484647930118e+01,1.698940197799391001e+02,7.046860118234861137e-01,1.462980708806711494e-01,-6.942726403905771226e-01
6.053980461478811748e+01,7.872303802468353240e+01,1.782647930062103399e+02,6.470028965714628155e-01,5.319060309405611031e-01,5.463178800617785047e-01
1.938426574650505643e+02,3.140750612128037744e+00,7.988931629558746295e+01,-5.787878952379965636e-02,9.851289366767930211e-01,-1.617746081537850544e-01
4.920263125735014853e+01,1.278772203804042107e+02,7.179348449445670610e+01,-5.380254281797640648e-01,-6.438687632225838751e-03,-8.429040170337049886e-01
6.499076346561862749e+01,1.954389177599605034e+02,1.590286210827691207e+02,2.225071832393097360e-01,-5.674265031032489359e-01,-7.927910928995903772e-01
2.936185151888639311e+01,1.379927760314655529e+02,1.373634532156750652e+02,3.497463487111873159e-01,1.106071973716580420e-01,9.302921796138994281e-01
1.444949954648226935e+02,7.297286221701897091e+01,1.114932976219756284e+02,3.243119491242852370e-01,7.625391468870810208e-01,5.597819299673130189e-01
1.391800934399689140e+02,1.798934861946189017e+02,1.084124575417581866e+02,6.862923133920703078e-01,5.854706033998363646e-01,4.315403030211570901e-01
1.419934246311709671e+02,1.997550565720272289e+02,3.188212295534300011e+01,6.067732911120118366e-01,-2.903703460315989679e-02,-7.943443987418506991e-01
1.487235239548699894e+02,5.162975741067488400e+01,9.503482786344852684e+01,6.997983838054810946e-01,-5.912816602690411649e-01,-4.008344050237241385e-01
2.473571379006246218e+01,1.150291103583240186e+02,8.663672159057952626e+01,-2.933226179975101031e-02,-9.795975399262794037e-01,-1.988171979132901390e-01
1.271361306881309972e+01,9.711669047987567183e+01,1.761483920315957619e+02,7.048980543040674895e-01,1.685166094031714246e-01,6.889999168298925891e-01
1.903494887960971127e+01,1.410984920029725913e+02,1.110029991696155349e+02,1.858872306295559218e-01,-4.136990264509868287e-01,8.912345667670100724e-01
