x,y,z,nx,ny,nz
5.316620772457391695e+02,8.735058613088058337e+02,8.679255283953236244e+01,2.158760173308625907e-01,-1.699558552248751353e-01,9.615157577575867975e-01
8.173930149931943561e+02,9.705732466436558070e+02,8.925049230582436621e+02,-5.570527730298303615e-01,-4.730844350301574019e-01,-6.825564631530297577e-01
8.459483858322648757e+02,4.154796814429217875e+02,4.484980921660836088e+02,4.844001891444512653e-01,-4.879173952754817800e-01,-7.261494833327427623e-01
7.296220402476378695e+02,4.137602483345180531e+02,6.345096080854044658e+02,4.327395028297497670e-01,3.659450286099077410e-01,-8.239057948129475673e-01
6.510126213461616089e+02,4.580825701251789610e+02,5.991196778876892495e+02,-2.964074805111338584e-01,-5.938214914598715088e-01,7.480097872203381737e-01
1.918001784253310404e+02,5.441003718623077248e+02,7.820665133251183079e+02,2.105338644715813723e-02,9.835435093428422926e-01,1.794405755359503030e-01
8.459209531911202475e+02,6.390268468787572829e+02,3.668841821490173061e+02,9.162235977043874380e-01,1.493228551657239112e-01,3.718023721478724841e-01
2.774213343580460673e+02,9.892796334854054976e+02,2.033671517238185800e+02,-5.341003188451425299e-01,4.832938291686028065e-01,-6.936598042967938582e-01
9.609031009075127940e+02,4.483892495126795552e+01,6.447953514500902656e+02,9.855280838456116355e-01,-7.642197326499185206e-02,1.513078912478858229e-01
1.869842453707800587e+02,7.732140358069865442e+02,9.513184701575419240e+02,2.718586376144970784e-01,7.072683152334766632e-01,6.525828770517880795e-01
7.195086258187341173e+02,6.805282763510824680e+02,8.465484893645094644e+02,-7.793053648446739423e-01,-5.193928282685842390e-01,3.505912695254556066e-01
7.546869972062989973e+02,1.079969966806828552e+02,3.064474401135261132e+02,-2.146365853967392989e-01,8.890099619007079124e-01,4.044656028026736294e-01
6.972890832425137830e+01,9.845850736999333321e+02,6.984280067523203570e+02,2.998246512297672028e-01,8.551621897127562599e-01,4.228508103346053648e-01
7.122688303235585181e+02,3.666483253179733310e+02,6.883502904671804572e+02,9.259426422577107241e-01,-3.773264797432799855e-01,1.596718301246080954e-02
2.246837083164122646e+02,4.637717905475582256e+02,7.752268304707100697e+02,-1.794130106654540646e-01,9.260970758053537200e-01,3.318963359073592856e-01
6.868167815277547561e+02,1.793716708519327199e+02,5.268716080280611322e+02,4.964500738537578478e-02,3.056085316350549697e-01,9.508621343988683527e-01
9.879515669228559318e+02,8.444331921511046630e+02,9.662801496779422905e+02,-9.575758363414405006e-02,9.704804346135458282e-01,2.213553957075666823e-01
6.029013978072035798e+02,3.811066782198424789e+02,9.128278382675239300e+02,-8.003196424932933206e-02,-9.215403826295580636e-01,-3.799450063908746955e-01
1.192574730929820674e+02,6.163037287829296247e+02,3.865842486468562811e+01,8.646064763461737135e-01,3.658782461165595579e-01,-3.443671733468849361e-01
9.588323838244212993e+02,7.487466473284047197e+02,2.710468217447528332e+02,-4.690543387815951926e-01,-8.442708761742971912e-01,2.592194339050315488e-01
2.687710864429841990e+02,6.455896432331286405e+02,2.103288868261341520e+02,-8.991287446476177170e-01,-4.319986830136224309e-01,7.031812300463503862e-02
6.063992567818032597e+01,8.486487690591679893e+02,1.797140034992711435e+02,2.811117506264645960e-01,9.375006193205990268e-01,-2.051067342463863685e-01
5.645960711766391569e+02,2.043802900596301981e+02,3.921635073782544509e+02,2.670493605358812469e-03,-2.062673431674590663e-01,9.784920294036847377e-01
6.894910800867513672e+02,1.401856850489369037e+02,1.499028971956436465e+02,-2.165104080884483195e-01,6.353872035906114046e-01,-7.412194983287181405e-01
3.839776134665249288e+02,3.524263893436589115e+02,1.076381609096542746e+02,6.970773365032073565e-01,-3.148775029992881835e-01,-6.441547523992411373e-01
2.367859922698722919e+00,3.433101407791752990e+02,9.438531087238619648e+02,-4.629708398974674566e-01,-5.107278134768975519e-01,-7.244412342942254668e-01
6.443405591580254850e+02,7.494602320163530749e+02,4.595612576529444482e+02,-8.061959443457765440e-02,-9.800079280631175394e-01,1.818926659506634458e-01
4.729603064838220234e+02,3.764333948385170174e+02,5.621203664141853551e+02,-7.768726023790982760e-01,-5.960025298403206495e-01,2.031008224913562199e-01
9.051779253190157988e+02,8.257619066859206214e+02,2.546570851640119884e+02,2.780985441654113544e-01,-9.592929775432132988e-01,4.917502383685135037e-02
1.757475711030713796e+02,9.646124431803663128e+02,8.633552560966537612e+02,-7.558917968393648046e-01,-3.930509786456782284e-01,-5.235823905142638068e-01
4.033206356594809705e+01,3.578387372291308566e+02,3.044968628396593999e+02,-4.377923134696798946e-01,-7.363891953956084313e-01,-5.158186146034999808e-01
1.602154734348233376e+02,2.894271719694829699e+02,2.941345833803613345e+02,6.906852675409890230e-01,6.710954256133466744e-01,-2.694156471377888717e-01
4.139738110167580203e+02,8.330502662197250174e+02,6.534348120569259208e+02,2.297026459314338021e-01,3.136315786738297362e-01,9.213424593009158503e-01
2.964090210953411884e+02,3.389307148511005039e+02,2.949590004661620810e+02,-4.295850591755575043e-01,-6.828810959397445535e-01,5.908723091677814399e-01
9.350138763214343385e+01,6.953334549320013593e+02,7.500224959814200929e+02,1.988671035242718377e-01,-3.696473462064593374e-01,9.076412917989069573e-01
3.533271616604003498e+02,8.865242117266431023e+02,6.884341593025135353e+02,9.792637953571894927e-02,6.058917804122605499e-01,7.894970390190754195e-01
9.982676695920500833e+02,7.318808145298083900e+01,2.579438065826652746e+02,-2.378178443402035880e-01,-7.011788031243267882e-01,-6.721539696844134326e-01
9.773889610473784728e+01,5.661251012018341271e+02,9.883592921985651856e+02,8.252978604497898107e-01,-2.811324185738989234e-01,4.897427944991017412e-01
1.302184891143452035e+02,4.138601105269535765e+02,8.140944127044475636e+02,-1.262999275413399236e-01,-7.924787388705883950e-01,-5.966789561742009695e-01
3.566127820286337737e+02,6.455060693454837519e+02,3.216311325902357794e+02,-4.322404990688663018e-01,2.326584527942919256e-01,-8.712279812471954710e-01
5.831074293957937016e+02,8.945817269149719095e+02,6.090912507519966539e+02,-5.028194945147371892e-02,3.632850541257531818e-01,9.303202110070531994e-01
9.953497095745129855e+02,7.292532305695780224e+02,1.458171852458930573e+02,8.908228722977595826e-01,-2.688032683132471901e-01,-3.663050820494933579e-01
9.427975058352842552e+02,8.392097522712846285e+02,4.590780039543594739e+02,-6.973600842437139846e-01,3.302732390608508761e-01,-6.360884376121407335e-01
4.387066020616514805e+01,6.897078223641655086e+02,2.807638124270467301e+02,4.803877439374685809e-01,5.926531202991671687e-01,6.465213797503761572e-01
9.821720986578674228e+02,4.266226684323940503e+02,7.380663599742376846e+01,-2.205478649910887490e-01,-7.666308672146158187e-01,-6.030221825784176648e-01
9.104440091783756088e+02,9.850879758971326510e+02,6.201789544048305061e+02,4.169359230000656003e-01,8.940274775754279979e-01,-1.639490940877721681e-01
8.967356322230801879e+02,1.181817471765929071e+02,8.079256754276913171e+02,8.359036772531673876e-01,2.845525791664736404e-01,-4.693558053804603447e-01
5.346816395690144645e+02,9.643796371061305308e+02,1.903215328581878794e+02,-1.898645349098004032e-01,-7.758579173616457492e-02,-9.787399569365489160e-01
6.795330723922536436e+02,8.233745306948687812e+02,7.232122155284960172e+02,-5.221428179584311491e-02,-1.512333604105035034e-01,9.871180980386748960e-01
9.841155520457355976e+01,9.850021112091715167e+02,6.333034786308412549e+02,-7.297751592712994340e-01,5.151831664285098089e-01,-4.494602562399081513e-01
1.044392132638036799e+02,6.214103895040490215e+02,2.799995960285960450e+02,-6.257391627842981974e-01,-2.964688515659142931e-01,7.214961678409619328e-01
1.404530001241485309e+02,8.712268620556219503e+02,6.213142203601619258e+02,8.438531386516896493e-01,-1.590506366799737323e-02,5.363384279887181139e-01
8.996521745287988097e+02,7.410895421416348654e+02,5.293055636325813111e+02,5.158685257817355874e-01,5.943391851330550590e-01,-6.169607743796643451e-01
2.611165220745884881e+02,1.290478393704032101e+02,9.066514585802248121e+02,8.445129498513073152e-01,1.895597700032858879e-01,5.008642242461969207e-01
3.654135819534390066e+02,8.592133570669750497e+02,2.147617882191185004e+02,1.293379860983738527e-01,-9.915899140016306568e-01,-4.596498912822878126e-03
3.096998990836301573e+02,7.529483648067356398e+02,2.313487729056925559e+02,-2.479579859719467927e-01,-4.324396161331232613e-01,-8.668983882736043256e-01
2.485722023402790910e+02,9.593635077716256774e+02,8.740971965099920453e+02,5.322627493296084450e-02,-8.036931407240975878e-01,-5.926586700705531729e-01
7.182935086806641323e+01,1.075478834206899847e+01,4.085945298645321486e+02,7.509742461274704350e-01,-8.780000532243327493e-02,6.544683649487255117e-01
4.069375028044399869e+02,1.886344771340450279e+02,6.888068565693820346e+02,1.064668781036354206e-01,-7.617046422207010004e-01,-6.391172364177792886e-01
7.396579074954389910e+01,3.231304535917256544e+02,5.760215888367469006e+02,-7.988124658737220940e-02,-2.357937115888104618e-01,-9.685144872529374283e-01
1.510385274049100701e+02,6.230050306543444094e+01,3.328165268087308846e+02,-1.691361476699325059e-02,-9.840628892765072022e-01,1.770145744968092405e-01
2.272860549858950492e+02,9.627139332344512468e+02,5.506716912192626978e+02,-4.379921441083953759e-01,6.140021709784432291e-01,-6.566309585551760586e-01
1.436595774078801639e+02,6.356639918273993999e+02,9.747947123697208838e+01,-8.201571601844450665e-01,-5.403417793638354283e-01,-1.880770960859154961e-01
4.803296535041049538e+02,2.241049969987862767e+00,4.103813134100653315e+02,-8.513543768329833172e-01,-3.035670501808980792e-01,4.278349811455240403e-01
5.261100655798799153e+02,7.047398215637481371e+02,6.893047797260300058e+02,5.181835845237320326e-01,-5.251149170500264418e-01,6.750852513732470417e-01
7.489046166065066927e+02,6.132904834494510169e+02,1.903915810384937402e+01,3.900771004493052557e-02,9.638158443635859163e-01,-2.636994818173874489e-01
3.957559006212090367e+02,4.956107888330243441e+02,7.165942075947152716e+02,-4.838641564916062454e-01,-8.740936777254422196e-01,4.284531039772354610e-02
4.651095471103077443e+02,8.355971043872151540e+02,7.739277473184664586e+02,3.130959052023376543e-01,-6.695142248728697121e-01,-6.735886406690727579e-01
8.265703500854765480e+02,6.409355363927061262e+02,9.328655959743831545e+02,-1.112202183492288221e-01,2.278163417323644802e-01,9.673312656324266623e-01
7.659699038886449216e+02,3.305394017360545718e+02,6.433456352205504345e+02,4.608928621764376565e-01,-2.902264674143994472e-01,8.386574790741270213e-01
8.907532211544419170e+02,3.698944364618654959e+02,3.977151934579242720e+02,2.304857217256592872e-01,7.806297062973719392e-01,-5.809419882627531173e-01
5.214647892017085269e+02,7.644282316553474743e+01,8.629546967923695320e+02,7.002238230030877197e-02,-7.490012547761915052e-01,6.588580927033379497e-01
8.794566743102060400e+02,3.339218319388408531e+02,5.975106967687704582e+02,-6.980065997926746535e-01,-6.714946251048774517e-01,2.487604371702405726e-01
9.253987788779938910e+02,3.796153534657874502e+02,4.558860606566457250e+02,2.855977365550127142e-02,-1.143128962196693216e-01,9.930341892838421280e-01
7.443885957156405766e+02,3.154551866665289594e+01,9.615231457885004147e+02,-8.581372797656425591e-03,9.889481183338381109e-01,1.480134429194475132e-01
2.980764067151438894e+02,6.511722137569198594e+02,7.986187252994787968e+02,2.234013197018009378e-01,8.452957306161087425e-01,-4.853524267557263738e-01
2.367253731498841773e+01,2.273882801804607539e+02,1.683662302708287655e+02,9.620806122254246251e-01,1.439171550609394945e-01,2.317083253988030389e-01
8.830523039782431169e+02,4.986046558060368739e+02,2.917703400936403568e+02,-2.451683319321880106e-01,4.781508847412869745e-01,-8.433648204891599498e-01
5.600773510146683520e+02,3.277241754975802337e+02,2.651122691880293019e+02,-3.825620320006120623e-01,-8.910589239011205143e-01,-2.442545512528677687e-01
1.331364419641543009e+02,1.399028880368802241e+01,8.088475698884352596e+02,-9.599453947326226366e-01,-1.209242601382911134e-02,-2.799260837519959022e-01
5.230999774493582208e+02,8.558789230320952583e+02,9.224254973480328772e+02,-3.785154396676572164e-01,-5.061047849146070865e-01,7.749735534969819373e-01
5.727520476196085610e+02,5.063905470732970002e+02,3.972944858935691741e+02,8.960030827748336479e-01,1.079896452770840592e-01,-4.307165102139969282e-01
6.007509835915274152e+02,9.938710041826477664e+02,6.896273891208759323e+02,-4.373988741800236557e-01,2.761691277221197671e-01,8.558112161915449878e-01
5.050085081752974929e+02,2.764328572987563462e+02,6.044592319228818269e+02,-6.721688538179486361e-02,5.990956134889731111e-01,-7.978510739591955225e-01
5.978428916165529472e+02,2.402414905239561449e+02,1.926361923494494022e+02,-5.775226456649590334e-01,5.299416393442262230e-01,6.209907025337015885e-01
2.395039373622579433e+02,7.424824038802099722e+02,2.132033553128620440e+01,-5.961650205119894963e-01,-2.269914145092995494e-01,-7.701052954349856261e-01
5.113344505544104379e+01,6.752756472123455751e+02,6.620617578655268289e+02,-2.602367187070584453e-01,4.308309339083087053e-02,9.645831728267191263e-01
1.072362601281551164e+01,7.647698858081605522e+02,1.275381107184653189e+02,4.359768492255746142e-01,-1.337362239860072632e-01,8.899656225570204970e-01
7.259078853194148451e+02,9.517745680072428058e+02,8.909166768221454902e+01,4.713734264959447418e-02,-5.439134261656758396e-01,8.378163615999931757e-01
3.402066142307458563e+01,9.103322169487480551e+02,2.244394430818064166e+02,-2.435680446088273887e-01,-3.594971906612905999e-01,-9.007976340733094833e-01
3.041100923156684530e+02,5.557576989074752873e+02,6.935918113333315205e+02,9.185631512449746738e-01,2.199176332754902985e-01,3.284478219586921544e-01
1.993781348819134536e+01,4.262385238902777473e+02,7.742058856174344328e+02,-3.661669520020738866e-01,-1.147722680023034736e-01,-9.234441454463384602e-01
8.777517594694397758e+02,2.700134499267566639e+02,4.155626723856775584e+01,4.916256267086636655e-01,-1.891614616788830638e-01,-8.500130496520756918e-01
8.931600902418412034e+02,8.762920241607407661e+02,2.138159018578004122e+02,-8.252971237483744948e-01,2.429943057622828140e-01,-5.097434893157208879e-01
1.038231944981625787e+02,2.414503380775939831e+02,7.235441424419851728e+02,6.923368470202667657e-01,-6.622325326478911700e-01,2.865619705417929985e-01
6.204670165012088319e+02,3.263970155709579331e+02,2.044916719604880200e+02,9.080828818855377071e-02,2.112670491204118525e-02,-9.956442723863900834e-01
9.918774031767113684e+02,1.817262543885349544e+02,3.186410872514870789e+02,2.627650352577987070e-01,9.596855400573075512e-01,9.979078339647329265e-02
4.099251908661535140e+02,7.078077028038110257e+02,1.060591181330587887e+02,-9.353383712450926701e-01,-3.421771312042169028e-02,-3.520955543391393050e-01
4.624023326076195417e+02,9.372295238756491926e+02,5.297348543286206279e+01,-1.488884881333898402e-01,3.488985866459251572e-01,-9.252577988527463937e-01
7.630342776787982757e+02,8.411248008087487733e+02,8.190931211778223542e+02,-7.780655488942007647e-01,2.027930043799177906e-01,-5.945494083745546110e-01
6.854050956487185431e+02,1.272376944880696499e+02,7.872015513720215267e+02,-7.786371120360982001e-01,4.623865859595897021e-01,-4.241731873712901724e-01
8.968811748066700602e+02,6.024476139036514724e+02,6.428350267478673459e+02,-5.764148616933127689e-02,6.833773380850785006e-01,7.277862824098453309e-01
1.603577015132515839e+02,6.600742937793528426e+02,1.981733887376350083e+02,6.269742621836562613e-01,-1.358781694600300904e-01,-7.670986883207736584e-01
1.777297870733948173e+02,7.116105089874467922e+02,6.544987564338855535e+00,-4.675671289983452383e-01,-8.537681137267921772e-01,2.290436374659641228e-01
5.928711950228891965e+02,6.623322040243216406e+02,1.489072229986447837e+02,2.890630459321169021e-01,-8.388995596872560467e-01,-4.611833520769966221e-01
6.381154692578191998e+02,9.259369393524250427e+02,3.779735867987158713e+02,-5.082219285367529649e-01,8.241711943867009449e-01,-2.499046091963537108e-01
2.659186394314783115e+02,8.800746244295826273e+02,3.220749056532295072e+02,-1.068686927816422105e-01,-7.972906219320995413e-01,5.940595480945229934e-01
3.440523367507622083e+02,9.830719764476957607e+02,2.594291631674479959e+02,-4.598720220898701999e-02,5.697786773270887561e-01,8.205104728742851350e-01
8.432880492278427482e+02,5.280794486466546687e+02,3.890470817922130209e+02,3.667304169913161438e-01,6.392351545513678956e-02,9.281285392795721734e-01
4.461003861085263225e+02,2.385719132007788517e+02,7.860607925530138118e+02,-9.527367151449612770e-01,8.743648204923405720e-02,-2.909426287460172844e-01
7.468858119346897411e+02,5.846678338112965321e+02,8.323866546167222396e+02,-6.880081771747360575e-01,3.638458675083535154e-01,-6.279020089454967479e-01
8.891196222077215907e+02,9.381225777839730995e+00,4.496300503995982467e+02,6.097253379362942427e-01,6.367250731163724975e-01,4.720341020979541558e-01
7.729276654875608301e+02,9.555744314349357182e+02,6.270848275029063643e+02,-4.949674412600453266e-01,5.278680766860315288e-01,6.901902098032639543e-01
9.387299044084982143e+02,5.521391831897892644e+01,4.125089054970064808e+02,1.982439778236876060e-01,9.037720102102714259e-01,3.793355754699607729e-01
3.017081079807657602e+02,3.716542051008109411e+02,1.892518443152392251e+02,-6.456568816003821487e-01,-7.454339441450466008e-01,1.656967898253609850e-01
1.215018006415425873e+02,1.995745625377320920e+01,7.086323373947989523e+01,8.764641345885771928e-01,3.664490856470794394e-02,-4.800705900762727296e-01
5.576142281227001831e+02,8.115562950060565299e+02,6.696835337071780714e+02,-9.407976780320956856e-01,1.465804378633027705e-01,-3.056368829922522234e-01
1.146031938075653400e+01,2.910376277179943258e+02,8.531026263267305012e+02,-5.746245669472930251e-01,-8.171175849103446964e-01,-4.610270589587717183e-02
6.782263005498404027e+02,2.965222033461485580e+02,6.663531494356737994e+02,-5.149492817758548335e-02,9.628905314329574416e-01,-2.649341368127975382e-01
6.846690328644813235e+02,5.709555941946988469e+02,9.104812678051448529e+02,4.960535890831570538e-01,-8.533816960079787517e-01,-1.602202161909169753e-01
5.935961107826558418e+02,4.719620729400618870e+02,5.587119767432266144e+02,8.355055425069148889e-01,5.336092024462685268e-01,-1.311171518333254238e-01
7.383420937536133124e+02,8.880776017096889063e+02,9.387872865138398311e+02,-4.353350545654230963e-01,-8.543246425797570431e-01,-2.839239252819152348e-01
9.658176462043381889e+02,1.656964286898936507e+02,1.140714974431410411e+02,2.769660429927860434e-01,3.947258152330351128e-02,9.600686050157063445e-01
9.605766779772521886e+02,1.084131407646593601e+02,9.943030538625472445e+02,-1.711822730297948500e-02,9.960454193200826145e-01,8.718078312038923805e-02
2.936431604004885543e+01,3.959278310564021695e+02,9.912099209266192474e+02,-8.919516887784171288e-01,3.734429990589561710e-01,2.548774437630412781e-01
2.127476932846957709e+02,3.773096148799580760e+02,4.302849011110547508e+02,-2.678917778543674633e-01,-9.621922878589838080e-01,4.919346036538563977e-02
7.135613619815294442e+02,4.455963062110701856e+01,2.800932197748352337e+02,8.972072702539610756e-01,-3.638157306060754159e-01,2.503142592162967972e-01
5.849780227544387117e+02,8.370055335092214364e+02,1.162874438894557727e+02,2.871171774945304178e-01,-4.493447221879481313e-01,8.459627929344233355e-01
3.597368811236623287e+01,1.807256984310922121e+02,9.836735757886950182e+01,3.822593902806012967e-01,-8.602352774706606420e-01,3.374507755766441019e-01
6.932568011890363096e+02,3.810035287199630147e+02,1.753518113324122965e+02,1.518667599692307968e-01,-7.333650625188516958e-01,6.626553948268806282e-01
6.111300584553634963e+02,7.271083329498405874e+02,1.810347779692955683e+01,9.874501470736218867e-01,-1.747770790574584843e-02,-1.569609402706415857e-01
4.819668059699159244e+02,5.149208449798584297e+02,9.329892324405947193e+02,-8.441111961902669769e-02,2.766262202595954900e-01,9.572631284811674579e-01
9.885149047546333350e+02,2.440222365422258690e+02,5.419649415193746336e+02,7.897573305050140102e-02,-6.502123293704922258e-01,-7.556366589332035311e-01
5.587455022785611618e+02,7.922140530795585391e+02,3.925600152002627397e+02,-3.319212983843298215e-01,9.123151807405401881e-01,-2.398108893883184323e-01
2.617218762950095652e+02,2.278084480477404838e+01,9.220840465458459221e+02,-5.240733042802982189e-02,9.673972122843599308e-01,-2.477823750428111982e-01
7.938267922385485917e+02,5.387034633926600691e+02,3.346625594111739588e+02,-6.388273699935685945e-01,3.122803727792301531e-01,7.031220094151264810e-01
1.824089014606487069e+02,5.279906574328874314e+01,5.625692596536421206e+02,5.060390445824326511e-01,-4.026670150871893838e-01,-7.627475075795868698e-01
5.992751481544100756e+00,6.063201430618951235e+02,2.304232485812793811e+02,-8.114417841913701412e-01,1.155377384489187226e-01,5.728989979590077830e-01
2.767213530662812104e+02,5.528448934533967076e+02,3.881199989736552425e+02,8.650387506183319086e-01,4.582941500591528050e-01,2.041431653282426428e-01
8.592195396995568899e+02,6.867115383168213611e+02,1.961089669260037738e+02,8.481262083107571348e-01,9.685966737744100552e-02,-5.208647997436089971e-01
9.673977508818256865e+02,1.206694267097533384e+02,6.023843091421846339e+02,9.961024076338086397e-01,2.302930464880848307e-02,-8.514484502024810553e-02
2.451950769252555631e+02,1.636903296731568958e+02,9.901384606061608338e+02,7.255900702588687912e-01,3.038781464594631498e-01,6.173954340988365708e-01
7.723043841219856631e+01,4.212513811141850510e+02,9.348836112036083250e+02,5.712623300771159096e-01,-1.269032431940033956e-01,8.108975996398730679e-01
5.092774378534376183e+02,2.755395218639380346e+02,8.012747926984341120e+02,-6.625504630999370370e-01,4.031198023661576868e-01,-6.312854416080961872e-01
9.195447550067272005e+02,6.814588626771912914e+02,2.523768992052988267e+02,-1.945721432279902130e-01,-5.797834161850155127e-02,-9.791732190898783106e-01
8.369557236241477085e+02,6.467789470849280633e+02,4.445070020849684056e+02,-6.810529825390569947e-01,-1.365627161032990089e-01,7.193868636173061937e-01
6.093595334698444503e+02,7.257230346608589855e+01,8.262393425988581157e+02,9.812091661901943818e-01,9.879495226145250386e-02,1.657351187648561652e-01
8.754201027794250933e+01,4.958929211971741324e+01,8.284358051504860896e+02,2.804134842604300015e-01,-9.166106155456253957e-01,-2.849443056353213599e-01
5.988185448590493252e+02,7.225900364023721067e+02,6.847903078479256465e+02,5.243318899486169027e-01,8.509887200047194789e-01,-2.990430750980244134e-02
9.108971646106729168e+02,8.106551158934162231e+02,7.684250295170274967e+02,-3.920247493616659806e-01,1.576472664098988452e-01,-9.063464763992903350e-01
4.094983934195355459e+02,6.154417878302065503e+01,6.603083330627530358e+02,-2.909038249860021463e-01,7.643990211648993283e-01,5.753860452345513909e-01
1.912927302729493420e+02,5.040473177852333606e+02,6.612687627027331700e+02,-8.138471218860957590e-01,4.990203474269140349e-01,-2.977105222387015360e-01
6.805105972879932779e+02,7.173687095402926843e+02,5.327577126232865794e+02,8.910486617219380845e-01,-3.229208972875993178e-01,-3.189896182299900573e-01
9.274492549647179658e+02,9.058799346580126439e+02,4.375234834317826085e+02,7.753136465692793688e-01,5.090754681838426388e-01,-3.738059886316000835e-01
6.578311717941039660e+02,8.212766400708774199e+02,3.718417343938073145e+02,-7.689661932319401538e-01,-2.926944528472396612e-01,-5.683493212266850225e-01
9.521986375491114813e+02,8.870887650729960114e+02,1.904408715750517445e+02,1.658797600814996762e-02,-9.997093667176344400e-01,-1.749346017743480877e-02
5.774997747437773796e+02,2.568519233940619415e+02,4.347873580967191742e+02,-6.376024257399641737e-01,7.039938443169380111e-01,-3.128191392072621757e-01
1.629783246226925826e+02,6.903515603260606213e+02,6.164594903837571565e+02,-8.549800614248687092e-01,1.614850454382091849e-01,4.928809944253758069e-01
1.830964457575935285e+02,2.452259830400846852e+02,2.507571200109356369e+02,2.716295023056426450e-01,5.144973235436826053e-01,-8.133325995824685073e-01
2.432183524422193557e+02,3.722106736455164082e+02,9.279439584483928911e+02,7.701293367499101317e-02,-3.942736873849237433e-01,-9.157604858709873508e-01
7.252617139115526470e+02,7.918028125080774089e+02,4.799641610071224704e+02,7.886398114379690183e-01,-2.504083828140160617e-01,5.615539952948014335e-01
8.111610432053101931e+02,3.801750945342942032e+02,9.888103110565696170e+02,2.766592710726667459e-01,-5.026310726774604332e-01,-8.190370275565361791e-01
3.288780921668329711e+02,6.418630929594044119e+02,4.479722178327375559e+02,3.558387250438022620e-01,9.090134901614682628e-01,-2.169637676287621275e-01
6.931126810269682892e+02,6.672465159335972658e+02,4.406309065850365414e+02,-6.365865553946330191e-02,-9.508329474644382495e-01,-3.030912100193552949e-01
9.545911943213795894e+02,9.237017384554042110e+02,5.778576096193919511e+02,4.756754338112015312e-01,-2.884347761319595582e-01,8.309863185313171030e-01
6.464477122256612347e+02,8.497904517138143774e+02,8.440749927832974890e+02,-2.436544923009047459e-01,8.861076509140748403e-01,-3.942660515098004304e-01
4.198025410409121037e+02,4.379277016697632234e+02,8.899787766589696503e+02,8.982194437361869233e-02,-9.904668302559234139e-01,1.044388647569785139e-01
2.214092277280466092e+01,4.707685156745577615e+01,6.864084594308592386e+02,-3.639135605024685360e-01,7.199358975207718059e-01,-5.909815766530941428e-01
7.564768266669991590e+02,8.428230505231518919e+02,4.675258187900956841e+02,1.072694290523292515e-01,7.545721665708354786e-01,-6.473902339604626910e-01
2.713536545268647728e+02,1.626880308505321864e+02,1.112541182298701870e+02,4.048579642419236624e-01,5.143228462021876002e-01,-7.560172211427238498e-01
8.271649266096459314e+02,8.627356498015564057e+02,7.317390029384926038e+02,-1.470800382197019196e-01,9.466535076904698809e-02,9.845841425297607863e-01
1.030235505575383144e+02,7.723450359540793215e+02,2.453610015545139049e+02,-7.581805301431763233e-01,-1.722433609489916473e-01,-6.288835411431972222e-01
9.093353654670530659e+02,1.888700835977928989e+02,3.420415974352886224e+02,9.607593287885185518e-02,8.932809743751120024e-01,-4.391110519457566141e-01
5.421161898841403399e+02,7.633955527082318895e+02,9.838253935725160204e+01,2.668050623932194387e-01,3.944186785362021608e-01,-8.793457594729767735e-01
2.206639376200019171e+02,2.737693731560403307e+02,7.169844260220901333e+02,1.983807351350297121e-01,2.358764833426523766e-01,-9.513187523292014891e-01
6.428265883391393345e+02,9.222988546224903530e+02,5.804842240528012098e+02,-2.780337701775571491e-01,-1.552531621741221057e-01,9.479418116507938308e-01
9.228068735715265802e+02,9.814214803597861874e+02,9.222325834007505136e+02,3.582885365260617405e-01,-4.641770919308819132e-01,-8.100425617957383029e-01
7.186151989249384542e+02,7.243399219100323307e+02,5.954519000375366886e+02,-9.259863459185786738e-02,8.681441470788270331e-01,4.875974084882932491e-01
8.285503909897176982e+02,3.515646617949690267e+02,6.854972531302960306e+02,1.925129855825458425e-01,3.613447372372382560e-01,9.123424418786214574e-01
4.446913031321353174e+02,8.274736015580108983e+01,9.150331575806357023e+02,-1.524525832010760473e-02,7.164552310778748989e-01,6.974664751512449357e-01
9.361229913675222178e+02,9.905625718865964018e+02,1.916996844402126783e+02,8.607653555918325372e-01,3.885612243448745007e-01,3.287904766693801051e-01
9.338894085121171429e+02,8.079957949687583323e+02,6.688211222127168867e+02,8.608252986349993474e-01,-5.086816892987433558e-01,1.492461731975214430e-02
8.729393265692368686e+02,4.074281314466437038e+02,1.441439527721287561e+02,7.301495486555437120e-01,-3.492403499524098232e-01,5.872927843616198018e-01
9.166993699232626795e+02,5.927064564837814942e+02,4.269962422331954599e+02,7.001499264508140863e-01,-1.435707712515531531e-01,6.994122633562795954e-01
9.927439010550081093e+02,2.972134822754168937e+01,7.697628900251299910e+02,-1.836902497934422562e-01,8.590853074816230395e-01,-4.777345775637640291e-01
4.453052564100089512e+02,5.073777880706531391e+02,1.359649161421664303e+02,-3.386269783998245297e-01,9.043065397962859464e-01,2.599258578546448373e-01
7.872077104462232455e+02,7.252487224194936744e+02,1.404928746874624039e+02,2.318347031760259747e-01,9.545353858217952014e-01,1.873896144862903235e-01
3.046683955065362284e+02,1.109402858628594224e+00,9.961254816473513074e+02,-8.867277270838918035e-01,2.773319824140942358e-01,3.698660697480962156e-01
1.712395041767509269e+02,1.890488045561880028e+02,1.691556955231053792e+02,-5.318252923153824474e-01,8.468427769837386654e-01,-4.378301511753557307e-03
1.160858647665424854e+02,8.073436712913873237e+01,2.848547028462519393e+02,-8.966261347489832279e-01,-3.057017936209773246e-01,-3.203248161819745587e-01
8.754949781868784839e+02,8.784052441836596472e+02,3.861579674393198616e+02,9.973109377610833715e-01,7.134116081212595051e-02,1.677296026606223470e-02
1.903633788723657574e+02,1.739837398537380508e+01,7.176401292190155345e+02,8.554617130654141866e-01,4.840715314804559521e-01,-1.840108961158357648e-01
7.656335236881739092e+01,5.184635587077808623e+02,6.527709457178914363e+02,-8.181110248271051821e-01,-5.684853217508263334e-01,8.671095669062434119e-02
1.367348194182964676e+02,5.748089203824756623e+02,8.861648190026938892e+02,-4.822684510858037815e-02,5.414087692066598123e-01,8.393751938418259062e-01
2.326927152506193011e+02,6.268263950952923551e+02,7.562263760535824986e+01,-6.323151321213816844e-01,-7.544386057210457075e-01,-1.760680660653837493e-01
7.572928985955071539e+02,1.710464866973418054e+02,8.218880308279191240e+02,-9.787755586538412489e-01,-1.631355101488031756e-01,1.240371360131746759e-01
9.405371893782037205e+02,9.256279575534014157e+02,7.005401197089144034e+02,-8.882554243454345855e-01,8.077788695852579359e-02,4.521915900361566099e-01
3.896030377645347471e+02,5.419545425118520825e+02,2.399178427969661520e+00,4.025602625370028331e-01,1.188589531857286857e-01,9.076440845803668278e-01
7.151778825807408566e+02,7.388053108750685851e+02,3.288951100682413653e+02,-9.767996465988891819e-01,1.562081574828997621e-01,-1.464973103510189834e-01
6.894022559126977967e+01,2.421366864222583786e+02,2.328856632139264349e+01,-3.557488350132776977e-01,-2.257361486219154056e-01,-9.069101154976937362e-01
2.639947395536188424e+02,9.399625896259692581e+02,6.580215699030790120e+02,-3.758193927666920661e-03,-3.462543710738194003e-01,9.381331390003637694e-01
9.425092523553112187e+02,8.670201812576938210e+02,8.165084303837483048e+02,-2.911411609816191848e-01,3.026271824276960398e-01,-9.075536418516256809e-01
2.145264324549744970e+02,6.664960519798295309e+02,8.918390056203975291e+02,3.570822251459087049e-01,8.275382403464794923e-01,4.332121250024046355e-01
4.488628949146280434e+02,3.058150487140007954e+02,1.550369198983081453e+01,-7.455682821721295594e-01,2.168981931507828753e-01,-6.301453089778781269e-01
2.579184663800205612e+02,7.220234144017765630e+02,7.986206527499184915e+01,-7.103236057743071985e-01,-6.818190199629611259e-01,-1.748233368190128811e-01
7.943782457286691852e+02,7.754328726605451720e+02,8.694823750047385147e+02,7.335648617802075222e-01,-3.347496689819079996e-01,5.914602714281731455e-01
9.924218175293277682e+02,9.113466494824184565e+02,3.590652308387425364e+02,-6.717004283309238044e-01,-7.322694618832346070e-01,-1.122495869626769505e-01
7.980838213368132301e+02,2.168734512938306125e+02,5.866116121794584615e+02,9.371693092147221904e-01,1.040443922313420005e-01,3.329991746404352693e-01
5.055993168974170970e+01,8.331099487861853277e+02,9.958031025722796130e+02,-1.737025984571715087e-01,6.137739697594957189e-01,7.701356512556059020e-01
7.469349739912811970e+01,6.308157806252521596e+02,3.362560880490003115e+02,3.316101631183032139e-01,-7.222973208525320654e-01,6.068947849552728258e-01
9.102130934831542675e+01,6.025432202377194244e+02,2.236461832685249362e+02,3.163841476738125102e-01,8.584260829132263071e-01,4.037396825616353380e-01
3.050152821134369674e+02,4.270548769688836614e+02,5.760877562312043665e+02,-2.339905878945426967e-02,4.129294175691657909e-01,9.104623990883737861e-01
5.846570531326500486e+02,6.165053676921205579e+02,4.910185482705241498e+02,3.383153402861855397e-01,-6.550051882877100384e-01,-6.756559285932626224e-01
9.667212682067092828e+02,1.844358904718615975e+02,1.198695887505130031e+01,5.867124846895901413e-01,2.920009140473953657e-01,7.553171032783868588e-01
8.887771621095256478e+02,8.811155694493813826e+02,2.902094417342360089e+02,9.609375328781361025e-02,3.323446334576934946e-01,9.382499854468062672e-01
5.478708726729390719e+02,1.600255048813482688e+02,2.318952881058852142e+02,2.608974447675559971e-01,8.886518698128001992e-01,3.771344290726773019e-01
5.098895980515809470e+02,6.669411120346521784e+02,8.671788773926559770e+02,5.160079843315268366e-01,-6.169414702367075343e-01,5.942381529389414441e-01
6.033582294222273958e+02,1.503732702732039002e+02,4.549350520500705386e+01,-9.248724565557840949e-01,-1.893553374960517954e-01,3.297809807527196657e-01
9.782109735536153039e+02,2.429614633370698016e+02,2.106867819672836220e+02,-5.396181868030044404e-01,5.568183487649358554e-01,6.314788507544240037e-01
3.238141217983709907e+02,6.372052437697298046e+02,2.457029925757310309e+02,-5.740263951663198139e-01,-2.062485640711452517e-01,-7.924362608254058582e-01
4.376111828891846471e+02,9.365254053678438595e+02,8.755591019870673790e+02,8.910150935586161891e-01,3.926635750174859996e-01,-2.278319993004003230e-01
4.498367732540758084e+02,5.795437176548114167e+02,4.798514321012503814e+01,-1.893690625691036022e-01,6.232787072466132727e-01,-7.587245951164951485e-01
8.166762170205169014e+02,9.448697148142208562e+02,5.862820958170881340e+02,-9.624008183282568574e-01,-2.713497326919031005e-01,1.240916794690383185e-02
3.630228515329118295e+02,3.128558522154910406e+02,1.588896074313621511e+02,-5.936258601891881703e-01,-1.147458713296083954e-01,-7.965185014344962067e-01
7.163058871458396197e+02,1.680408958613077886e+01,5.645829407476815049e+02,8.935368261726855943e-01,-4.018981449177552734e-01,2.001744773564075874e-01
2.123054884821513610e+02,6.135474295838362195e+02,7.772599745394866204e+02,6.270461736820798215e-01,-3.416298104529389978e-01,7.000729738252662315e-01
8.090967947448554014e+02,6.644428646501983167e+02,1.569386697389792857e+02,-1.300723921032599928e-01,-6.998133113466944444e-01,-7.023834437645227746e-01
4.117853431209689461e+02,1.425843610924388827e+02,4.866413147960019501e+02,-1.290739647231496368e-01,8.035858038798401326e-01,-5.810247562999688586e-01
6.888704206072267198e+02,9.851339957083420131e+02,1.503927114894453325e+02,-3.258682381242315462e-01,2.172046829435325122e-01,9.201260876038721559e-01
9.791228992595538330e+02,3.146201751672239588e+00,8.564876583766713338e+02,-4.273152202004351641e-01,-8.723447518979666748e-01,2.375212336216041553e-01
6.970085461061659089e+02,1.818069608691225199e+02,3.883984174555766913e+02,-4.047633770964496613e-01,1.767710414892729731e-01,-8.971725628062168223e-01
1.791090558432626381e+02,8.699695458700638255e+02,4.992704217303706287e+02,4.402415565345321746e-01,-6.753920794831512753e-01,5.916357924191850692e-01
3.949725848309998355e+02,6.262280780841799697e+02,8.125342264433287482e+02,4.402955904965930034e-01,-2.697416566808852334e-01,8.563756369960018322e-01
4.476240605237125010e+02,9.225687637425943421e+02,1.363126167462591525e+02,3.527100470377844688e-01,-3.472488977583679248e-01,-8.689153156229911801e-01
7.572197283754273940e+02,3.831867057964595347e+02,2.268799448835439136e+02,-8.015001688034393279e-01,-4.860174305221714453e-01,3.484028367230733725e-01
6.346443665860805368e+02,6.728995005865831445e+02,8.659308106250192623e+02,1.387484595970271961e-01,9.051071563421574373e-01,-4.019078258726316299e-01
4.765914683162480969e+02,3.734358376603944407e+02,9.308313977087417470e+02,-3.544654849170446043e-01,-9.093343818151128355e-01,-2.178651005816465425e-01
3.085945066418439637e+02,5.127787634176352185e+02,8.693071679038725961e+02,-2.428272059821464102e-01,-3.207816790053087397e-01,-9.154966206652208616e-01
9.938755789428204253e+02,6.957377631006268075e+02,4.465287399335632585e+02,7.515070480017348453e-01,5.918844668291075584e-01,-2.913930931407631153e-01
2.719401619381112312e+01,1.737819391818307224e+02,8.437709616827594346e+02,-9.766852308072777600e-01,2.144103669402332712e-01,1.068430959346744480e-02
2.970451636530454493e+02,3.422921500063171720e+02,6.335178083679447809e+02,5.356628938342099522e-01,-7.766912468054506524e-01,3.313849292061344376e-01
5.327282553957535356e+02,2.021064176586728678e+01,9.420452318730847310e+02,1.736712709481607608e-01,-1.181445587278590233e-02,-9.847328106038106821e-01
9.547550727954355807e+02,6.794723160898138303e+02,5.692583889240775079e+02,9.753299210525692153e-01,2.380343522323973178e-03,2.207393917367372893e-01
8.992233148195551848e+02,9.730101765188970830e+02,3.849239790156167942e+02,-5.129555586035363657e-01,6.532959574672385639e-01,5.568491598760819672e-01
2.731682896532610130e+02,8.700407192996191270e+02,9.574899847799362078e+02,-3.695391664046495106e-01,5.871226390485326796e-01,-7.202276106965375124e-01
9.328063314372698187e+02,3.741228161524953180e+02,3.309337397146324520e+02,-1.555702531791935683e-01,5.369179824893616226e-01,8.291664346832396948e-01
9.758323042476738465e+02,5.656690302595019375e+02,8.851110648933479297e+02,-4.230285322526811109e-02,-9.601585045684319919e-01,-2.762356144922550882e-01
2.948698612101008365e+01,8.335909066108696379e+02,9.382750674606695611e+02,-2.255699368089739143e-01,-9.551150724207693177e-01,-1.920244829251314123e-01
1.709295817862607123e+02,4.095739890157810237e+02,9.815697175133963128e+02,-2.053819821869561357e-01,-9.493968547343738518e-01,-2.376212398196657916e-01
4.739962465377197418e+02,3.700601998195833744e+02,6.987347709779980960e+02,9.675163263958711513e-01,1.837663715566620060e-01,-1.736147425835057323e-01
9.715330294647905873e+01,7.761617745319251753e+02,8.975274193852156657e+01,-6.768008805539311723e-01,1.807577336998494322e-01,-7.136296026575115192e-01
1.434885153396166970e+02,3.442894501156031879e+02,1.566576498394038879e+02,7.915033593641001008e-01,-1.408231988044377214e-01,-5.947194790771782591e-01
3.922233999004544103e+02,2.007037420760672148e+02,3.249442208844396305e+02,8.555241458872222537e-01,1.117721407144703499e-01,-5.055545711038954559e-01
6.935654605481079216e+02,4.313225282702031222e+02,3.741681990429866005e+02,-2.253518544124451239e-01,-9.705695514624377296e-01,-8.491929984917812035e-02
3.110239844594161696e+02,4.983922160891851405e+01,4.605503503975846229e+02,-3.992703677259103467e-01,6.135256742906072258e-01,-6.812998021739564702e-01
2.035643447934483277e+02,9.279606325861130927e+02,5.554318619187858985e+01,4.326311648104146368e-01,2.066025739697261443e-01,8.775794275527815103e-01
4.667722820691377024e+02,4.057055223997630833e+02,3.564013988227910659e+02,-8.796123474814760979e-01,-3.852452099376304506e-01,-2.790488243627593512e-01
7.942696476458431789e+02,6.714988997675706059e+02,4.919781074410581709e+02,5.828969970260767797e-01,8.087025202059372475e-01,7.893873998581235618e-02
2.659889764496966791e+02,2.344311838721141328e+02,4.509643071195229709e+02,-5.849462254576190956e-01,-8.110628405880632164e-01,3.870651121744561607e-03
8.208006410647595885e+02,6.208203814375077627e+02,6.016211427947121138e+02,6.990474590940104482e-01,-4.033118953814499030e-01,-5.904846864890150870e-01
6.094389740213662208e+02,7.336021637916235250e+02,9.002937279782988753e+02,9.827488095116514444e-01,8.298573334958313230e-02,1.652820179688761215e-01
5.625062098198279728e+02,6.467289745639291141e+02,2.564167169128299406e+02,-1.312985258011301337e-01,2.103084514490067003e-01,-9.687781233964620764e-01
1.906438265292789254e+02,7.957255065289601816e+02,7.393520642449307161e+02,1.246920272666274809e-01,8.407121105642400005e-01,5.269298297560689459e-01
4.277419755191549484e+02,7.362100992487070243e+02,4.674078386674020749e+02,4.096624599082498430e-01,-4.389551512409063383e-01,-7.996843403124727079e-01
5.734145174280415631e+02,3.958682333556646995e+02,2.552028910027359530e+02,-5.775014069902408842e-01,7.416694333247870752e-01,3.412016655820739874e-01
2.928721026396044067e+02,7.800856719996581887e+02,1.453002532458245071e+02,-8.152780372155303823e-01,-4.985128414584127921e-01,-2.946297149559966577e-01
3.483471167876792833e+02,7.954143207023910236e+02,3.462002314927267435e+02,5.959968094263656813e-01,-1.314396652980173719e-01,-7.921561825422671621e-01
2.962405606537830067e+02,9.586238109379293064e+02,3.548803967716930288e+02,-2.312117346091304426e-01,-9.293369711185570647e-01,2.878783213290354581e-01
3.291185409611247223e+02,6.389408885480697791e+02,1.358310583314751341e+02,-2.689429268966840678e-03,-9.012200912004031395e-01,4.333533364206907379e-01
7.096786457905857048e+01,4.874862013734881927e+00,6.815847356375810477e+02,1.085036108233927710e-01,-7.014755390797339230e-01,7.043855723331380325e-01
4.101425778444569801e+02,9.778954519836648842e+02,6.765922434904398415e+02,7.835283266476995578e-01,5.413032768632716207e-01,3.050805201872781591e-01
2.522840771083373284e+02,1.785870207726810577e+02,3.490909718435290188e+02,7.949039868947593845e-01,2.504062643012148759e-01,5.526521097557905993e-01
6.322834348111251757e+02,9.313882334475080143e+02,1.136878253074842178e+02,5.243792693598066101e-01,2.199407769867449958e-01,8.225888623632964247e-01
8.087568877620561807e+02,6.086936153322457130e+02,7.480116308257989033e+01,1.072279493526693411e-01,9.931058880929615196e-01,4.735886308508541198e-02
1.947526513422734809e+02,7.613107549720054976e+02,2.740052354793562017e+02,-8.641815058552666517e-01,8.284569937581487409e-02,4.963133234486619139e-01
4.226909520566853757e+02,4.382065768854398584e+02,2.529858159616809132e+02,2.582520255431016709e-01,-5.039431265159720619e-01,-8.242252219752754794e-01
8.691865410404564329e+01,8.761842361183763614e+02,4.884474210242161973e+01,-6.585397168660203082e-01,-6.992093392106335514e-01,-2.782655948381886901e-01
7.956308876449091940e+02,8.816076724886947886e+02,5.578213587601419476e+02,2.208639140401583711e-01,-7.814202739404481068e-01,-5.836107323804939906e-01
3.348884468822739109e+02,4.826619875297308795e+02,5.316736003662816756e+02,-6.170379548251880147e-02,3.560921365055207399e-01,9.324114070205196114e-01
1.910659001375469757e+01,4.144739204788672282e+01,2.259470774680251282e+02,-8.071835873487567259e-01,5.902964815067747173e-01,-2.172610299663757950e-03
5.335086300825997796e+02,1.142831939785932178e+02,9.145677295159399591e+02,4.305950259742661324e-01,5.211862919092494772e-01,7.368532911863172608e-01
6.105160020357737949e+02,7.516995422763167198e+02,3.736956598028170333e+02,4.155697708269167484e-02,6.052336171290626510e-01,7.949624433598230233e-01
8.349768661774568272e+02,4.651084221746139065e+02,9.610457808565174673e+02,-5.774143288206597946e-01,6.666857279674986980e-01,-4.712990908086217012e-01
1.440299177844634926e+02,7.835094839455230158e+02,1.769262513557370369e+02,6.613526922356468551e-01,-6.478638742116952232e-01,3.780013451881811815e-01
7.326230519182656735e+02,6.204168632283924580e+02,5.095798184393464112e+02,-4.088943234939480531e-01,-8.947419881432985278e-01,-1.795611507754502068e-01
7.376295075789504381e+02,7.937961283838292275e+02,3.834469452727029548e-01,-3.511506447619441862e-01,-6.821949194841882003e-01,6.413293354535039015e-01
4.735663602985622447e+02,1.631522455359273351e+02,7.998384176445862295e+02,-4.658418693157363455e-01,-8.472672340512893419e-01,2.552049899502322194e-01
6.312666789132692884e+02,9.207610116107023259e+02,4.522911252479759696e+02,-8.218668547415836079e-02,6.966621756755738692e-01,-7.126760566440741851e-01
1.310193454534083344e+02,2.829837817829682081e+02,6.873628118472506685e+02,3.285227041819134275e-01,-5.049584652893577275e-01,7.981790407982531921e-01
5.043017099932804967e+02,1.126379942771806810e+02,7.079085659691264709e+02,9.430917182365928797e-01,3.156974365078943356e-01,-1.044659732922403883e-01
4.347967719144626244e+02,1.092103261825786404e+02,1.050377278953037461e+02,-8.320014807813821411e-01,4.214211044378624593e-01,3.608015918922196086e-01
1.458120321663047747e+01,6.599562239918120667e+02,8.958304898952903841e+02,6.975990243722413053e-02,-1.904174108565301615e-01,-9.792215100040666531e-01
5.239814897790739678e+01,5.179259876366709250e+02,7.672228890424970587e+02,8.977023157055228353e-01,-4.328507799219126762e-01,8.228459575117265390e-02
2.442944084434874981e+02,8.124631064727801686e+02,1.906389726283741481e+02,-6.701288603975820157e-01,3.848338923494616370e-01,-6.346890465112826618e-01
1.470107166193219541e+02,1.267437632386014812e+01,1.664899535601850289e+02,7.976401206676945188e-01,4.304430146758249642e-01,-4.224796433178921728e-01
4.418814036102727414e+02,9.675222576994731298e+02,6.176513459230890248e+02,-1.055647033748886854e-01,-1.712585355221390992e-01,9.795542901810925240e-01
3.799769009967276361e+02,8.203103660025656154e+02,9.476577886219124593e+02,-1.914366227347329141e-01,-4.415583753069868833e-01,-8.765718571070906240e-01
8.779777361610076696e+02,3.497358127604971401e+02,1.111432567849413005e+02,7.109127295768673527e-01,6.981614960629322075e-01,-8.469720385429681253e-02
3.915423983886967676e+02,5.978369942720850077e+02,7.487198816687260887e+02,5.175557894512333723e-01,8.077546985872794405e-01,-2.822558267169767987e-01
1.111474047596040577e+02,7.943655964748060114e+02,4.103947294336981599e+02,-3.010802757728828216e-01,8.457134787855811187e-01,4.405898084850752849e-01
9.950643105217848472e+01,4.123600025136436784e+02,9.963933384530265869e+01,-9.199184163783409307e-01,-3.760507652775424425e-01,1.110672280294242725e-01
7.721194967443025234e+02,8.464007489426492157e+02,9.359585177167606673e+01,-3.436904240092105156e-01,-9.227339582319954436e-01,1.744675751246729523e-01
6.178809402735685552e+01,9.472115682843470950e+02,3.790057965427758973e+02,1.553141524936180184e-01,2.255512067482118993e-02,9.876076045507817813e-01
3.379859189698551063e+02,9.084408171551199302e+02,9.824085787503133815e+02,-1.402723640386840595e-02,-8.570798101357356424e-01,-5.149926559637150181e-01
1.980276562159710707e+01,5.560246209949837066e+02,9.806784868983722845e+02,4.077606436240195920e-01,8.886332142955410962e-01,-2.099101425898717288e-01
9.504977903888145363e+01,1.348610290500312772e+02,4.140315953701141325e+02,2.663190677871120071e-01,1.709337291845382800e-01,9.486073025019734484e-01
8.986188538784927005e+02,4.642799906407816479e+02,3.968386058896553550e+02,3.705101985525592889e-01,6.090109971546111556e-01,-7.013043548369632951e-01
2.696626904366057147e+02,6.865585950013665979e+02,1.308146662692253415e+02,2.596104254358840846e-01,9.655706326312261112e-01,-1.660663738187539984e-02
2.665764758210767695e+02,9.801210604027550062e+02,4.853053693533838668e+02,-2.995112774960290714e-01,9.164628263887070192e-01,2.653090320745210562e-01
9.973405350321177139e+02,7.941763573103754936e+01,6.884168929138240856e+02,-3.738263900558699837e-01,1.352310106564370562e-01,-9.175872731542407124e-01
4.547262883740349366e+02,8.206197785091063679e+02,9.927764309790143216e+01,2.749295588692172165e-01,-9.483462598515207675e-02,-9.567759044699202242e-01
7.875672271055489091e+02,6.611824716099895340e+02,4.082687115987103539e+02,-4.095564721870292857e-01,-7.537587839325417260e-02,9.091655366577422459e-01
6.904250793403572288e+02,8.481773092131004432e+02,2.902559640568856025e+02,7.847488284841275252e-01,-6.244187859495353016e-02,6.166605938361251482e-01
4.547813787966211976e+02,2.781493106367850601e+02,3.124766409115099464e+02,-6.339848192429347051e-01,8.143120092234053253e-02,-7.690462980119265879e-01
2.037678995928149561e+01,4.623275562510612531e+02,3.541581273298110943e+01,-3.945442805158346777e-01,-3.359008402876033084e-01,8.552809106991248189e-01
7.835365280476903536e+02,5.213074804481963156e+02,6.939666990495812797e+02,2.910380902328977420e-02,-3.037575449461141219e-01,9.523047422903265780e-01
