x,y,z,nx,ny,nz
5.881996127046236325e+02,8.878993969629734693e+02,6.562112790440648951e+02,-3.414714792290395318e-01,9.383140572826649262e-01,-5.444225177998629484e-02
7.771342922472299506e+02,1.775090473201136376e+02,1.379353583961123775e+02,-3.994069390976648370e-01,-7.149135101070227538e-01,-5.739100714110967338e-01
2.065026785828306686e+02,3.307044032080018496e+02,8.162956241513852262e+01,3.721826313097054695e-01,-9.194395820595452351e-01,-1.269288930604559884e-01
4.473101539932596893e+02,2.752846347769599689e+01,2.789776720743462306e+02,5.037879314527821117e-01,1.558117564764146812e-01,-8.496590002267152553e-01
7.143175903121609736e+02,8.304377003762410823e+02,1.329057963941955336e+02,8.233704036314066776e-01,-4.994699455384679077e-01,-2.694270809099459929e-01
9.256518130836788032e+02,9.613680761314508345e+02,6.608107989574563135e+00,-8.588850140688022439e-01,-4.942907111910172513e-01,-1.341388289732383665e-01
3.760320179047961346e+02,3.558215761577984040e+02,2.310328751730122008e+02,-3.756589105771920845e-02,-3.162689190312660825e-01,-9.479255111472810746e-01
3.834193016002463139e+01,8.590982169530526562e+02,5.443049309704545067e+02,2.512230939578982136e-01,1.159425598523637774e-01,-9.609600823536335046e-01
1.045602064421325963e+02,2.959974276602574719e+02,2.748344040118040539e+02,-3.317010399145419175e-01,6.399603238317015663e-02,9.412114151235224657e-01
9.382420933421520886e+02,9.667266688364796892e+02,7.193998828358721767e+02,5.294027828518619305e-01,-4.385263331156171729e-01,-7.262419353582352244e-01
7.861273781970613754e+02,7.214887283519692573e+02,6.531640777505398319e+02,3.202758227828025883e-01,-7.825118421810695057e-01,5.339462652619532124e-01
4.846206079862953402e+02,9.738624473422608219e+01,3.708627664523175440e+02,1.179758503528267888e-01,6.242458893277200715e-01,7.722685856559046158e-01
6.573462627480450919e+02,9.754592111041407634e+02,3.882931496534537246e+02,4.776414647736391128e-01,-7.128649162986948618e-01,5.134999924433760743e-01
2.236880773986134159e+02,3.682424018259176250e+02,6.528298804275758584e+02,5.509776758266314856e-01,-6.789550877661176820e-01,-4.852252977094113628e-01
7.640346656612197194e+02,3.210437359855204704e+02,5.043224141263659135e+02,-6.604942281199537302e-01,6.077456880638429371e-02,7.483674407713263310e-01
3.428080361137672867e+02,4.685735027875844594e+02,6.141402149335950611e+01,-9.486585917546256352e-01,3.138216372833953494e-01,3.953297690409307563e-02
1.728771069336195865e+02,3.406637209165281774e+02,2.948505223087851732e+02,3.469301451603852837e-01,-8.966916605485263370e-01,-2.749246083596748047e-01
9.150333224225769300e+02,4.215556209897612803e+02,8.984475119819726388e+02,9.844949942791741959e-01,-2.096610651375715312e-02,1.741551854436225177e-01
7.568315587776802431e+02,5.882685699028393174e+02,5.145660203091754283e+02,4.279238437902301850e-01,-7.417412019958578018e-01,5.164311891990404080e-01
3.441189392801934446e+02,3.806770573233926598e+02,5.952851275298432938e+02,1.602103918832270546e-01,-3.721134185402782402e-01,-9.142561096732635395e-01
4.435047214826039976e+02,6.381348746177438898e+02,9.553515775390412728e+02,-4.413238043664499677e-01,-6.595874500848506461e-01,6.084223002077490117e-01
9.717360181200003808e+02,3.871137467955253442e+02,9.052363086662364822e+02,-4.684379894754801543e-01,-8.834938602450687073e-01,2.109247599751729041e-03
5.838575478314722744e+01,2.947466449489731986e+02,1.776935872802220047e+02,-2.298324499476885885e-01,3.532224661985294278e-01,-9.068687525346057487e-01
2.527162787526829959e+02,1.130378185889134812e+02,9.418449367718151279e+02,-9.842455834721677288e-01,1.762999149853358982e-01,-1.337801897500612465e-02
8.170848276554660288e+02,2.269073072121764483e+02,2.023528544291082198e+02,5.688841260681331002e-01,-8.084362155980083786e-01,-1.510024384480825876e-01
1.904033632722398295e+02,6.894592060239352804e+02,4.458686799115266695e+02,-1.849598130550237640e-01,6.276307297824241793e-01,7.562205594847526413e-01
2.193189490875291270e+01,8.713508804839093500e+02,1.660597798361540640e+02,2.066529457924860813e-02,8.963142441773843672e-01,-4.429376042792902979e-01
8.162815976425407882e+01,3.366584447104107198e+02,6.804350314668172359e+02,-6.566266522377816051e-01,-3.485036299015336070e-01,-6.688696879934523665e-01
1.314008152335177648e+01,6.066028879772036362e+02,3.469168821812805845e+02,8.068462882387887891e-01,-1.270123539626852316e-01,-5.769462098810831385e-01
4.487093089067497544e+02,3.212490423026745816e+02,1.409788411601975433e+01,-9.111250740770945877e-02,8.852316642186416340e-01,4.561396843715466165e-01
6.260190715120957066e+02,7.529059938083902352e+02,1.581461740862665124e+02,8.678791893355505827e-02,-5.695431583162253730e-01,-8.173667768770405129e-01
4.066173259678241720e+02,3.602349506840796067e+01,2.077888471908400163e+02,4.194874259938927152e-01,-6.619177807190904650e-01,-6.212045967319723694e-01
2.446762205942488606e+02,5.861680949531992155e+02,4.945988123368151150e+02,-3.608340838415883267e-01,4.485573671917308380e-01,-8.176766183988779524e-01
1.287675352661406123e+02,2.399006802979777433e+02,3.564244417945589021e+02,1.858570687470178368e-02,-1.252078360003558710e-01,-9.919564351845677752e-01
6.386667019464842951e+02,5.260342792060804413e+02,7.793678982934826536e+02,-7.627297748489548779e-01,5.633081935325464640e-01,3.176903675876277533e-01
4.240061663628677024e+02,5.287650017404277314e+00,7.816590847055904590e+01,-7.474339619657860423e-01,-7.904519024879579081e-02,6.596168057278859465e-01
7.391109057664792772e+02,5.277993576896583363e+02,7.272954759517708681e+02,4.365582426817646855e-01,-1.466348869368638563e-01,8.876458250223580038e-01
9.083838797223393158e+02,4.710257124637388984e+02,2.083833139929948004e+02,-8.500736230610071997e-01,-4.950566558912036230e-01,-1.797045988108016967e-01
9.033742342264320087e+02,5.597753752415349027e+02,8.071614872922298218e+02,8.254053440358266602e-01,5.615293415124648080e-01,5.823071919250644851e-02
6.991663706733698973e+02,7.545476523045006161e+02,6.778535243585599801e+02,-3.780496040855811646e-02,-8.350124682977613788e-02,-9.957903025970780142e-01
2.130038617333620437e+02,7.132169896084609491e+02,1.976891171988388578e+02,7.782115025489746429e-01,-3.321455879413788836e-01,5.329785790362902009e-01
8.293406212893750080e+02,2.992536353491865952e+02,8.807049995923031247e+02,1.152716429716075554e-02,-3.506110387675042128e-01,-9.364502250400914551e-01
3.668869436420427519e+02,1.577089477620192781e+02,8.074310226172426610e+02,-4.896143106656364319e-01,6.346673519828056609e-01,-5.978922805309891952e-01
2.675229041664744045e+02,2.239226206245886885e+02,7.476101281451273053e+02,1.475746011916545253e-01,-9.768671344604972218e-01,1.547654311985107167e-01
5.450644413785325924e+02,7.970513206661100014e+01,9.841149553940586259e+01,-8.288892600833472901e-01,-5.426154275092187618e-01,-1.360554752572240844e-01
5.682886008526805881e+02,7.705079009429350378e+01,3.768962543863842143e+02,8.374131003217852864e-01,-2.688892972397906589e-01,4.758548573245283131e-01
4.915903034837521091e+02,9.355260853260618887e+02,2.513832782328384496e+02,7.822473264498394641e-02,-9.691240779273765371e-01,2.338362948390027007e-01
1.747574905260571541e+02,5.518404259465820587e+02,6.396287112027514468e+02,-3.115132187268541131e-01,-9.497698569726981122e-01,-2.994550624878100989e-02
3.659709824290285951e+02,1.329961230659727391e+02,2.169440102673399053e+02,4.616787797427656659e-01,-8.866551062549262729e-01,-2.637094778911541759e-02
8.831765820246615704e+02,9.369671393067433200e+02,7.714579192326468728e+02,8.263126704219710961e-01,7.624408143990803188e-02,5.580270699038675231e-01
3.432036527144788352e+01,7.548746057554170648e+02,4.249300170042139371e+02,5.016480461822013792e-01,-2.343702177518910135e-01,-8.327183430143179077e-01
9.603849033875318355e+02,7.840689877825939220e+02,9.226937236816896757e+02,-5.775321491660168061e-01,7.764959548597993866e-01,2.520131916508543402e-01
4.604858427048519616e+02,7.346345269796896673e+02,9.537510175312836509e+02,2.341401246644785883e-01,3.990865596049333885e-01,-8.865147037499154781e-01
2.744851486424282427e+01,3.596028234339862024e+02,4.231780436580065725e+02,7.328618862521157906e-01,1.979576458225634494e-01,-6.509425674661164507e-01
8.980636315808729933e+02,2.978851268384299260e+02,5.407770785563972140e+02,8.561089645900462619e-01,-2.866497594404022187e-01,-4.300108791197247982e-01
6.762385286612235404e+02,3.543653625284010218e+02,6.834897200933504564e+02,1.397652418143174591e-01,-9.607197495110193497e-01,2.397566267698763298e-01
4.561005678976084710e+02,4.505720146485205646e+02,1.563595059763910342e+02,3.629261589120226228e-01,5.322005228718083014e-01,-7.648837863573387796e-01
6.704579695147079974e+02,9.048610107099665356e+02,6.146949375583335495e+02,8.160648279760920332e-01,6.427046962937325858e-02,-5.743757509452946941e-01
9.729953582373042309e+02,7.936977487574748693e+02,6.892558328294940395e+01,6.435976863764736322e-01,7.153418052730020626e-01,-2.721545879084397157e-01
6.776194513616778750e+02,3.256472885585699260e+02,5.094472542632425416e+02,-7.646895458321347760e-01,4.874298303139550370e-01,-4.214997734461461421e-01
5.834185382368493720e+02,7.894453728685368787e+01,9.936109278764424744e+02,6.462247403746370633e-01,2.272386450149068426e-01,-7.285301525259761934e-01
3.651288379915031896e+02,4.473425495092775428e+00,2.508696810371143897e+02,-3.550510397723854322e-02,-7.864107935759567791e-01,6.166826179963234011e-01
8.256441520619725907e+02,4.728253652365921198e+02,9.189020672089847039e+02,-8.873622725257508392e-01,1.870803453134469579e-02,-4.606931806982919042e-01
5.438484300170655388e+02,2.398420584422679269e+02,3.336523049437071222e+02,-6.814046446744672636e-01,-1.255321548099243290e-01,7.210612930429980416e-01
6.240206539638866161e+02,1.480120293978569634e+02,7.413745227105511049e+02,-9.569166963406393611e-01,-1.009578550609487868e-01,-2.722461161633147331e-01
8.572866175131786122e+02,1.765346257378747055e+02,8.691241443899026535e+02,3.943724735490265476e-01,8.600532160585533381e-01,3.236955632290343665e-01
2.597315935904743469e+02,4.436661801517650474e+02,9.441883604194307509e+02,-1.946885033810197285e-01,7.988111484871495138e-01,5.692074627970893363e-01
4.248648746386140829e+01,7.760360643371535616e+02,7.147609067105402119e+02,-7.647413610992105371e-01,-5.781539943985819496e-01,2.844443871569475313e-01
5.239796263130855323e+02,6.008071170261531506e+02,6.193824714887724667e+02,-2.928329466740260956e-01,5.308056369942064645e-01,7.952950654174725242e-01
4.379939989175642836e+02,6.172030693534641159e+02,8.516159900193536032e+02,-8.682988419577434280e-01,-9.650842869971353044e-02,4.865626827498734652e-01
7.464423502866897024e+02,3.706227617705822013e+02,4.243058042683110784e+02,-2.681845945270286413e-01,-1.308888108388176451e-02,-9.632786224402289932e-01
9.663490204232642782e+02,9.247621603517852407e+01,4.161923211424400648e+01,9.940210933894266798e-01,-1.036918109233207902e-01,3.420634801218880305e-02
1.330731668807187873e+02,9.053856705035234143e+01,3.484319202416652494e+00,-5.877167777800994530e-01,7.752622128119884826e-01,2.314249133123666979e-01
2.216967314652152936e+02,5.479999798548295757e+02,5.439783250482388155e+01,7.817397848565367235e-01,-5.132511730687868701e-01,-3.541978855328895559e-01
4.637392058691132206e+02,9.311566567766025173e+02,3.494068092651691018e+02,-4.981270984494713949e-01,1.438860977470030333e-01,-8.550825601457736624e-01
7.994951298007003970e+02,3.683950162297616657e+02,5.197155336357574242e+02,-4.223812992208206829e-01,-4.665410070221431837e-01,7.771316020052820850e-01
8.065096483868605901e+02,6.716655433346769541e+02,2.989314144220892331e+02,7.125629278305699588e-01,6.312374697359074416e-01,3.062569683826563693e-01
5.251694119814449095e+02,3.229489310459354670e+02,4.423088971002055132e+02,-8.868050433022071077e-01,1.696780445283156968e-01,-4.298676265768539562e-01
8.539070543659133818e+02,1.757949566191153679e+02,3.106681521529151269e+02,-6.901520705548607193e-01,6.087732050660444871e-01,3.912611714730382939e-01
3.795831312666852853e+01,4.345850283711346833e+02,5.707279897347498263e+02,-7.307495465431640413e-01,6.725443392302872248e-01,-1.170009059634011805e-01
3.872162757556958468e+02,5.082141169182008156e+01,2.831761150172162047e+02,9.455252484003570657e-02,1.557215979086026270e-01,-9.832652765104470394e-01
9.284498142129368716e+02,5.280542421548591392e+02,2.292817385819651008e+02,-7.560812798013516467e-02,9.700412130696309809e-01,2.308754121376683788e-01
5.149145127286250272e+02,3.960976140942333927e+02,9.046790710041067314e+02,8.775756257836897500e-01,-3.047923744883043184e-01,3.700846247605358297e-01
3.838072974224693326e+02,6.699393902464337316e+02,6.227053727434241637e+02,7.357269303789683024e-01,5.004424835977012709e-01,-4.563586358618683114e-01
3.391103737769375357e+02,1.172958643114507815e+00,6.924072248429248475e+02,-1.071722663600919723e-01,-9.348974000187063593e-01,-3.383503461820371871e-01
2.572630224064190543e+02,9.126270364806201769e+02,6.125529947665633017e+02,6.113724920714322941e-01,-7.684281561325482235e-01,-1.890551369339077414e-01
1.792323572776364244e+02,2.708388285162405396e+02,8.805266554458040673e+02,-1.437616922807825881e-01,-4.654410542937820749e-01,8.733253693844340582e-01
9.107413297700057910e+02,6.603435782516186237e+02,9.395195146878323840e+02,1.877922936019167655e-01,8.922728830464136118e-01,4.105887926426787793e-01
5.350939663224967262e+02,3.417334115512051653e+02,2.326712538416585403e+02,-8.560244062505352192e-01,-2.397112040326760674e-01,-4.579964569345744696e-01
3.644253356120991043e+02,2.551816194595856189e+02,9.723202830178301781e+01,-6.167353214843802611e-01,7.871522603035575605e-01,5.372367500340757829e-03
5.267167984205585753e+02,1.458322423985539729e+02,7.745257515133485526e+01,1.820232981150726459e-01,-9.736629914333378988e-01,1.372876471369335327e-01
5.347351825867182242e+02,8.063800562134763368e+02,6.516679081365223283e+02,7.665382907017324055e-01,-6.052711813230692295e-01,2.146295551592154460e-01
1.727612854006272869e+02,9.448025730613400128e+02,8.072783810932180586e+02,-2.973641736432839355e-01,-4.869433050121366874e-02,9.535215836101904596e-01
9.535867812462062147e+02,6.208603956150600425e+02,4.167067942049243925e+02,-9.825563512903253693e-01,1.317108043085369329e-01,-1.312832074845873553e-01
1.567181939696073982e+02,6.347541392595685465e+02,6.896764767182459082e+02,-5.716867783659577151e-01,-2.887367242289708980e-01,7.679878459474964725e-01
6.885401626025023916e+02,1.613387978053856386e+02,5.318646799295430583e+02,-1.321358285729637705e-01,7.915403028052391265e-01,-5.966607678089174138e-01
5.544455257245743951e+02,7.480959677825658218e+02,1.521008421499182646e+02,-7.755870883858861919e-01,6.219023732923476544e-01,-1.081762747669243740e-01
7.413356955258852850e+02,8.230099537383566712e+02,6.805352857904879329e+02,1.039787809710150390e-01,-4.895031162352020959e-01,-8.657800600058931373e-01
6.989384801541518755e+02,4.277055136549282679e+02,2.724461451950543847e+02,-8.307115262349399343e-01,5.565873309070311636e-01,-1.135355689658301866e-02
6.130328401424923186e+02,9.498286221642943019e+02,5.324771182970126802e+02,4.051569106416541000e-01,-8.509520757381712486e-02,-9.102783549043005351e-01
2.140079931194821654e+02,3.602032057831716649e+00,7.950350648021278630e+02,2.066737054019028574e-01,-6.801091762528931328e-01,-7.033757799868138871e-01
6.333917763825950260e+02,2.343763399002574133e+01,7.208036302755859879e+02,1.873695705537682388e-01,-1.420906614404139068e-01,-9.719582748050052956e-01
7.928244989272889143e+02,9.239591989883327869e+02,5.783962946695218079e+02,8.957027119851993513e-01,-4.329816283577097580e-01,1.012104799270563404e-01
7.924611326613269284e+02,5.064258057656756478e+02,9.942442530482721850e+02,6.275019901736798023e-01,7.684948181125527134e-01,1.251278021153796605e-01
8.416065201494570829e+02,9.214899523162112871e+01,5.868003474533649069e+02,3.947094155496623236e-01,-9.188038899683697025e-01,-1.972068821289196805e-03
1.654332345017963632e+02,1.785940682427196293e+02,1.174843079991824197e+02,9.010052812991347082e-01,4.320855737563659149e-01,3.862046119221274054e-02
2.306826438092907097e+02,1.422383898482889606e+02,7.308940335391836243e+02,-4.528314436499887574e-02,-8.009175918145431394e-01,5.970598361625170103e-01
4.738751999538437758e+02,7.190025235632571139e+02,6.431235350719432518e+02,6.521369665348163147e-02,9.955013760227687802e-01,6.873270040935119951e-02
5.502558468786565982e+02,7.884872555979374056e+02,3.771648411696296535e+02,9.898058195253186531e-01,-6.698257936911040933e-02,1.256891948214851062e-01
7.934569246976078603e+02,5.858957279846410984e+02,3.880539875669605294e+02,9.107604578648702542e-01,4.124420839652827020e-01,2.017215318568399765e-02
8.325358285953150244e+02,6.861852804824053464e+01,6.470027864356599139e+02,3.334206947618024719e-01,2.868475388950302296e-01,-8.980808035663723210e-01
1.137026250957462423e+02,6.910715118020733598e+02,6.802856090229452093e+02,-1.444896856985788403e-01,-3.534774014067793013e-01,9.242166723347056134e-01
9.888758593230495819e+01,1.725603449374171134e+02,6.035962924871549831e+02,7.158310825571987390e-01,6.551067072168844652e-01,-2.417044960368761874e-01
3.711945389004616231e+02,7.115710646801431949e+01,1.053579843319613047e+02,9.642635281326382424e-02,4.613821468321563923e-01,-8.819458447476706819e-01
5.032717813255987949e+02,2.001744135701529785e+02,1.267368021723561640e+02,-7.235462015323854690e-01,-6.882131310349978159e-01,-5.332523341778760972e-02
5.080301822006881594e+02,9.199458031922415557e+02,8.383967176214563324e+02,-6.908179662790187026e-01,5.269064308862051460e-01,4.951163000314990903e-01
7.266106273201105523e+02,4.372928454464145602e+02,4.716980295465700124e+01,6.441248518316232685e-01,-6.893812797664518044e-01,3.314462646651166189e-01
3.245853437480216996e+01,1.452200995743657685e+01,5.086307180003656185e+02,7.645798186446555178e-01,6.408408684994665316e-01,6.885261202129666636e-02
2.375581089609817411e+02,7.615335028550882726e+02,4.157789420520682029e+02,4.225069469912025033e-01,-9.012082765448571342e-01,-9.649622806732649494e-02
4.225194828037393080e+01,7.413912914073175671e+02,6.506493884680204474e+02,-7.447606170894800481e-01,6.629365449288342482e-01,7.646411334944459848e-02
2.724564438361433076e+02,9.330188870721502781e+02,1.338479917662403977e+02,-1.859541463138316419e-01,-6.952865011373549065e-01,-6.942605683782343551e-01
6.348212162463953518e+02,6.126711813988757740e+02,7.185142907009550299e+02,-2.031624644349167008e-01,-6.690998267026525559e-01,-7.148639275772780133e-01
6.919700366172539816e+02,3.506349817908710520e+02,8.251697029522133562e+02,-4.779115591619504944e-01,-5.400783993872569910e-01,6.927596005359233367e-01
6.649302138586621425e+01,6.217177238570509417e+02,4.511324704410461095e+02,-3.427523212045494039e-01,-3.646326821306807853e-01,-8.657735578262246712e-01
5.240612037231613840e+02,1.102133819171093876e+02,4.664956688404529928e+02,7.318798052521234832e-01,6.813473805885293944e-01,1.084885382257594517e-02
9.972396725903322476e+02,9.745015812696651665e+02,8.944216451160382348e+02,-1.132156235277568951e-01,-9.933863065495328604e-01,-1.912769063684516269e-02
4.269616224707813785e+02,6.973270668573782132e+02,3.088358995345914764e+02,2.025779264664728518e-01,-6.988421740359455070e-01,6.859896497012600847e-01
4.413502447556405173e+01,6.263460018482842315e+02,2.341674459013254364e+02,-8.029372692629032082e-01,-3.243340133310056439e-01,5.000991795886442493e-01
7.485229211718669262e+01,4.436944043857321276e+02,8.570750226601594477e+02,3.827920485416820284e-01,-6.605718746789943641e-01,6.458444440856804247e-01
4.786842284081815819e+02,5.957791000163283570e+02,5.395248396296091187e+02,2.619746832825934485e-02,-2.112232841987762288e-01,-9.770866987455477659e-01
4.941798102945513733e+02,1.491019653888074856e+02,1.715369426412198663e+02,-1.909419957615659524e-01,-6.229396145354373915e-02,-9.796226909484153644e-01
6.710662745876098825e+02,5.275074793774607542e+02,4.202439078319134751e+02,-8.665118925900614499e-01,-2.864650911657234400e-01,4.087724202333171686e-01
9.466922114068498217e+01,9.779009062516926178e+02,2.010954539454989742e+01,-2.196488982755600283e-01,-9.223703251217115762e-01,3.177850607269019356e-01
7.111569869797637011e+02,9.604080531160500414e+02,7.353487901217813487e+02,1.688631924730738532e-01,7.898444385834308967e-01,5.896023957436288265e-01
2.164874494327185914e+02,6.401614932644491773e+02,8.487807410082419892e+02,2.011454063393388336e-01,9.523131527692553222e-01,-2.294344886264123584e-01
2.685148554420567848e+02,2.979244456455277827e+02,9.850749424080297558e+02,2.487962142373252028e-01,-3.735306707170072404e-01,8.936303944108423547e-01
3.281975562097950956e+02,5.621934556700769292e+01,3.987544314875192981e+02,9.992984627854792912e-01,-3.372704359681918257e-02,1.628093378145778480e-02
6.922047453417906127e+02,2.641760258021864729e+02,3.118733046903195714e+02,-4.717304111713445103e-01,-1.708997412413063022e-01,8.650223682771265299e-01
9.661185113400836144e+02,5.517258103789131383e+02,8.509414014816987901e+02,-4.618137314824370954e-01,2.448220129944771173e-01,8.525199466098136725e-01
4.820094065026108296e+02,2.967378668429847721e+02,8.632785565365578577e+02,4.336526773591233841e-01,1.291393780156067372e-01,8.917782103555829121e-01
2.151294058223084278e+02,4.804510627553013364e+02,7.923843679125496919e+01,7.212990698472961926e-01,5.965602916928224309e-01,-3.519140096853208832e-01
5.473751254421254941e+01,6.768423503224975093e+02,9.176668298229946004e+02,-6.380238567438996089e-01,1.384426247490701777e-03,7.700153515285297345e-01
6.417028402719339510e+02,7.962698498987849689e+02,3.130405755132932200e+02,-4.478301864026733026e-01,7.702669689915990769e-01,4.540230397535369722e-01
5.784673199766552898e+02,8.487781210777657179e+02,2.600773357235265166e+02,-2.069124434060907181e-01,8.233900457040125298e-01,5.284090020043805680e-01
8.778598739105518689e+02,6.839763216607497043e+02,8.282583465187069578e+02,-7.397986536763143661e-01,-6.359126965700977463e-01,2.198021709621167386e-01
2.220210521337706666e+02,8.278671267870981865e+02,6.214089099948893136e+02,6.770793886647867854e-01,-8.167333197342480089e-02,7.313637728857489417e-01
9.022951645928702646e+02,1.978895700056967257e+02,3.938206767835481514e+02,1.645939241460423474e-01,3.034921021101224525e-01,9.385101939195896747e-01
2.619938682356075788e+02,5.015275632627435130e+02,5.186759851491752897e+02,-3.303195943193500961e-01,1.380320584386282856e-01,9.337216482720613886e-01
4.213489151267988291e+02,1.118709305575119544e+02,6.220846772137953167e+02,3.303635835342771387e-01,-9.306891547792119912e-01,1.570910559221843361e-01
8.235872707882464283e+02,5.549516336790769628e+02,8.423844425760606782e+02,-9.877581779985762367e-01,-1.546917151261653633e-01,2.010609530113805291e-02
6.764767633045236153e+02,8.999140083648346717e+02,1.379116726871381218e+02,-6.992890745878367342e-01,5.096515372278918043e-01,-5.012485419064416359e-01
7.651049383605216008e+02,7.548021017548469445e+02,4.695418159862033463e+02,4.192596118829671759e-01,-2.955083671511524179e-01,8.584265739056564648e-01
7.900465134379975325e+02,5.047255809665269908e+02,8.711922208050006020e+02,-5.762751433361823494e-01,3.916314479938224347e-01,-7.173086979223968207e-01
8.215071054177641372e+02,8.272227949943314798e+02,3.701170895444242319e+02,-9.258525695287562751e-01,3.611532665343999970e-01,1.111995394259002179e-01
1.387920189242650792e+02,5.350718902213889123e+02,6.927724026688174490e+02,2.991151184304146060e-01,-8.540651572603517039e-01,4.255618087660237858e-01
4.496533400556194238e+02,1.492332471247411831e+02,5.389659297776564699e+02,9.769497279280645596e-01,9.169589562438421049e-02,-1.927721240919515466e-01
6.120631573070828608e+02,8.380399445286305991e+02,5.034129130155827738e+02,-1.151301388371518131e-01,6.237715819127479522e-01,-7.730808914527678155e-01
8.874846393697748681e+02,2.644200453488368794e+02,1.810423262319531545e+02,8.302276034739011767e-02,-9.382147073005955296e-01,3.359469962198766702e-01
7.984516057538020277e+02,9.698210978873465820e+02,1.703624107689877292e+02,7.949439845521302228e-01,6.051329798867827181e-01,-4.333749044101931763e-02
8.539692117846186648e+01,7.577369170222534649e+02,5.829457774847123801e+02,-9.021176519286632223e-01,-1.072802396635580413e-01,4.179410152837897408e-01
2.079805898026181410e+02,4.575718757107274541e+02,1.717675718976805399e+02,7.560537404109630710e-01,6.060954502852926307e-02,6.516971878580011257e-01
5.044924876093359671e+02,4.502617860292295973e+02,2.407443351792540795e+02,-2.772205952432150178e-01,-3.270997636287139576e-01,9.034126887569362552e-01
9.586348928368746556e+02,4.675902760766881272e+01,6.854842709200963782e+02,-9.290025550281556799e-02,-2.094610614795972270e-01,9.733938597768900802e-01
1.764803753887946982e+02,5.691106410232649750e+02,7.368557339858683690e+02,1.807266625130609095e-01,-5.691764467163402674e-01,-8.021072534020941003e-01
9.128825568271233806e+02,9.373489948311229227e+02,9.716111890788654364e+02,-2.690918791722882175e-01,1.302993519697887570e-01,-9.542597337411757863e-01
5.057409424007899474e+02,7.759213067293544555e+02,5.822754430782687223e+02,9.796558596478676106e-01,-8.333258802123387748e-04,-2.006830890373549892e-01
2.343703273777686320e+02,9.622121372617231145e+02,9.434144697415746350e+02,-8.346946276755837779e-01,-2.883933067081972945e-01,4.691632756039523233e-01
6.540031985135530022e+02,4.830792851412244318e+02,8.661540263377094107e+02,-9.728942642607993907e-01,-8.455769997185851039e-02,2.152364884119490895e-01
2.587115099798393771e+02,8.380973953039860191e+01,7.140084796829212337e+02,-9.574836094968495193e-01,2.854684277161393391e-01,4.162828752374947427e-02
8.403504763532313291e+02,2.905781114908227778e+02,4.474637352453735275e+02,-8.659599616029844960e-01,-3.217610301353674984e-01,3.828618345915204557e-01
6.420513052398834475e+01,7.358791623939706597e+02,2.594397065884762696e+02,-3.881857145460965719e-01,5.438787440080797841e-01,-7.439810231709745869e-01
5.494206347468023068e+02,1.763555104272251839e+01,3.696350331003615111e+02,-4.941812820773215931e-01,-5.412088831898999031e-01,-6.803512366423360991e-01
2.443542631195730905e+02,6.388424375435781712e+02,3.712404972388436590e+02,-8.250000036739463249e-01,3.999848963722572592e-01,3.992331106159197063e-01
3.749478677109897831e+02,5.269310622460684499e+02,9.751146106482040068e+02,9.147036705599416173e-01,3.192778382973118223e-01,-2.477475671653819322e-01
3.874175314557479624e+02,8.641442993023985082e+02,3.933789484629830326e+02,-8.891210308902298964e-02,7.540867052313811048e-01,6.507287291318613054e-01
5.130102585539976872e+02,9.928700434104364376e+02,6.555213814471538853e+02,-1.809198777463664476e-01,-1.888859320108547124e-01,9.651891537541388288e-01
3.983944188315754218e+02,4.319778379556142909e+02,1.558385415412502084e+02,9.975124479428393309e-01,-1.369951159367792555e-02,6.914650809100253426e-02
3.741733589854568010e+01,2.554057883337228532e+02,8.535061514419998048e+02,7.701520430042414489e-01,6.181092528042867462e-01,1.575016896865535365e-01
2.170460401555806129e+02,9.402800435911592558e+02,6.764599997660992585e+02,-1.359363720708814949e-01,-9.905211194923336793e-01,1.972852219151199904e-02
3.705446877465987541e+02,6.626309003540526419e+02,2.808777019572069662e+02,2.972226917876689134e-01,-9.048326118747374025e-01,3.048550737226350393e-01
2.214986982443978292e+01,3.018593895076022591e+02,4.431505472385150028e+02,-3.634656084685494032e-02,3.505404040447034353e-01,9.358420553954507337e-01
4.070033724066557390e+00,5.560347108494498798e+02,8.710938390076833002e+02,6.642334961243235858e-01,1.479649968083180112e-01,-7.327347557922804233e-01
7.949988520782405885e+02,7.553815050857426741e+02,7.332576011759461210e+01,-8.815838538190178264e-01,-4.513830217793705635e-01,1.380698241287103833e-01
8.460404667387861082e+02,6.115802674854967336e+02,7.341899211456178591e+02,-3.331875613690387095e-01,-2.580457626971862650e-01,9.068618600994202694e-01
2.317931344626173882e+02,1.850718130024485788e+02,1.302983597003192244e+02,6.256521250049864591e-01,7.770055776830859795e-01,6.943882722309391298e-02
5.796396867322772550e+02,7.571194687264995764e+02,9.529647541686512113e+02,8.499644838543501946e-02,-6.548224163466842551e-01,7.509881535761744331e-01
6.769936828865162397e+02,5.881227662977834143e+02,1.091836664589895811e+00,-5.491818490972683042e-01,6.107096243446212824e-01,5.704673972760905265e-01
9.880752656097064346e+02,3.347549442897550307e+02,9.318836465866517074e+02,-1.267769687469282591e-01,8.302466693350820659e-01,5.427873140129045870e-01
8.524010581632301182e+02,1.433495558001590666e+02,8.025276203289914747e+02,-1.176706971237095334e-01,8.323224379621955160e-01,-5.416576098450822663e-01
8.927028347501279768e+02,7.541458841296239370e+02,9.009081959121596128e+02,-5.855686126406067782e-01,-1.179091981808281231e-01,8.020017586480152616e-01
3.025145921037641870e+02,4.392329995300700034e+02,1.432800531145169600e+02,9.673778594216182469e-01,-9.725020690024666070e-02,2.339283530457716420e-01
6.815941030315216267e+02,6.014564306992749607e+02,6.559598678610404932e+02,-3.678481100775084223e-02,-7.475283106641299469e-01,6.632106018714991613e-01
5.265155686297688362e+02,4.555216224467114330e+02,7.358670986748127234e+02,1.068703065384268014e-01,4.572898559830634868e-01,-8.828729949405926813e-01
1.504394916086960734e+02,6.600505416747411118e+02,2.648290899868578094e+02,9.546729476936616221e-01,-2.504452636288973522e-01,-1.608624656896300298e-01
3.293986472399972172e+02,6.604108011341902511e+02,2.316738496533269256e+02,-3.506225625320724681e-01,-1.811968897476674834e-01,9.188207147149081155e-01
6.635086277803843586e+02,2.859790680210139158e+01,9.010598044424600630e+02,-7.505988151209087855e-02,-2.721853885089430269e-01,-9.593128418141949609e-01
6.195870122090722134e+02,7.155314923394081461e+02,3.740385184055017476e+02,-3.244851415526779359e-01,-4.621778617423299984e-01,-8.252884447433068704e-01
6.725275944690718006e+02,4.260819345087393231e+02,5.253470178859868156e+02,-9.679728981787324438e-01,-1.108339467847955784e-01,2.252649653886960035e-01
1.701554174991317723e+02,7.472310093757717198e+01,2.890007381624416780e+02,6.848157228737629387e-02,9.297718814167670320e-01,-3.617105511092733594e-01
7.464086826349359853e+02,1.007633214917624898e+01,1.959333139731251947e+02,-4.221741234347100580e-01,-1.299992425664950879e-01,8.971450308808892604e-01
5.234459979412354187e+02,9.706688753483118717e+02,9.340931445069534220e+02,-9.025421245703050266e-01,-2.439441063435070778e-01,3.548365628798529348e-01
9.512513070967176532e+01,2.830561973662782975e+02,7.481683353414708790e+02,-1.518414327069685099e-01,-9.464219497046703067e-01,-2.850081971289697425e-01
9.886072117240424859e+02,4.009555746217964156e+02,6.869401304572619438e+02,8.322119906170114545e-01,5.149100999259226263e-01,-2.056472505713307086e-01
1.008113913092634206e+01,7.538012698862434036e+02,7.671464298824309935e+02,1.191239064708219664e-01,9.339559064161441215e-01,-3.369508269429377645e-01
4.110794764293183903e+02,8.389042796256641168e+02,7.362010177379765992e+02,-4.936942143238944869e-01,8.682451887050829376e-01,4.915602743904013555e-02
4.427415478418948851e+02,6.123859034562278794e+02,3.851712251869634542e+02,1.383614866545843924e-01,-8.463830314990088421e-01,5.142877239457317451e-01
4.421870679356113669e+02,8.420650109132762964e+02,7.989290305392071332e+02,7.230213799509022099e-01,-4.340169473002940537e-01,-5.374656952681046151e-01
7.507576224655829265e+02,1.272233764978576431e+02,3.706776298865140689e+02,3.674830361570933790e-01,-6.800607060693999451e-01,6.344081132813117474e-01
6.524898059621260700e+02,8.724939726682002856e+02,4.374669376509807535e+02,5.217268529731203808e-01,-8.264010838071822462e-01,2.118073170810648165e-01
9.861087243357009129e+02,7.950541452414515788e+02,2.487521081320768133e+02,7.621840124386406456e-01,-2.018709598338455646e-01,-6.150801953881267492e-01
9.398589956827379410e+02,2.378571198326611125e+02,7.037836370847435319e+02,5.544807776858219350e-01,-1.879707645735589627e-01,-8.106898660046009120e-01
4.010734795781565367e+02,7.803077857873328185e+02,9.243644659341256329e+02,6.168867551127205084e-01,6.994780005386156407e-01,3.608063997894146446e-01
9.632415208330315863e+02,6.956992720090371449e+02,4.860156413700115081e+02,-7.565687438637425100e-01,5.042214596720662190e-01,-4.163705746262695850e-01
7.329424236568247579e+02,3.117454524849728728e+02,1.944863233720018911e+02,-7.314759672351407449e-01,3.834414113102033173e-01,-5.638400424321199367e-01
6.467664103626337919e+02,3.178877508443977717e+02,3.785693963703208169e+02,-5.840719549847328551e-01,3.611019615659947779e-01,7.269562055265111900e-01
6.866707863693999343e+02,3.883826729804828801e+02,7.698871869271258674e+02,-7.479850716699082414e-01,-3.912050795206941656e-01,-5.361687405250047389e-01
8.323400870910830918e+02,7.230474518045326704e+01,1.304547522309795760e+00,1.633270385746461162e-01,-3.421022915490133376e-01,-9.253595520592792223e-01
7.809013404775181471e+02,2.415681173735654284e+02,5.754099103256759236e+02,-9.522326894266868180e-01,1.103692926428609111e-01,-2.847306173012196240e-01
5.725096207096032686e+02,4.147641118312351978e+02,3.021185365933677645e+02,-5.841896559860048077e-01,7.530277837239499616e-01,-3.027731870208281162e-01
6.743018335209497991e+02,4.263639813989173035e+02,3.521567681254845752e+02,-8.885121012940304652e-01,4.255835106195848261e-01,-1.715369387122680778e-01
3.917497955955464590e+02,6.110817689242569486e+02,8.917508320781261091e+02,3.226138653983419702e-01,8.480026776808399225e-01,-4.204898958344494564e-01
3.209949597335825899e+01,8.991101446390628098e+02,6.897494066303254385e+02,-8.741066782658880874e-02,-5.304190270221198489e-01,-8.432170722435696764e-01
8.966617081417213058e+02,8.262445821015057845e+02,3.798863650889351220e+02,5.748444605961039455e-01,7.888632038544369784e-01,-2.173676418570331670e-01
1.143804208075163160e+02,8.803177139527055033e+02,8.656148111137117667e+02,7.510617763627098764e-01,1.340971163461051052e-01,6.464705495802185453e-01
6.128736447820026711e+01,4.529914254789932784e+02,3.513105914791093483e+02,-7.647212029574634862e-01,6.659961065855128648e-02,6.409102695443563702e-01
1.491720681779385984e+02,7.938233863918966335e+02,9.640027952066707257e+02,8.108024060649937637e-01,-1.255982457019171328e-01,5.716856994851435836e-01
6.276165372258100206e+02,4.408213719946126616e+02,3.661658578053994262e+01,3.773621364778571019e-01,7.387407771965149861e-01,5.584441619893221187e-01
3.040292570937732535e+02,8.478170805356805886e+02,7.405168067036688626e+02,6.130395604928475795e-01,2.972808633818678214e-01,7.319881047788056039e-01
6.058220005136034843e+02,8.347345486769017953e+02,8.832113357862452858e+02,-8.688563604849631750e-01,4.929893067966023001e-01,-4.527878343141922279e-02
9.463673602042815673e+02,5.134000572114875922e+02,3.359949007626531738e+02,-4.027212945366280827e-01,-4.911967089414974730e-01,-7.723608949524725098e-01
7.881379929640269211e+02,4.373376920281583011e+02,3.342326981844590819e+02,6.752794527939339764e-01,-6.769814900211118536e-01,2.927349019217224679e-01
9.491749678716846574e+02,6.775436663101003205e+02,8.830328627651927036e+02,-1.302322146637253375e-01,-9.715897861872080377e-01,-1.976179588005018417e-01
3.488643101916246678e+02,3.215642778353303584e+02,9.828749435508173065e+02,-3.355202533764354844e-01,9.012874877389399630e-01,2.740566073267396985e-01
7.190563063330436080e+02,9.464267870173792119e+01,1.209263229749879542e+02,-9.616365303717032686e-01,-1.351801610142108201e-01,2.387079963529590287e-01
5.253610631640154907e+02,9.339081121624271873e+02,6.365444228959599968e+02,6.551218474631910205e-01,-4.484782856685728403e-01,6.080152894954152787e-01
7.273128918382965367e+02,5.822024070614577340e+02,8.819081009824913053e+02,3.587885454010188435e-01,-9.087143728659360375e-01,2.133283109104129605e-01
2.270142725482865558e+02,4.405778772410628790e+02,8.551054719497053611e+02,-6.955394750866386033e-01,7.098231621114103884e-01,-1.112470994065086760e-01
5.237872418861377355e+02,8.250861836113391519e+02,3.364101416199077903e+02,-6.623314701686435768e-01,5.073441324159362331e-01,-5.512884498403392008e-01
7.315107194965349890e+02,6.545815272310986757e+02,6.859835402282204768e+02,6.500364465693427851e-01,-1.013434385864257596e-02,-7.598354514011942396e-01
9.841627913553144253e+02,1.334206468581832326e+02,2.637358371871880536e+02,-6.472311866612421305e-01,-2.926962033533758167e-01,7.038612956794823017e-01
2.187990263507916211e+02,2.120699884602690304e+02,9.662079324877416866e+02,-5.050623296222392922e-01,5.367106993070699245e-02,-8.614124792740407432e-01
1.416703354780200925e+02,1.429389523489344924e+02,2.319334767658123155e+02,5.810150641538896349e-02,2.113626963338746112e-01,-9.756792636674906927e-01
2.932525003512050716e+02,4.453691950272713598e+02,8.521424391729625540e+02,4.569250946848258388e-01,-6.282137410376582576e-01,6.297356218435901098e-01
4.372249793872228452e+02,1.162233399299817904e+02,8.579101682459611311e+02,5.836057709820954842e-02,5.103811639206298212e-01,8.579656814557252709e-01
5.756343933141450009e+01,2.160535683877985491e+02,9.605200920615714040e+02,2.760509594083364604e-01,5.569275561694438936e-01,7.833438357380926309e-01
1.799270248913930175e+02,1.985153030275687058e+02,4.898129311577376939e+02,1.659449083595581909e-01,-4.003214525030740489e-01,-9.012241796885871459e-01
8.650877444314650120e+02,2.288164436952386893e+02,7.056432242515023745e+02,-9.401368718463397611e-01,3.403213791884651673e-01,1.800058505271362810e-02
5.259569412787693636e+02,9.910624077267567600e+02,5.413545723538230732e+02,-9.923299150001843039e-01,-1.086675603144292290e-01,-5.892962863481399083e-02
4.187389566800261491e+02,4.388967439014992351e+02,9.834676983180860361e+02,6.347509435219131912e-01,5.924701816166310087e-01,-4.960547586639980633e-01
2.708735549787672880e+02,5.598862729312273814e+02,4.232457125080885021e+02,4.085036559761283104e-01,4.021987907577576071e-01,-8.193661548826229879e-01
2.671606464294441707e+02,7.440046151066325137e+02,2.063515707379598325e+02,3.011143759801864217e-01,7.689368986075733048e-01,-5.639735619138803724e-01
3.257949956631395025e+02,3.157285385927094126e+02,1.831242831550084986e+02,4.776373212468882357e-01,1.512900863213390568e-01,-8.654327814064930458e-01
1.070258899346526675e+02,4.549108139887275684e+02,2.932592614708693191e+02,-9.432486369872172816e-01,2.480904951290667237e-01,-2.207557814608065438e-01
4.970774725038647830e+02,8.598930170570974951e+02,5.602645902962899527e+01,7.395185055406952035e-01,1.974905702732005219e-01,-6.435136786549474630e-01
3.264510183012200173e+02,6.379775029119529108e+02,3.725792413573358886e+01,-1.860598875995910229e-01,8.487806157673988272e-02,9.788653803712759061e-01
5.560541726327134029e+02,6.574502774652390258e+01,5.100297762329824991e+02,-2.135627972904100835e-01,-9.727350820020135291e-01,-9.042893262684970068e-02
9.216812828985741817e+02,7.236202762747420820e+02,4.102416337064277627e+02,-7.941545007914191379e-01,5.829715701880264778e-01,1.716472464831260425e-01
9.727389841744482624e+01,5.827556274106714227e+02,8.952894288779314138e+02,5.653244595464490541e-01,-3.131060884926737398e-01,7.631335615652958815e-01
8.045942014064366958e+02,4.746571074595096320e+02,8.075093649027460287e+02,-2.163033487443428438e-01,2.035957402074423800e-03,9.763240835908126858e-01
7.211251345114541209e+02,6.516199628945042832e+02,2.022127263635842098e+01,4.594281276003778225e-01,-3.671319074217084255e-01,-8.087891926345882609e-01
3.169296111825902358e+02,8.784758856847365678e+02,4.902967106433357003e+02,-8.203956951195432445e-01,5.693882930689214694e-01,5.242017879959459670e-02
4.589886355010012267e+02,6.181133803480993265e+02,6.352896131553976602e+02,9.879772881005535190e-01,5.737464575896714103e-02,1.435584487987697777e-01
8.902964599043383487e+01,9.598566006008373961e+02,5.801588162019518222e+02,-1.958035881354281971e-01,-9.396283594494149183e-01,-2.806412318097482039e-01
6.225091230483616300e+02,2.580018994576681735e+02,4.768571389311293274e+02,8.319688266820591815e-01,1.589839669212098905e-01,-5.315561773615968821e-01
2.408815227728006221e+02,5.493287723661594555e+02,1.522224101643223548e+02,6.317567700443731393e-01,5.641421145696982054e-01,-5.316268033798996484e-01
8.155128196368485760e+02,8.168628669510842428e+02,1.097298843277823011e+02,7.566754079562033608e-01,8.593422504805992013e-02,-6.481185354236542739e-01
7.056429337377740012e+02,2.209426224277617621e+02,9.442733542959305169e+02,6.084075501196867242e-01,-6.611899763601812863e-01,-4.389397089785612160e-01
6.204911660151567503e+02,2.519111905997575320e+02,7.858019938831068885e+02,-9.548086901591947839e-01,-6.127064957562107506e-02,-2.908371927678168323e-01
9.877574576784274996e+02,1.135685516112683402e+01,2.655534518094722216e+02,-3.717673771702469931e-01,-7.735075431246304367e-01,5.132982544303589245e-01
3.764402576585640645e+02,3.531606764150615732e+02,8.197669680441200057e+01,4.536702894542367082e-01,8.743029193683318212e-01,1.725620863646515624e-01
1.233415002800776250e+02,1.652027111657670275e+02,4.752268870678356620e+02,-5.395930350288433847e-03,-6.364078168342001129e-01,-7.713338930761322043e-01
7.154430850586730912e+02,6.760769604854732506e+02,5.852130845738726066e+02,5.115607111042710931e-02,8.388085900267137907e-02,-9.951618249719584863e-01
5.402724123677704426e+01,7.635270255433667899e+02,1.005153128999338747e+02,6.399411611252238119e-01,6.755241409404663111e-01,-3.662546181338133255e-01
4.982884912215018858e+02,2.506205877115468184e+02,7.718921201638735283e+02,-6.351599202600548555e-01,7.572454470533090953e-01,-1.521552122415626151e-01
9.452604324901561768e+02,2.028297403156266228e+02,2.281668786069147643e+02,-5.185741187577862510e-01,-1.806469666594261170e-01,-8.357317493019715826e-01
4.678386638601712662e+02,3.104475528194423646e+02,2.618408062042122424e+02,2.849256707333768790e-01,-4.768924262361541877e-01,-8.314992338876383560e-01
2.703676298091358490e+02,3.599110313850051313e+01,9.646358843893777930e+02,1.024633057331923169e-01,-4.123030190795787808e-01,9.052665306063683026e-01
9.205156748188537108e+01,1.789786760951570557e+02,7.088956461414887826e+02,-7.439650385406794131e-01,-5.116806521238504990e-01,-4.297661360219960369e-01
4.165022577862131925e+01,4.819223563200554281e+02,5.448583313919230875e+01,5.975982238811983205e-02,-9.967289021956229345e-01,-5.440826367426843113e-02
4.461847435144397309e+02,3.451972474828197619e+02,1.059035096553513426e+02,6.003798155515907009e-01,-3.182918923870413086e-01,-7.336445653849785753e-01
3.692002826405138194e+01,5.385811645854072367e+02,5.147616507842237752e+02,7.798092111396703885e-01,6.255157097072969741e-01,-2.505376480893950486e-02
7.067241305427927500e+02,1.798259964854676980e+02,6.358529671797642777e+02,-6.961708596974006680e-01,5.466832299971821074e-01,-4.652779600927066106e-01
1.776079115769420014e+02,4.945521711258970186e+02,4.667333281430292686e+02,-1.538641834853619328e-01,-4.352815581361400565e-01,8.870489153293390494e-01
1.984754342922892079e+02,3.848294165188170837e+02,8.458222139814783986e+02,-7.724746175848615781e-01,-5.649057044229159885e-01,-2.901112033299833026e-01
4.056516218370875748e+01,1.500246886688593122e+02,6.572073170767222337e+02,2.330790506881580959e-01,9.717640460510988953e-01,-3.672594359175662682e-02
3.943396638359428721e+02,4.276369784317646463e+02,4.941610603040946614e+01,8.790245284424927918e-01,-1.570703685821977502e-01,4.501608353798738915e-01
9.154905116127397946e+01,1.249476981302219940e+02,9.043984337015490382e+02,7.086809347364902978e-01,1.462227220634050306e-01,6.902102928045790176e-01
3.055958022961191745e+01,4.075720057535606884e+02,4.902563095408041249e-01,-6.986577572616150533e-01,6.528209459290829075e-01,2.927492967957865400e-01
5.428677646862181518e+02,6.539015081963295870e+02,1.517230151416024739e+02,6.700949432790120897e-01,-6.373692416807394956e-01,3.804381904478264520e-01
3.037218177147536835e+02,2.082778698107532591e+02,1.529845854460463102e+02,4.556873499764991786e-01,7.136650573750492610e-01,-5.320067903262734044e-01
9.481201621584616532e+02,7.052874456909124774e+02,7.910868273195795837e+02,6.005002992736684364e-01,1.276688507192008104e-01,7.893668697939337786e-01
1.074174542204044940e+02,9.645658904002399368e+02,3.721337675659698334e+02,-9.581364514743081484e-01,-8.660931101635492568e-02,-2.728980901389619351e-01
7.918335084239031403e+02,8.370876188394427118e+02,4.476133278292778641e+02,-7.872641070342792924e-01,-2.751036173685379449e-01,5.518452912603892813e-01
2.584999915302437330e+02,7.755976221467732330e+02,8.560882190977415007e+01,-8.084323269054175531e-01,5.794531583953579368e-01,-1.033015490684261461e-01
1.337581723780820653e+02,1.051903983793781521e+02,6.286511460167889709e+02,4.460174658501299683e-01,-5.268445175317311158e-01,7.235352614098262691e-01
5.651994352594239217e+02,1.535559796464146416e+02,6.321087982121356390e+02,2.162591857041747112e-01,-9.181986984261071294e-01,-3.318781625946034541e-01
5.239960709727711219e+02,4.403625885092665726e+02,3.347470670006097180e+02,-8.090748879505867130e-02,9.522401958186623716e-01,-2.944360503133288121e-01
1.886300940663482208e+02,4.995223383077807000e+01,8.276485328297167143e+02,4.384552721402729669e-01,-8.962621444781806446e-01,6.686660383010378794e-02
7.666494444391806837e+02,6.608339173600974163e+02,6.155055441827533969e+02,-8.021043772080856948e-01,4.707713319118245754e-01,3.674274365280791876e-01
2.469559713318267882e+02,4.832457855616589804e+00,6.549743296889924977e+02,-2.122581694634579352e-01,5.200899439852258999e-01,-8.273166985269102547e-01
2.801929283900307155e+02,2.283892817800351338e+02,9.080860443486632221e+02,-9.252440491147007062e-01,2.530031505431550309e-01,2.826886191431676743e-01
6.388973201686671928e+02,1.050815990775171258e+02,6.776073282887858795e+02,9.832496733602278383e-01,1.729340580152086485e-02,1.814415000841574088e-01
4.505527638942843396e+02,1.691749945399744206e+02,8.139010204643514612e+01,3.685491941887015788e-01,-9.186771407586035165e-01,1.421400805911396947e-01
6.309587242908478402e+02,2.967234724680024556e+02,9.750267301382698406e+02,3.879748826534097812e-03,-8.330825335595398728e-01,5.531351008813861769e-01
4.145047291082177594e+02,6.947365133265312807e+02,9.038174002418403461e+02,-1.380119163965073670e-01,-1.543626340562791466e-01,-9.783275975560388193e-01
9.507452271702021562e+01,9.028018679647099134e+02,5.440620426463732429e+02,7.486526535647118619e-02,-9.841875307575419507e-01,-1.605306710397662595e-01
7.938027923439390179e+02,8.489023127397279040e+02,9.689943581715743903e+02,7.892220605837160230e-01,5.384148039324665458e-01,-2.953608606338302689e-01
1.888076623690015765e+01,7.620279013449468266e+02,8.367488063439911912e+02,5.315461994541780255e-01,9.971888225226463454e-02,8.411389792229213569e-01
9.883287500340810539e+02,1.236322934165767720e+02,4.839636523333813329e+02,6.307884505757410665e-01,-7.297105455553563047e-01,-2.638720339967091100e-01
4.693728023502467863e+02,2.858959648202985449e+01,9.309296789855566203e+02,-2.012173028796300223e-01,-9.730467192277049149e-01,-1.126573531645727044e-01
9.059681443623279620e+02,9.441983484662068804e+02,1.639459134435450380e+02,2.987639954095777095e-01,-1.650420461035762565e-01,9.399474443099735677e-01
3.247218814263557078e+02,5.789543938567705936e+02,6.222617439739410656e+02,-1.359854651050247387e-01,-1.433895201215428239e-01,-9.802792453171105258e-01
8.156296981204743588e+02,8.134846039131322186e+02,7.070812397376148510e+02,8.007010062612515133e-01,-4.964748598060954587e-01,3.352470911920597541e-01
6.278094571470484198e+02,9.068625526745514662e+02,9.318896063115070092e+02,6.414586998794016282e-01,7.670730705995179033e-01,-1.138598744311680733e-02
4.879611739712953522e+02,1.735207043666771085e+02,2.270468380904421224e+02,1.545861615520638388e-01,-4.581308671436697399e-01,-8.753394925551962746e-01
5.132816729743483108e+01,6.987095937108508679e+02,6.935287295695502507e+01,-5.397857936424518277e-01,-4.996772513603301435e-01,6.774613948076848580e-01
