x,y,z,nx,ny,nz
7.533800731255857954e+02,2.824280305589725799e+02,3.685768697652759442e+02,-7.794620610962135210e-01,4.696698660385938973e-01,-4.145468758137396681e-01
3.189860064701890678e+02,1.219198138900876529e+02,9.630182395955345100e+02,8.854972951380640778e-01,-4.645762400808816639e-01,7.966018797565643794e-03
4.577052876804191897e+02,7.546222253081317604e+02,6.280230786069258784e+02,-9.112552102384851027e-01,-1.247835451776732607e-01,-3.924831316962626993e-01
3.053135314483067759e+02,1.252283688647326443e+01,2.682628291359363288e+02,7.282267225246590314e-01,-3.427161091461159437e-01,5.934909511801682580e-01
1.328074845804110282e+02,7.575703592474212655e+02,5.269053460473439827e+02,5.433369158039328406e-01,-6.685708442800984974e-01,5.077381432424259433e-01
6.545375346228314584e+02,8.542582098426465791e+02,7.425880576965467981e+02,5.626481845646769120e-01,-6.907439621948381347e-01,4.542023768073537582e-01
9.020760015248446280e+02,3.957502615651806650e+02,8.402127979872520314e+01,-7.296269168516590353e-01,-1.821241845890242128e-01,6.591474369162981795e-01
8.251753305664195750e+02,3.198418437577388218e+01,8.779604187251567282e+02,-1.277723189097051126e-01,-3.426546128051875528e-01,-9.307319973245593570e-01
6.417491808335967107e+02,3.740801877382561429e+02,2.754620266501041215e+02,7.533877763968723773e-01,-6.573072133766805214e-01,1.881716287752466243e-02
1.080674851723373280e+02,1.912720517411701167e+02,3.870462326050858337e+02,-9.221450519346503782e-02,7.000450924591993251e-01,7.081195898686289958e-01
6.235518010455582498e+02,4.080471353479287018e+02,5.033512965945175210e+01,-2.470692676131377719e-01,8.361711998536810464e-01,4.896677460649854208e-01
3.772395675305094755e+02,6.636026316710936044e+02,8.633328681516405823e+01,9.903419940168997071e-01,9.626379500013840240e-02,9.977984094396231962e-02
5.984272223880147976e+02,3.841142279962266457e+02,1.467479307274827249e+02,7.628792352748853256e-01,-5.128069526675484990e-01,3.937566528736102800e-01
7.664921446562296978e+02,2.874981020411876216e+02,9.572253423743933354e+02,-6.465715249744331539e-01,-6.466982329800086138e-01,4.046315095896149128e-01
7.713625072014618809e+02,5.716353364349513413e+02,8.339046774992332303e+02,5.552926478157358403e-01,7.310180487239116287e-01,3.965635985837252520e-01
2.857164953713028126e+02,4.765470496967893865e+01,4.475791440506381491e+02,-8.891179817362275806e-01,-4.429489685376507557e-01,1.151756303422235700e-01
3.474139328006050391e+02,4.475283795912552591e+02,8.512376625014974252e+02,-5.605681842704458573e-01,-8.137274380548205066e-01,1.536586064640497185e-01
2.402673463080851235e+01,6.262089291372217303e+02,9.758261797608447807e+01,-7.762797835916321887e-01,3.864053244978659096e-01,-4.980769245675085166e-01
2.705519937974664231e+02,2.107967283551126414e+01,9.850455536104693692e+02,-7.036477888081478227e-01,6.745999623395215750e-01,2.231472162428212169e-01
3.898387483749842204e+02,4.525586263864342982e+02,9.310031937645028393e+02,-6.733057439533658428e-01,-5.919609510658824236e-01,-4.429916563238867067e-01
1.859609697963389294e+02,5.057633489864318221e+02,7.865007628599348664e+02,-4.644325921284327419e-01,-3.651143184237235495e-01,-8.068419311431729302e-01
8.613524744830288000e+02,5.192975854704402536e+02,3.189358689174241022e+02,3.493268445692518376e-01,-1.427409143226398835e-01,9.260646775693512911e-01
2.013918537137202520e+02,5.889087033060772001e+02,8.425182098415589280e+02,-8.091997864396711648e-01,-4.884216370000626362e-01,-3.265578205098902398e-01
1.945937352381418179e+02,7.613352159920956410e+02,1.500984613520499522e+02,-3.278918309031944589e-01,-8.205418292220190146e-01,-4.681859179043451058e-01
3.622161055300111343e+02,8.071905755135195477e+02,3.598096765864189450e+01,-6.192854273220156358e-01,-7.323099975609390633e-01,-2.832095107493498021e-01
8.577386145114405736e+02,6.455644082734327185e+02,1.152934254800270821e+02,-2.296120926388870928e-02,-8.115690325978739406e-01,-5.838051800021055726e-01
4.844700609485067275e+02,8.874550780727274741e+02,1.374435496242308830e+02,3.574986910833626297e-01,9.811374044877507750e-02,9.287455947722351723e-01
2.232384309404434930e+02,8.065850822605140138e+02,4.558728073695024250e+02,4.357535565771871733e-01,8.462713439037952146e-01,3.065022845226388348e-01
2.349022208021048641e+02,3.740467168670695628e+02,7.566160562962171525e+02,3.120113967280852552e-01,-3.680914248218225548e-01,8.758753286195644083e-01
3.892749454089656638e+02,1.014207768812767085e+02,7.122448043972556206e+02,3.778229481919504473e-01,-4.227519923555958514e-01,-8.237296721491322860e-01
3.949870601017651097e+02,7.974959842933486698e+02,7.864170822798477047e+02,-2.995895123941897942e-01,6.600029529865466538e-01,-6.889428322527567650e-01
3.641702986535257764e+02,5.666455566878987611e+02,4.168744252028777453e+01,2.835208956205143571e-01,9.040213812764530399e-01,3.199394379277982203e-01
1.803060608477593405e+02,6.813005739407441297e+01,5.512566489358515582e+02,5.990975331933311443e-01,7.773803835151756880e-01,1.917338912333022005e-01
2.863771315373824109e+02,8.307513669044257085e+02,1.534209411624123334e+02,-9.047821466413751290e-01,-4.129109421008717029e-01,1.042776151069628732e-01
3.506171893069536054e+02,9.591120175192022543e+02,5.533439494595206725e+02,-9.505929424683045026e-01,5.536947547936180852e-02,3.054624018019094223e-01
4.604339934589334575e+02,1.278216616063848647e+02,3.630733236044981709e+02,4.825951939586579087e-01,-6.866396396570129124e-01,-5.437167314141556629e-01
2.267893206662648993e+02,4.081814028522821900e+02,6.830640476222469033e+02,2.088077522621457904e-01,4.490682926350475501e-01,-8.687560020771503133e-01
7.522566048040931719e+02,6.177542796100678970e+02,8.791985605365955507e+02,-2.155620573459142708e-01,-7.174675902521621129e-01,-6.623996198448127704e-01
1.507396591030581874e+02,2.437639773961811613e+02,5.466845720908041812e+02,-3.462271713413218044e-01,-8.848342338572670052e-01,-3.117613260480050497e-01
1.607641423234598221e+02,7.162383064796215422e+02,9.706186984339439050e+02,4.160676535462866088e-01,-2.980496667082733198e-01,8.591007530246812518e-01
1.884537869112615738e+02,8.631112601663350006e+02,1.874247707253514648e+02,-4.007894623569989712e-01,2.154712814143928401e-01,-8.904717478669534891e-01
9.707420095213946070e+02,9.175383344119147466e+01,2.739180932295549837e+02,-4.736976858027769355e-01,3.896778091054411419e-01,-7.897858618359010485e-01
7.899477963830403269e+02,8.610113686139754918e+02,1.295009459428958394e+02,2.169886651940799438e-01,9.645588625327320420e-01,1.501403339774278756e-01
4.020939060931934819e+02,2.772200829786826262e+02,9.606299875993917681e+01,-2.678725810473064350e-01,5.888788197758739740e-01,-7.625391897748128311e-01
3.724025561078481417e+01,1.605220916706207035e+01,1.527059311811764815e+02,3.696245883542775834e-02,-9.964353179982680109e-01,-7.583161400451565726e-02
8.384029063789790825e+02,3.199167004179854530e+02,4.265018407107135090e+00,-3.237229494836542376e-02,-4.217409053447456202e-01,-9.061383135475347128e-01
5.033776096365530748e+02,5.271601757222613287e+02,2.880795880857548354e+02,9.996359058614588955e-01,1.233408149950337117e-02,2.399846132784589151e-02
5.217812092340584513e+02,7.884791333735151966e+02,9.425984356081718261e+02,-8.314439289435846536e-01,-5.555822280416929937e-01,-5.420415766673070124e-03
7.344694353499343151e+02,1.793500166366351891e+02,4.135603797757918301e+02,6.932279419634230777e-01,6.956884378689630610e-01,1.882886557830789620e-01
6.199922033202390139e+02,6.152216915084545690e+02,7.012080919186323626e+02,-2.079003299064151600e-01,-8.595365622262361727e-02,9.743661641327487910e-01
4.187086750571659195e+02,6.544693512274343448e+02,9.252611878587662204e+02,-3.092220492173256563e-01,8.925243767939210482e-01,3.283016312881505971e-01
3.513183203581925227e+02,3.223666751344194950e+02,6.102050587463702414e+02,-7.312653569443549051e-01,6.107168595826323321e-02,-6.793535360232259013e-01
3.839142419785379730e+02,1.889625932458114335e+02,4.688389496421809781e+02,4.022674863535619649e-01,-6.109895835751920634e-01,6.818156629070648567e-01
1.147551260581336408e+01,2.670403099282951871e+02,9.998757875742624037e+02,-6.479234164720493183e-01,4.039811628033059682e-02,-7.606334456150269929e-01
6.288415685971910989e+02,1.189653966220044481e+02,3.080369870545313233e+02,-7.798675170802367163e-01,6.012960617350456838e-01,1.739244144593583286e-01
8.519546448042982547e+02,1.902220893121835275e+02,9.032727008703349156e+02,9.108932663580778799e-01,-3.401204633854285064e-01,-2.336482991378134866e-01
3.275938987659719146e+02,1.293647072273554954e+02,3.838219118604237110e+02,8.041567796569468740e-01,1.684584450960564250e-01,-5.700470384166447246e-01
1.805760526668569526e+02,8.755303150381228079e+02,8.123656243140497679e+01,-2.206891331539520551e-01,-7.427033979917900819e-01,-6.322088018362335138e-01
6.822206404739505388e+02,3.106626960638558899e+02,4.723734422152397769e+02,-6.880900699194281156e-01,6.979435089464823827e-01,1.985117477575268907e-01
7.261725883076273931e+02,9.543407046242111846e+02,3.510655228482116854e+02,-4.811210015789438299e-01,6.354405118337180802e-02,8.743481774435621912e-01
7.366472047548874116e+02,8.093379690056800655e+02,3.962593672826938587e+02,4.080078606788955509e-01,-9.070232086408220873e-01,-1.041080429704577398e-01
9.408492093746439195e+02,9.795978714178411337e+02,1.789133363658466180e+02,-1.779396914853839384e-01,-8.198939445567445805e-01,-5.441611763744896857e-01
3.394873942967924449e+02,4.946468481069089762e+02,3.150270889685675684e+02,-4.099365250489687695e-01,-9.075754525492226721e-01,9.087817868360881235e-02
4.853374539683806006e+02,9.929813576374783679e+02,3.241613031812349277e+02,1.516938292718333914e-01,-3.368008294610673747e-01,-9.292761610173720932e-01
5.337610913727831985e+02,1.031547197490566532e+02,2.452248705463222578e+01,9.035296670489807447e-01,-1.191782016417284179e-01,4.116196023220972666e-01
4.001778567264369002e+01,2.646816317168539854e+02,6.953975359715524291e+02,-3.098326932274267365e-01,-6.043856102971936206e-01,7.339766592154877145e-01
9.363084599456931301e+02,9.033787001108528329e+02,8.667876614010639003e+01,-1.244201053075520702e-01,7.794380858526335221e-01,-6.139999248514940167e-01
8.593733283008569970e+02,5.783223874515512080e+02,1.996455706516622115e+02,6.383219754985122174e-01,7.508036673186043730e-01,-1.698202247572750956e-01
7.823380633622600726e+02,5.448837066761946062e+02,2.272773814151588567e+02,-5.445698147900370628e-02,8.323329512101800276e-01,-5.515943214881273704e-01
3.877051317814098752e+02,2.975489323772372359e+02,6.795558945331503082e+02,-1.734119300082141990e-01,3.245029193497516729e-01,-9.298527613898421862e-01
9.428079850752847051e+02,8.027325501575511453e+02,2.408262095715539886e+02,3.095402677001464209e-01,7.866690756332104240e-01,-5.341690632323367049e-01
2.378556872412198686e+02,7.581806234131273641e+02,2.610497314046865540e+02,-3.713425638078190344e-02,-3.557678838514676811e-01,-9.338363131849687360e-01
9.309898653459719071e+02,1.337783077430914034e+02,5.130122936600178036e+02,4.385502164821646343e-01,8.199090586405387571e-01,3.679984282339152646e-01
6.516840317406685017e+02,2.857829333557622249e+02,9.707596574816568236e+00,-3.511246401736689005e-01,9.240885075393954207e-01,1.509036689299647627e-01
9.712833117325800458e+02,1.649722678989524809e+02,7.272354411432770576e+02,3.938390651843151624e-01,-4.839723292314417891e-01,7.814483829870260134e-01
2.368085336942392587e+02,1.836263650257241409e+01,9.314054672648543374e+02,-5.224061829651055477e-01,-3.572681882475389203e-01,7.742423533146127745e-01
1.735426468425015400e+02,5.769603709326083845e+02,2.516569735001449430e+02,4.366149868489451746e-01,8.060038264983169221e-01,-3.996563335279031404e-01
8.934266373502794067e+02,8.281802190731247038e+02,5.029093602870371171e+01,3.772017175951745127e-01,1.740809438136049075e-02,9.259675061757079995e-01
5.724308169270726694e+02,8.343796647905168129e+02,3.847160679253756257e+02,-5.012027439462434231e-01,-2.824987191087676708e-01,-8.179182619080356265e-01
3.617957609071613660e+02,9.853168020853229336e+02,8.687788695550200373e+02,2.171345472901535512e-01,-6.854330969735753509e-01,-6.950065164775891535e-01
9.282072191271760175e+02,2.243842660439845247e+02,4.989674744999600193e+02,-3.751162557583820889e-01,-6.560558380699862413e-01,6.548881828221517765e-01
8.260315378454188249e+02,3.802066052454794658e+02,6.317444085013914901e+02,-3.308913467002964071e-01,-1.426621255824224443e-01,9.328228313046209585e-01
6.189701087401422228e+02,5.017931180631695156e+02,4.523762477778515745e+02,7.877909287613383826e-01,-4.044584968380321999e-01,4.645414695125371640e-01
3.957791147536915588e+01,7.881402066436830864e+02,2.727682366647881054e+02,-8.301394375470534381e-01,6.161397562014314655e-02,5.541409858847676784e-01
8.235515559967603849e+02,8.389535249937796380e+01,1.085587056087176165e+02,-5.341575372065021643e-01,-8.433576278293376527e-01,5.851185373543388996e-02
9.520625390545332039e+02,3.911517605350281883e+02,3.002984293714631008e+02,5.943210524332012135e-01,-7.970103243993286180e-01,1.075036252205905513e-01
9.299801363463565167e+02,1.900495036166898331e+02,2.960632894182325572e+02,-1.428165366944860459e-01,6.549989262851102501e-02,-9.875794656189678111e-01
6.414247825536214123e+02,7.095892156781084168e+02,1.187777143984850596e+02,4.567794934125229411e-01,-3.048572686458984049e-01,-8.357119959361367645e-01
5.334034972660143694e+02,9.632415649136705724e+02,7.590540122163353089e+02,8.040895844807967041e-01,4.813472645420385776e-01,-3.489194048020210492e-01
3.361254429373311723e+02,2.168540452610190528e+01,7.711523332537786928e+02,-8.770605304400552749e-01,-4.216410705568653938e-01,-2.301817402920343369e-01
1.100765078470179503e+02,7.391888791127220770e+01,3.196907738727294941e+02,-3.198823404623050703e-01,-8.911780819678644106e-01,3.216782779120100355e-01
8.279593858834743969e+01,3.055106612860311088e+02,5.475745598545727262e+02,-8.456680137831232846e-01,-1.594334910725260512e-01,5.093393489497293203e-01
3.071421092708612832e+02,8.767770399379611490e+02,9.888218847172995538e+02,-7.443996335874176751e-01,-3.713352212442939670e-01,5.549588624198820153e-01
4.459528147489277785e+02,6.106325168676457906e+02,2.129145905151635816e+02,6.595529774446726723e-01,5.608111514986695578e-01,-5.004804914265923443e-01
4.974482785846432193e+02,4.898077847100882423e+02,9.955772118463961533e+02,-2.509390203216364523e-01,1.056778608196898145e-01,9.622171261272538523e-01
2.143979041758140625e+02,5.411208861089534139e+02,4.534353144697316225e+02,1.824852163161377605e-01,-3.034251500691013126e-01,9.352177950250923910e-01
4.395391021553911628e+02,1.684769716464471401e+02,5.290872104552504425e+02,7.891235233935277593e-01,1.809725088052475950e-01,5.869693483340667761e-01
9.774555643930161750e+02,9.607973060206447826e+02,5.565916591021018576e+02,-1.323310920756559372e-01,9.471633895169556672e-01,2.921814429918783151e-01
7.407818130195850017e+02,1.565724245983771823e+02,7.187750528486499206e+02,-1.580323856506379854e-01,-5.699159492958342232e-01,-8.063631786135798674e-01
3.044852440523308132e+02,8.624863997043008794e+02,8.421791188670099473e+02,-6.475999782663699467e-01,7.469145160138981332e-01,-1.507745798107944513e-01
9.932367844655456111e+02,2.557510269518996608e+02,9.206755977591221836e+02,9.093300969028091929e-01,-3.906090225779084713e-01,-1.433295724805550009e-01
4.058204059990451356e+02,4.877044482226589039e+00,3.253313297689604155e+02,6.786283587952849361e-01,2.827168895069149257e-01,6.778898959464974006e-01
7.017873465119158709e+02,5.141582677561876835e+02,4.981668249945122398e+02,-7.699984086536988404e-01,-5.858365284542464968e-01,-2.527805621471879149e-01
2.769230564689927405e+02,8.447613628436349700e+02,4.166191485721183199e+02,-1.276803558095002400e-01,-9.918134167366328136e-01,1.968024787881050841e-03
8.164526703274774491e+02,1.147245502290605756e+01,1.665376436115401191e+02,-2.332075363026119008e-01,-9.655244570940171300e-01,1.156579775241179942e-01
8.778095014799500859e+02,9.758699375629136057e+02,4.642770675442432662e+02,-8.437791042421343146e-01,2.772613487434561971e-02,5.359739589656116188e-01
2.248749799673657321e+02,1.095417172162684807e+02,9.790089375741902131e+02,-1.712367690295541200e-01,7.574902153553949580e-01,6.299893194119696727e-01
2.971877941967275660e+02,1.662410653290591256e+01,3.873683069988095440e+02,2.546609755207454584e-01,-4.758957453676856408e-01,8.418260076095043232e-01
3.186468647803824865e+02,2.312642948854375504e+02,9.560195836309338802e+02,2.004446045375540553e-01,9.711457670736708403e-01,1.292201981374234698e-01
1.839619397526691671e+02,7.662248069179190679e+02,7.087642559312613457e+02,2.696686454022937385e-01,-9.549209406466168115e-01,-1.241161504457524156e-01
4.135981611291069839e+02,1.174419362275895793e+02,8.839110659363492459e+02,-6.656160865280758010e-01,-5.962563238073647076e-01,-4.488135711793663774e-01
1.894180220437538082e+02,9.651879917930427837e+02,6.527153684256953738e+02,9.198897275414805175e-02,-6.634584713377467136e-01,-7.425367908069047118e-01
8.085641504743884980e+02,9.732525517670680983e+02,7.375885099166811187e+02,9.629706147787381321e-02,4.049890854647549693e-02,-9.945283879091992851e-01
9.875189087044416283e+02,7.158319690725936653e+02,8.768836998086514996e+02,7.142277710812791058e-01,5.998119392032702502e-01,-3.606997762758947790e-01
3.034725979615250253e+02,4.193322981668862326e+02,6.460302570715726915e+02,-8.594461979791090389e-01,4.660138632898172539e-01,2.101982683110252825e-01
1.226810418590062994e+02,5.338618843034166730e+02,2.328540972439959660e+02,-3.912376419984927578e-01,-7.663060377902028986e-01,5.096157022009227822e-01
1.354434683912764115e+01,7.142955138788784097e+02,2.953139661018992115e+02,1.316832345130089787e-01,-1.905509469967006098e-01,9.728051512748339125e-01
5.977656853768393148e+02,1.920756730045573022e+02,2.262515885870654984e+02,-5.194204722705637600e-01,5.013729648983866749e-01,-6.919736433240978313e-01
3.441963589302681044e+02,7.034787968520784318e+01,5.257611872720692645e+02,-7.135492566550309945e-01,-6.328502187869435858e-01,3.005795384060108710e-01
2.355662365024203666e+02,6.181818418404455997e+02,3.028285192326406445e+02,-1.935586427404218379e-01,5.348710625625983095e-01,-8.224645878417153888e-01
7.862693223485936187e+02,3.521553600965318083e+02,9.114351403237923250e+02,6.967536230959593402e-01,-7.172539970799939324e-01,-9.005130505773228933e-03
3.310144340657947737e+02,6.597098038387995302e+02,4.665434913737406077e+02,-8.034192822001648415e-02,6.467448033085292369e-01,7.584631394888623479e-01
3.203542901506122575e+02,5.517379706217076318e+02,1.882194156062878676e+02,7.028525335559860920e-01,-2.809289797529490595e-01,-6.535114569836542042e-01
5.870981348830498519e+02,5.515208501882384695e+01,1.408579968993668388e+02,2.245285732910494159e-01,-5.457849806963135375e-01,-8.072828962775133732e-01
5.163160456795491200e+02,1.555778979920740994e+02,2.788167554288485235e+02,-4.359815651886586596e-01,-4.736907277308797792e-01,7.652040050061401644e-01
5.997143656159929606e+02,9.519716216558006039e+00,4.156410055204216292e+02,-1.159099596132522614e-01,2.726121225154745087e-01,-9.551164912826404230e-01
5.754593411238080307e+02,2.386502029289299003e+02,5.582865784476518911e+02,-9.768310769299880514e-01,-4.042195294184878357e-02,-2.101597317855321556e-01
1.567516100034312956e+02,7.545170076023863430e+02,3.299732288055193976e+02,-8.776694612583326727e-01,-3.827880951495289397e-01,2.883913850764328601e-01
8.806836179070149910e+02,4.431114003267834391e+02,2.047350864922570111e+02,-6.293931345207356420e-01,-7.307290783026112457e-01,2.643847505836516842e-01
9.074732027347999974e+02,7.825809780445985098e+02,6.252909358558467829e+02,2.270860201523485777e-01,9.527096796165157588e-01,2.019311907961796326e-01
9.977623655688203144e+02,5.255977882178193568e+02,8.159066728378223843e+02,-9.800652115825763122e-01,-4.270384381521733635e-02,1.940323755691442109e-01
5.377705282313024782e+02,6.734706994203309982e+00,8.766858065965739115e+02,9.808827454580181238e-01,1.508200584062573402e-01,1.229729630653586675e-01
9.606566952869964098e+02,9.361424846399025057e+01,6.559851613504319801e+01,2.818483631899897368e-01,-5.857963228382225829e-01,7.598711524438472864e-01
5.822150421393071156e+02,7.289706693761112319e+02,7.842920023496260455e+02,-8.785642843502885491e-01,-3.636944382123593611e-01,3.095983751208358226e-01
3.199150620438545616e+02,2.862477928261851616e+02,2.961767184030752560e+02,7.268750186906723643e-02,-9.279666409450066933e-01,3.655057323288864457e-01
7.923128717707478472e+02,7.191652977533548210e+02,2.459799577394348091e+02,-8.536711018412506125e-01,-5.091099644285524972e-01,1.097847621516905292e-01
2.383089084068227237e+02,9.250335815060395817e+01,6.458833874176423251e+02,-3.608585210833503698e-01,-8.687718801210071451e-01,3.391408970804723477e-01
9.797396209018743320e+02,4.992770109633381139e+02,3.746499792735207279e+02,7.629853688985563931e-01,-1.545029564175873504e-01,6.276799847891909589e-01
8.030000397465008746e+02,9.961414373632698016e+02,1.118242397516078199e+02,3.878846648696344102e-01,-9.196139047728196791e-01,6.209470917444415150e-02
3.605263049964608513e+02,5.637062552864557574e+02,2.385855959425837796e+02,7.291191860132048563e-02,-7.296640216522466416e-01,6.799075434440657872e-01
8.816909193539423768e+02,7.760811373668976785e+02,5.712539770424174321e+02,5.438496998873872945e-01,-8.068781340732600338e-01,2.305974429321646646e-01
6.735666979760319464e+02,8.783201996809448246e+02,8.307025692405677546e+02,5.600434511936457360e-01,2.683878683063389281e-01,-7.837852288229791853e-01
2.848333721183067269e+02,2.718030524966212624e+02,2.000300608431704319e+00,3.925173987490018224e-01,4.486049350703280036e-01,-8.029219787188939250e-01
9.099896216824481598e+02,4.435920386203337102e+02,7.087105079450133189e+02,9.511027595457676176e-01,3.079921583162715804e-01,-2.333176375910262293e-02
2.680075818573204174e+02,7.062632445513161201e+02,6.613461343815696409e+02,-2.623635928437026421e-01,3.111749291504997683e-01,-9.134196782521850633e-01
7.852291483410355966e+01,8.843841167758715756e+02,9.308682962545582313e+02,5.240556693630784579e-01,4.761177786744489882e-01,7.061710247797797768e-01
7.075599478322232017e+02,8.879800899401758443e+02,9.577602929981287616e+01,-1.357811218266843367e-01,7.633604906523450140e-01,6.315411690986567628e-01
7.197957093739196353e+02,7.770191493604176003e+02,2.946648489988694450e+02,-2.278368403983897228e-01,9.497217959438025714e-01,2.147530778977497778e-01
7.176689807770469542e+02,2.692235335017144848e+02,1.730567191821844517e+02,-8.978254336418891590e-01,3.680544933383441686e-01,-2.417547944492695056e-01
9.135696866615249974e+02,2.695670183469542849e+02,3.520434026951568853e+02,-5.698517674726611970e-01,5.923232330840427773e-01,-5.695806796733460242e-01
5.754270571118744328e+02,2.783649786224430045e+02,2.594923085078481222e+02,7.595195094021141013e-01,-4.808102906772380725e-01,4.381227901130477775e-01
1.822889707499848555e+02,1.331096448759031432e+02,6.836076828044971307e+02,-6.494891721598062828e-01,-5.010011724739505956e-01,-5.719804545846793875e-01
8.177571936931244636e+02,3.161071322581980780e+02,6.696167646858762055e+02,-2.450365816384302287e-01,6.681351914496220790e-01,-7.025328743948782151e-01
5.575439140774725502e+02,6.501629863156845204e+02,8.999510303269720168e+01,-6.106651434797988331e-01,3.581917425798634702e-01,-7.062483685548572865e-01
1.678211636235943445e+02,3.889791392243083692e+02,4.979459538874261284e+02,4.635447918711701476e-01,1.675323488385009052e-01,8.700914538264172826e-01
2.903001387754091525e+02,7.990074981966317864e+02,4.598573679992362599e+02,8.206352237465645849e-02,9.773207175503811905e-01,1.952172977537401100e-01
1.486848661132303846e+02,5.596864990017729724e+02,4.943289305440130761e+02,-7.333557634693663729e-01,8.577755749205333291e-02,6.744119918988394913e-01
4.184642639114248936e+02,4.967660612133349787e+02,5.773225313243290202e+02,-6.707241900240508148e-01,-3.760110703094599049e-01,6.393314757786570102e-01
1.605868285092427641e+02,7.021113049141089277e+02,8.832328216518346835e+02,-6.077605443947462494e-01,1.309913696403209871e-01,-7.832422241916956462e-01
5.635091674751707842e+02,5.452535141070302416e+02,6.347554987814285710e+01,-5.630562273763113357e-01,-8.233973974245017979e-01,7.060035925767495224e-02
9.563647276468465179e+02,1.961507919433427389e+02,6.739259935579419789e+02,6.931524066446134169e-01,5.620071894399693013e-01,-4.513176931836009320e-01
3.341518335180747385e+02,4.647318772310227359e+02,2.343564434014873257e+02,3.131475845560270921e-01,-8.336105304682969175e-01,4.550077733172155359e-01
6.553896564824752886e+02,9.498289143624183453e+02,7.556332805791520286e+02,6.372690557045878057e-01,8.246426849716560759e-02,-7.662165458032150767e-01
7.165293765913929747e+02,5.725575976952812880e+02,3.676460576696370026e+02,8.057312563222649437e-01,-1.017915589150683864e-01,-5.834686119398238002e-01
2.362277519370999812e+02,3.088994705101166574e+02,9.095033534823052150e+02,-8.721258425380844226e-02,9.001600943957245304e-01,4.267385260381966194e-01
8.804841780935201712e+01,6.836374647810501983e+02,3.980117152162973184e+02,-2.472735203838569429e-01,9.680310351970827787e-01,-4.209181645211823586e-02
4.651268226775162873e+01,2.811256463638582659e+02,5.905958617588780726e+02,-6.540410357255049822e-01,-4.853045710143044089e-01,5.802670048690782290e-01
5.000123984687891721e+02,9.891402961407734438e+02,1.353050810521894221e+01,9.925358023575058253e-01,2.985847629788315402e-02,-1.182419233254889956e-01
8.285756552303600984e+02,2.061781637342315889e+02,3.522162738319507298e+02,2.986826676682580173e-01,-7.876781226299039984e-01,-5.388430561534618413e-01
7.766136339820839112e+02,9.812101687911365389e+02,6.733777301945411864e+02,4.745702250969158903e-02,-7.718774662785938823e-01,-6.339976404260925236e-01
7.627724637207800242e+02,8.278152309219722156e+02,5.592097161118269923e+02,9.214261015812535982e-01,-3.882808185450967731e-01,-1.455834038354431037e-02
9.566894378510660601e+00,2.519514231454401738e+02,5.056764632586181278e+02,-6.881847036386530281e-01,7.210185789065959305e-01,8.083330099217955755e-02
4.924679855471190422e+02,8.112908917040033430e+02,6.123589424601151450e+02,4.358296263821899164e-01,8.812734586287814809e-01,-1.827830076457501729e-01
1.656396764792318379e+02,2.205755135154441291e+02,2.114673443568528910e+02,-3.503630091970357241e-01,3.978737477120417032e-01,-8.479046188504769654e-01
8.875887921433807151e+02,7.802596099564190126e+02,1.090649568473457407e+02,5.506396284013475029e-01,4.531944379346901641e-01,7.010069907348186469e-01
5.728242979210983776e+02,8.680838426747961023e+01,9.053280360773667326e+02,3.683725848235884226e-01,-5.505464035454961103e-01,7.491330297707531338e-01
2.229514123754535717e+02,9.971116548587962143e+02,8.173383654795039774e+02,-2.809988130410779328e-01,2.871466209278814574e-01,-9.157436787437873704e-01
9.933702889624809131e+02,6.562008343421061909e+02,2.206681220871736855e+02,-3.582079855522565248e-01,-8.562097199142570947e-01,3.722794039574897074e-01
7.347408193015216966e+02,1.678160059840834037e+02,2.985894612765459328e+02,4.584155773885709717e-01,-8.798402962200821964e-01,1.254440574712938627e-01
1.016652936534888596e+02,3.818688895906489051e+02,9.123534692527589414e+02,6.823023528887194322e-01,5.523118696974210762e-01,-4.789729614851514494e-01
3.516705558700567735e+02,3.762694526852261845e+01,5.830339212304450029e+02,-9.097793139567322829e-01,2.306473254663066463e-01,3.451136206405902573e-01
4.893092906042646746e+02,1.422875021973244429e+02,1.424958469845456364e+02,-8.795950799432901146e-01,-4.566659829499655765e-01,-1.332991948809101324e-01
7.336422859505056522e+02,7.706423149742647638e+01,8.409081581252351043e+02,-4.621752059926664824e-01,1.954934592415789596e-01,-8.649718991732606721e-01
2.631801036365445157e+02,1.279531718927953108e+02,7.622387720608015798e+02,-2.359979658287707505e-01,4.576956119600808504e-01,8.572162427982623623e-01
1.824854764117130799e+02,9.632355226640738692e+02,5.766346346502746201e+02,-2.486801991197417905e-01,6.476923225178095045e-01,7.201755438205683646e-01
6.194901252611663267e+02,8.597630666919951636e+02,4.926404407929156832e+02,5.034622997569685454e-01,-2.235984226188870716e-01,-8.345834039362212131e-01
3.655188231357733457e+02,3.307289110251446687e+02,9.379340787446329841e+02,-6.366075837063769338e-01,-7.294690399687818738e-01,-2.502113188777677077e-01
3.673976453048744162e+01,3.146309781487782971e+02,2.312357219414730025e+02,-5.078030600359074720e-01,-1.690143870765983825e-01,8.447308383025271539e-01
7.552482494733968679e+02,6.840838213346168004e+02,6.621741034351711050e+02,2.901704840793734030e-01,-2.916268591603204396e-01,9.114575498537651477e-01
2.055098610936520913e+02,5.679645458145579369e+02,6.630438231677196654e+02,9.365637524334120556e-01,3.461812472216633241e-01,5.483504080330448005e-02
9.677274091080608969e+02,6.955115754051090562e+02,3.697397795415152473e+02,-8.903505525041791047e-02,9.350137001136795689e-01,3.432522972046669896e-01
5.280671392556082537e+02,2.897691258518927384e+02,4.816518956541636385e+02,-3.442415307506377364e-01,-4.848702427649674851e-01,8.039891890986465839e-01
1.025865252271354109e+02,4.796580857927076522e+02,4.043418903894574328e+02,-2.245218015769277764e-01,9.291510973044919686e-01,2.937144855033697599e-01
2.390461643457704213e+02,6.966542004402303974e+02,7.136880913205014849e+02,-6.028803324833498234e-01,5.587430617805577704e-01,5.695098731513384971e-01
6.973465395889892307e+02,7.132598975767364209e+02,8.219886443150707009e+02,-8.531063411025616716e-01,4.535675556790010887e-01,2.578488766816251498e-01
5.954556632890023593e+02,5.637635695018256001e+02,6.008080215491191893e+02,-8.800846725495008460e-01,-3.161129464348914064e-01,-3.542930626468565602e-01
6.498594262094918577e+02,7.167347369091613984e+01,8.750771337997443879e+02,-2.239256622472140801e-01,7.921784170243776346e-01,-5.677240997068011552e-01
3.242552241270888658e+02,3.938781377701505448e+02,6.141215405816436146e+01,-5.802136602211064309e-01,7.672989147485732575e-01,-2.731382139476061788e-01
8.887000495302621630e+02,9.630520868624080322e+02,3.281992476146342597e+02,-6.182418812068554148e-01,-6.843144348774456986e-01,3.866403115819286307e-01
3.587433527982574333e+02,8.533495985139065851e+02,9.621724971568286264e+02,-4.938593241507074211e-02,2.816310979055750008e-01,9.582509871489799380e-01
7.250098843173551586e+02,8.948659340129544262e+02,7.113111101046645217e+02,6.367040266995435127e-01,-5.727817042588674301e-01,5.162645655581007409e-01
7.321355547652481164e+02,4.152914915545824215e+02,5.811384601640893379e+02,-3.936759692647253672e-01,-3.627669474719307230e-01,8.446415648340876992e-01
7.447417757596947467e+02,1.595753094570423514e+02,8.816595339350155882e+02,-9.863691712213629170e-01,-1.636626536265264331e-01,-1.704094692220503929e-02
8.953185689241915952e+02,8.880133489969916809e+02,5.265184326319505281e+00,6.107716380594474526e-01,-4.304118027142986302e-01,6.646079191722040758e-01
6.561738180513871157e+02,7.677856839334472170e+02,6.854399747525683324e+02,-8.923811260492581221e-01,-4.438130882474333183e-01,-8.176716071464151803e-02
8.123371097183338634e+02,7.970323611449747432e+02,8.077078189919842544e+02,-6.537065927732994552e-01,3.727819174707438510e-01,6.585600447731088103e-01
7.552455161468585629e+02,7.697655693416834310e+02,9.586046229255358639e+02,-2.863541750592435431e-01,-1.233499757229891691e-01,9.501505511840100393e-01
1.920115991267738025e+02,5.916275659530674602e+02,6.068314566255671707e+02,6.547172766957767287e-01,-7.468712837604732924e-01,-1.163123943956463346e-01
4.927297109245765228e+02,4.181256356700572496e+02,6.222518338635219237e+01,8.023670492748027350e-01,5.293354632407115679e-01,-2.757010801462114191e-01
6.900150292649250332e+02,9.327883504441356308e+02,9.664972006802195210e+02,-2.277629513743505418e-01,8.174235570980301624e-01,5.290961786692933710e-01
1.797526534300539822e+02,3.855906126279495538e+01,7.326935744791824163e+02,9.575791521486594071e-01,2.591247499866149995e-01,1.260814471467901488e-01
5.693323874837271887e+02,5.851566729626539427e+02,7.899066418664441471e+02,5.502373218357879958e-01,2.208623496757432247e-01,8.052693413726175198e-01
9.755419778874961594e+02,7.637200317833946883e+02,7.409129605489006565e-01,8.740252571729923980e-01,1.215500802346488468e-01,4.704311084724679404e-01
7.020168753413565810e+02,3.710774066218568237e+02,7.311908242003646592e+02,4.912757604095145947e-01,5.255162060407795321e-01,6.946084108492771581e-01
3.719214565139027400e+02,4.038836375511739334e+02,2.764042198603703469e+02,-3.753852028870937607e-01,7.750355362615652943e-01,5.083363718888935789e-01
9.437253593421435482e+01,8.993685313928760934e+02,6.777083245811377310e+01,9.180148105998543473e-01,-1.632038167543669316e-01,3.614046509331620971e-01
3.800058034524792561e+02,3.794019439968851088e+02,8.463558757976710467e+02,-9.526389341775143293e-01,3.024736742704107195e-01,-3.144419600637204937e-02
8.414055336997581662e+02,8.791707628014416969e+02,9.783920303270876673e+01,8.245908421843136660e-01,2.948601449204969471e-01,-4.828120109558460271e-01
7.707683274257635730e+02,4.443251773727786826e+02,2.901207376923212564e+02,7.259957733183886042e-01,-6.245028151101978953e-01,2.879693925459319015e-01
1.963720400235009436e+02,7.127926295339706257e+02,1.039011082552873120e+02,-1.947239688879617570e-01,-4.192395806475128217e-01,-8.867472864119843035e-01
7.578694442446710582e+02,9.921992236899375257e+02,2.266076965540623291e+02,2.275223967015629623e-01,-7.786454741936149615e-01,5.847604505410547437e-01
3.142559902953880737e+02,1.329250551372107623e+02,7.967015799841431090e+02,-8.517722708686847888e-01,5.062398550707245537e-01,1.349266753358124848e-01
4.757236273103694089e+02,9.236118647021983179e+02,4.166844860606618681e+02,5.101560706594870931e-01,-7.481762991680932506e-01,-4.242322582411766629e-01
9.155840224499851274e+02,8.634118432842225275e+02,6.388191881681066207e+02,4.777405318567325976e-01,7.255287576478801626e-01,4.953503871474915776e-01
7.214027529342648677e+02,1.221968129227049076e+02,5.030650485510997783e+02,-3.436658264485465408e-01,-6.997485002802333875e-01,6.262953265728570251e-01
7.106653966661972390e+02,9.344395986794814917e+02,8.947762383513413624e+02,-8.835049949937293090e-02,8.703352335906074932e-01,4.844695763502533392e-01
7.935259441176923474e+02,1.039401321101152149e+02,9.729965782271727903e+02,6.022280645862819748e-01,-6.854527767806847249e-01,4.092381324220772942e-01
5.390805363474414662e+02,2.236025525659370885e+02,8.353208198514046217e+02,-4.953963803624949168e-03,-1.923053896701261700e-01,-9.813226255143887578e-01
2.671832110849925357e+02,6.238155064284148921e+02,7.147796349456051530e+02,-8.565947119878167815e-01,3.827147221576299718e-01,-3.460851641407318713e-01
9.663605983898592910e+01,9.159840311163389970e+02,3.458934084716969437e+02,-9.479881143680300992e-01,-2.896762795024606651e-01,1.319325134701798685e-01
6.803322230708741358e+01,5.748895927250808882e+02,3.390525769517403774e+02,-3.265042891400932734e-01,9.051532934738052427e-01,-2.721993102244122942e-01
2.344079295338483746e+02,2.943061996904192483e+02,2.854945905449527572e+02,-1.136886671899722950e-01,1.186252755853407920e-01,-9.864091093176652336e-01
5.907563171285277122e+02,1.242592436254510488e+02,4.045826515221877457e+02,-7.883676942625059691e-01,-5.945949715860355811e-01,1.579024965218143173e-01
3.620231653755401453e+02,4.395684484649432306e+02,4.066778988915664428e+01,-7.180717231912444598e-01,-6.657484617218145662e-01,-2.028595229911436260e-01
6.406471570721030275e+02,4.761678341063901598e+01,9.961213485585053604e+02,-6.253211100437142678e-01,3.517627678865072327e-01,-6.965891647610664705e-01
5.772168940956345295e+02,5.595610234476151845e+02,3.521143242597727294e+02,2.560503901810577600e-03,-3.204589945934169792e-01,9.472589279621201896e-01
4.554101953612978946e+02,5.994060886344550454e+02,4.134532757557782929e+02,-9.084239481466633848e-01,-1.466348164862057157e-01,-3.914896691199974410e-01
2.141017239354513606e+02,5.107874183129075050e+02,1.385207449651881717e+01,9.938253381254177343e-01,-2.060524247481877388e-02,-1.090257826500373728e-01
1.179558522624389809e+02,3.486772627926127939e+02,6.771668179324906305e+02,9.571201337453376645e-01,2.713169496345285148e-01,1.015291210457454213e-01
8.373326615041132470e+01,5.159696620414998733e+02,4.545446629966219803e+02,2.269848610537517630e-01,5.729966421055706499e-02,-9.722112020203050875e-01
4.067747992226844644e+01,1.757390673441618958e+02,5.755361511110012316e+02,9.908595882572878155e-01,-1.266314086035214559e-01,-4.649476006698094466e-02
8.674156321007591259e+02,5.785197821401383180e+02,8.764755457125712610e+02,3.725537900779533618e-01,2.676603993809473780e-01,-8.885727792937301306e-01
6.422528041164393926e+02,8.476644814375840724e+02,9.961261910990339175e+02,-3.729429031763468183e-01,9.181140183111174968e-01,-1.340904185652767311e-01
2.280250963110069904e+02,2.260985847335474830e+02,4.336436086651988830e+02,-4.943558152933832384e-01,-7.870152524023493745e-01,3.690790164337180990e-01
2.168146880705238289e+02,7.287063787328216904e+02,7.952538274190902712e+02,-9.693340407278687731e-01,2.123869036008619315e-01,1.236257281678074804e-01
4.645285104373797225e+01,4.638321477729105027e+02,6.543020802252184467e+02,-6.618003565320214054e-01,4.811463473559319803e-01,-5.749073669036901535e-01
9.549039566521959159e+02,8.774451285810318950e+02,8.740496481285144910e+02,1.709252256004727133e-02,-1.151497501872270485e-01,9.932010776798188001e-01
7.899831709021062807e+02,7.105474351529599062e+02,7.041481300073186276e+02,-9.760744950388906549e-01,2.074143511687591424e-01,6.525233378061900957e-02
6.915772071461484529e+02,2.358181952782821895e+02,7.538082082950969607e+02,1.938047239246303843e-01,-4.471034810492035549e-01,8.732343363715047158e-01
3.419792015163702672e+02,7.335181339053596048e+02,9.783732891856411698e+02,-8.772161845110452161e-01,1.164620098587982183e-01,4.657556933538580246e-01
3.776991400644554915e+02,6.416906324889650932e+02,1.504470185431316942e+00,-2.133250422899709564e-01,7.370557776449438991e-01,-6.412809111241259963e-01
8.266158515440902477e+01,5.213701242953557085e+02,9.811519881460985744e+02,-4.426888917311842808e-02,9.791040504085136709e-01,-1.984830570225604440e-01
1.218820271760754395e+02,4.672231264311034238e+02,7.352057434325322447e+02,3.859652259998689883e-01,5.218603534131551619e-02,9.210360807450623799e-01
9.391460199366686084e+02,9.858178203627182938e+02,9.378316350189040804e+02,5.061253665777691868e-01,-4.404759240371969864e-01,-7.414971838450207242e-01
3.728696711111940658e+02,5.832188810001391630e+02,1.342494099797254421e+02,-3.296456957924243647e-01,7.919046218987124686e-01,-5.140241094160717950e-01
8.076907953019956494e+02,2.633974728261202358e+02,4.106010091955299117e+02,-3.310864240949737969e-01,9.244430085520586315e-01,-1.891742681212793820e-01
9.243092687336907431e+01,1.234950160855290449e+02,2.764364013653791972e+02,2.644103412738310066e-01,3.415260394355991158e-01,-9.019130422689816129e-01
5.651177548774399639e+01,7.924617615840707003e+02,7.395108395938099477e+01,8.070041881682981089e-01,1.432068683439782220e-01,5.729188713403814415e-01
2.975833866405353092e+02,5.646064903683536613e+02,5.620612439865807346e+02,-4.109537652150330178e-01,-4.804154174837872437e-01,7.748019292047909623e-01
5.786291495500711335e+02,4.141050478663600529e+02,5.898150880978023451e+02,-9.254093545055123160e-01,3.286271129468216756e-01,-1.887372438866479207e-01
4.923445105353262647e+02,5.910339095487293548e+01,9.767897079155617348e+02,-5.103616535923706232e-01,4.848092502512282298e-01,7.102752800240925701e-01
9.328743266395966884e+02,3.979653417007748999e+02,9.447726993676626535e+02,-9.073760350913184086e-03,-3.437224454015517794e-01,-9.390274476288067440e-01
1.938351126287348620e+02,1.628667752924607441e+02,5.910782856513744719e+02,-8.550616378145695640e-01,-5.169331574476582203e-01,-4.061657628432535638e-02
9.975477345448952065e+02,5.610758906192658060e+02,5.620978129601833189e+02,-1.379026399973146133e-02,9.439547788222742986e-01,-3.297866039690042772e-01
2.271753544960719466e+02,7.087600758773827181e+01,4.250512332840772274e+02,-1.036651008500065196e-01,-6.079667166980280424e-01,-7.871658136969478248e-01
4.903616586995181024e+02,1.955832822498735482e+02,6.808265089096737483e+02,1.386175728092975956e-01,7.368862943957213973e-01,6.616522936106254971e-01
8.362061383099220393e+02,8.527391992878654037e+02,3.717405627965634380e+02,9.578376239407041526e-01,1.000394422490905044e-01,-2.693310159601323139e-01
6.248547836660323185e+01,4.724530868586218446e+01,8.049524347066619612e+02,7.681073537905984683e-01,6.214171381301623054e-01,-1.544403881467641959e-01
6.801945327171765712e+02,4.272341424296665195e+02,9.680828996318125235e+01,9.380453205508126890e-01,2.709673825365883637e-01,-2.159806801405930177e-01
1.602303316917589200e+02,5.100442364129952466e+02,1.415270310565474006e+02,-6.613509799673681355e-01,4.202973663405486504e-01,-6.212608189346890963e-01
5.623275258632893383e+02,4.552318196750434254e+02,9.420966577475506938e+02,7.497620860099257767e-01,5.676827844041480997e-01,3.399898096608167108e-01
8.831546554020263784e+02,3.252179510789290475e+02,9.106338892935747253e+02,2.963718629202778398e-01,9.541640372641198020e-01,-4.164983626617924095e-02
9.045828875237260718e+02,5.257574641792631382e+02,5.454564729055314274e+02,8.024309354566715458e-01,2.408064418221699809e-01,-5.460007796689276827e-01
2.151256928116439440e+02,8.733934154093560664e+02,9.883286097862080624e+02,-2.476177833027504993e-01,9.212963325191764197e-02,-9.644675028579756670e-01
1.838640641874468429e+02,5.852742458204656941e+02,3.329676963646210908e+01,-3.791852912809899334e-01,-4.851236056400470842e-01,7.879553300327062360e-01
5.513749856881906908e+02,1.289743211440312791e+02,1.188208401421885156e+02,7.155770834364198751e-02,-8.803466500180406884e-01,-4.689021968157323084e-01
2.321224272530563155e+02,2.190520522215541064e+02,5.185060815998276667e+02,-4.553813618732792112e-01,-5.853313802215359685e-01,6.708315664802821932e-01
2.105219377909702700e+02,3.883527127176891440e+02,1.763747449849493023e+02,2.025101517398889273e-01,5.077367757395764292e-01,8.373726798766880641e-01
9.569156335362365553e+02,4.777180452458304103e+02,8.142192933706808162e+02,3.841658696780961280e-01,-9.120344050650174283e-01,-1.435612362449279200e-01
9.596036477349871348e+02,3.366000066454338935e+02,7.665944044640567654e+02,2.003041869529086083e-01,-4.988305750985778109e-01,8.432356076660640909e-01
9.482982387817929748e+02,2.906829027070243683e+02,4.401465594582736571e+02,4.416511677431669280e-01,-4.291636932612263311e-01,-7.878849982183194767e-01
9.052448802492973527e+02,2.038575715953396923e+02,3.496058152639733976e+02,8.176833839189375785e-01,-4.315834919618068422e-01,3.809587551545817186e-01
3.400935179887543995e+02,4.004345990809654410e+01,3.317507174847859233e+02,-1.226988432650769206e-01,-9.912980447694251795e-01,-4.767788059181100185e-02
6.309041039328278089e+00,7.673446224590429665e+01,2.817905463438688116e+02,-9.723514184381260028e-01,-2.223912912980443302e-01,7.123785942989036002e-02
9.848127592862254005e+02,4.684537564681210142e+02,8.881711480327409163e+02,5.609293694887574899e-01,4.293081190968793814e-01,7.078508185503811223e-01
3.369489293171689042e+02,7.819485950343506602e+02,8.587173362075939167e+02,2.836305476276827497e-01,8.533148436362504308e-01,-4.375014172348044572e-01
5.641393330402387392e+02,1.545755583498639112e+02,7.421725312554781340e+02,-7.597951307798166409e-01,-5.868689252915948451e-01,-2.798146239394397328e-01
7.593298235379095331e+02,4.269701211546653781e+02,4.232000582420561727e+02,-5.142955037638776566e-02,-9.145039886133513596e-01,-4.012947248075336426e-01
4.431012387881993959e+02,9.869846488981604580e+02,7.994877367102834569e+02,9.811249105476173293e-02,9.207852163409020463e-01,-3.775295014526249826e-01
8.409983347570871501e+02,5.907402174593479316e+01,4.530720120071640622e+02,-8.788574545028124962e-01,4.545514033958049649e-01,-1.448882201413946025e-01
9.398018101694868847e+02,3.303214160955078000e+02,9.489681421433714377e+02,-8.216952405346626964e-01,-2.579102366525435341e-01,-5.082314841806947481e-01
8.806216959925201309e+02,7.816986897799816916e+02,9.657612589875491267e+02,8.242373801000317801e-01,-5.569293253367801899e-01,1.022862054519315805e-01
6.776200720841413840e+02,2.883134649731277364e+02,1.060166129944062305e+02,-3.183421494403790991e-03,-9.254237752646825577e-01,3.789204428405142377e-01
6.652373633942178230e+02,4.040609819585677656e+02,8.660875195869820118e+02,7.878758529577546410e-01,-6.124151109252495839e-01,6.480256350257196374e-02
5.229018779976280484e+02,7.196571309622738681e+02,8.867460123730111263e+02,-7.158911307557809245e-01,3.379444765581918753e-01,-6.109774297541761268e-01
4.890665651791290429e+02,9.602674925938463275e+02,1.357691180578697185e+02,-7.947533693788855214e-01,-4.556937740136072224e-01,4.008868496049033947e-01
5.377006123447915797e+02,9.798927970615768572e+02,4.396527816134019417e+02,3.786983711570557909e-01,-2.135574264030332403e-01,9.005447070029926060e-01
4.105219060232264496e+02,1.994706530866552185e+01,4.484941130033685113e+02,-4.107754205088200439e-01,6.854532737358411953e-01,-6.011799759062339543e-01
4.673819807255150636e+02,4.030428154695641183e+02,2.015306927642801611e+02,-2.547327377963005679e-01,-7.540169903947017138e-01,6.054499240159483264e-01
3.532884565943895723e+02,5.452467443953122483e+02,8.897525417359518087e+02,2.394648131734315455e-01,8.544588069198231217e-01,4.610387733466308480e-01
7.953080630390436454e+02,7.990909604018333994e+02,3.168026539627374518e+02,-5.611874628382592656e-01,-7.962640563382843428e-01,2.259030414511038476e-01
9.186752903843783997e+02,3.681357735171471859e+02,6.883767236348785445e+02,-2.345617398965481881e-01,-4.594406612749880048e-01,8.566767587275294638e-01
2.287864539478861161e+02,9.952902913150422819e+02,8.893198435637796138e+02,-9.599273031569687253e-01,-2.339555402112283855e-01,1.542866742731252572e-01
2.391211579400824974e+02,5.254695727323251049e+02,1.306342041145429675e+02,-7.356109858533967927e-01,5.307573962800195000e-01,-4.209193079271227322e-01
1.390864605494791419e+02,1.005750744726470174e+02,4.481095903734141075e+02,9.837823138378246068e-02,8.478606801014982874e-01,5.210124669598837910e-01
2.524077355612056692e+02,8.380122692037883780e+01,5.130006140297886077e+02,-1.626214655340475074e-02,-6.035686199687641945e-02,-9.980443836820913628e-01
9.733195963038493801e+02,6.631646068687582556e+02,4.942167259302378852e+02,-5.102344732370709401e-01,-1.116802556116564954e-01,-8.527533657670334222e-01
1.036743620639056758e+02,6.494615057501819138e+02,3.154978825073803250e+02,9.136976541821979492e-01,2.877259635989012354e-01,2.870023808490660411e-01
4.371238648457361933e+02,9.303323300063633496e+02,5.796142988403586287e+02,-4.133267975689298157e-01,1.261294311554657932e-01,-9.018050371381896024e-01
7.328244469214484980e+02,3.473526679306684173e+02,2.011776397061526609e+02,3.008177246038263863e-01,-6.629435506688655666e-01,6.855760681286460212e-01
4.036227912413542640e+02,6.059981017907001188e+01,1.788847173767311745e+02,-8.066635955014556103e-01,-3.558975135688322577e-01,4.718376876937522280e-01
1.860099892913912356e+02,7.647839601930788831e+02,7.088626571143097976e+01,6.947562492443352111e-01,-6.700731760201427134e-01,-2.613727088167819290e-01
1.262371128803381168e+02,2.545555078427233013e+02,4.219063525189753250e+02,-5.290490272553475259e-01,7.815810393576982928e-01,3.305120356003856674e-01
3.733851057664603559e+02,5.710246261646967696e+02,9.907513493930347295e+02,-6.080825741617214009e-01,7.146664097266607341e-01,-3.456696483772612738e-01
2.989356914102730798e+02,3.497007210488695250e+02,9.947077354793283348e+02,4.647453990599653695e-01,-8.605376046052087835e-01,2.085347575655509544e-01
1.943740012337618168e+02,5.901664445660854881e+02,7.666251865451571348e+02,3.429727091135338357e-01,4.022129115380765341e-01,8.488783744420556054e-01
