x,y,z,nx,ny,nz
2.950525465667713434e+03,2.931872428509860242e+02,8.224454231311989361e+01,8.191384327315429439e-04,-6.874119301538766935e-01,7.262672836458694547e-01
1.679190211533310048e+03,1.428418900628305437e+03,1.575162216324932842e+03,-5.376755098405507161e-06,-9.871400210555948407e-01,-1.598579957382496031e-01
2.640115026010938436e+03,8.226933809439160541e+02,8.100163477575090383e+02,5.977132748574960353e-01,7.999037579807984910e-01,5.378493308839948916e-02
2.191141863633814864e+03,2.897379870756339187e+03,2.308066642005418544e+03,4.543079500492080425e-01,-4.458996667069476394e-01,7.712183696935124289e-01
2.490215569372142909e+03,1.039408972260785902e+02,1.411555638841497966e+03,-1.385272238970347092e-03,7.214522830691502131e-01,6.924627674287874290e-01
1.591067036258687722e+03,1.673585363327525101e+03,1.416797802005968606e+03,-1.108433140359352210e-03,-7.379007595854888413e-01,6.749083199806711342e-01
9.462457209704524530e+02,2.674186647297190575e+03,6.156209298197718454e+02,-2.055356743473233105e-01,-6.915261560493688453e-01,6.924930772723832950e-01
2.371958728359759789e+03,1.821560542998240635e+03,2.032334074170754548e+03,7.328057493898411101e-01,3.961069800584426925e-01,5.532585236669870232e-01
1.502642693118298212e+03,1.370395574940132974e+03,1.450709589764350767e+03,1.955793981665671089e-02,1.895598424162733275e-01,9.816743620637373713e-01
7.767157153135333374e+02,1.259248392868162910e+03,1.903521234422945099e+03,-4.327970412919095178e-02,-8.248223548123064797e-01,-5.637330487139914359e-01
1.538922348297899816e+03,1.548538920296335391e+03,1.535325305863247195e+03,-1.388748562399624298e-01,-2.065430483155976660e-01,-9.685317462514229092e-01
1.564104835470053558e+03,1.250288242464037239e+03,1.057399067231631449e+02,-4.633272594218249690e-02,2.842107742626847067e-01,9.576416418993963786e-01
1.606226346757776355e+03,1.686487595532712476e+03,1.527275550164921924e+03,-3.299758614749106946e-03,6.387393619601973160e-01,-7.694161026881127796e-01
5.484834144491369443e+02,2.364094839111049168e+03,7.233207484705350225e+02,-8.503159155323779250e-02,7.020441169623715671e-01,-7.070386738195070242e-01
1.242333428347694507e+03,2.037203631266718048e+03,1.122271831802615054e+02,9.788754452769559133e-01,-1.997859600199463903e-01,-4.345610213479488698e-02
8.424202465287531822e+02,2.052468697148863157e+03,1.182451737303443906e+03,-5.888084864463785303e-03,8.263389190568745102e-01,5.631423632693115522e-01
4.559098382389713606e+02,2.324045190219935648e+03,7.614267785594121278e+02,-1.605144073386450543e-01,6.522189351892652143e-01,-7.408411338588758444e-01
2.858664446373652481e+03,1.346073246071422545e+03,6.335915794617151278e+02,-1.348559908840109289e-01,4.493366728713226732e-01,-8.831253683003458255e-01
1.514416485476137723e+03,2.780168806461218082e+03,1.164392889181712007e+03,-6.404285943344606219e-04,7.374332227596975819e-01,6.754197449153095389e-01
3.945531736846360786e+02,2.121551669243683136e+03,2.396037494197728847e+03,-5.192405644724686770e-02,4.850375512297181758e-03,-9.986392572993778582e-01
2.148692242270727093e+03,2.335953376169689363e+03,8.233047849200351038e+02,1.595320548988663489e-01,-2.250744251759306813e-01,-9.611925023591629813e-01
2.890917268332545063e+03,1.695498943802180975e+03,6.485431578361466620e+01,5.283311147832230326e-01,-3.065300662797588727e-01,-7.917736744919241509e-01
1.639473528197734140e+03,1.661876888600325628e+03,1.414284926091457464e+03,-2.421226523236632905e-04,4.974256972536497123e-01,8.675065516111919450e-01
4.235021506663682089e+02,2.300974355502456547e+03,7.084766446268143909e+02,-1.527786277755792689e-05,-5.925606616792236103e-01,8.055258295032305949e-01
1.487120895227888695e+03,1.362381312031933476e+03,1.442993774273292956e+03,3.090706267792149055e-03,8.106099111951377001e-01,-5.855783631649800203e-01
1.424814524539593322e+03,1.484557447785046406e+03,1.506178129411680857e+03,-2.868128243713695680e-01,6.246503294233046732e-01,7.263266274393875843e-01
4.389129644598232289e+02,1.100134990154003134e+01,4.126461173254843118e+01,3.147654516673578651e-02,-4.903272397176479669e-01,-8.709698187051252427e-01
2.743599666437814903e+03,3.993396122421110022e+02,1.577746144712164323e+03,-4.376808796447295528e-03,-3.051567848346137812e-01,9.522920666550576119e-01
2.091290490253871212e+03,1.492514821805960537e+03,2.488027760286574448e+03,-5.581891402017439587e-03,-5.826607708685568321e-01,8.126962954137513240e-01
1.503165301175462901e+03,2.822644635849768292e+03,1.245569628224410053e+03,-5.075895925271418051e-03,-1.013156934658555330e-01,9.948413770737970507e-01
1.590609133299799169e+03,1.577585622529282091e+03,1.323505807541524746e+03,4.161898449571612701e-01,-9.038956459470695037e-01,9.878600200668027909e-02
1.506082081151643024e+03,1.649042703428367076e+03,1.485906723559320426e+03,-3.044787198016792318e-01,5.062398038726289018e-01,-8.068543673817059059e-01
1.498947004787004289e+03,1.377888729796596863e+03,1.415103954525943209e+03,5.604245138364656424e-03,3.549771820271080403e-01,9.348581671443655372e-01
1.460575961488793610e+03,2.592796058449323027e+03,1.503382658176089990e+03,1.822961820177339612e-02,-9.973728410665184674e-01,-7.010775223268009282e-02
2.100558339724546840e+03,1.307260767751558603e+02,7.755650343189096247e+02,-2.358054691087204877e-02,9.997189155440698860e-01,2.459209379684098359e-03
2.821584839471551277e+03,2.874552846472823148e+03,2.741169261988206927e+03,-1.651477506160428932e-01,8.220716136795684637e-02,9.828368140674645925e-01
2.254810333692569657e+03,4.899265965219570376e+02,9.783536685999656584e+02,-7.934401528869714504e-01,5.592229653543225876e-01,-2.402548621922512562e-01
1.520255768281640030e+03,1.521281740388690196e+03,1.600145160202978332e+03,1.008963195515137909e-06,-5.348153605948032796e-01,-8.449689521342381715e-01
4.525728000393876869e+02,1.679242465888603874e+03,2.663823645990666137e+03,-1.059436541562003981e-02,-9.087848878690233390e-01,-4.171304196559237898e-01
4.695509339046495256e+02,1.780676946400157249e+03,1.302413004661217428e+03,-5.882369070868945782e-01,-8.059149149904832887e-01,6.692152820076824327e-02
1.640983610037244262e+03,1.461460326748099988e+03,1.655794688545501003e+03,-2.504757111550830195e-02,9.007892937502538500e-01,4.335334675041045416e-01
2.053113150595685511e+03,1.877340853903301650e+03,1.031611654326284679e+03,3.083708356280929347e-03,-4.231757971067331425e-01,-9.060423475124408377e-01
6.442189206192618940e+02,1.749844946392233851e+03,5.379681818424348876e+02,-1.180802492070255963e-02,-9.384420521651098968e-01,3.452348262785913668e-01
2.828929484974018123e+03,2.956580348228550292e+02,1.911750573714841721e+03,7.310798336661260798e-04,6.821289777073487048e-01,-7.312315114204284150e-01
2.882962461373178030e+03,2.727232456840047234e+03,1.653689879625901312e+03,8.805655983171241374e-02,-6.572619400779464716e-01,7.485003569775888765e-01
3.947141197073696617e+02,1.592711555458924067e+03,2.695251848290603448e+03,-4.347387753813360123e-02,5.624370047743985079e-01,-8.256964561097512867e-01
1.446313212804237992e+03,1.526469456268928752e+03,1.600530829456898573e+03,7.940069144505854659e-01,-6.076780585301408966e-01,-1.674505854571468194e-02
8.334942331254299006e+02,9.593198690843031500e+02,1.172995116317782731e+03,9.925158043857635892e-01,-1.215631353660347191e-01,-1.160957210494317944e-02
4.499507440934650617e+02,1.703764117581430355e+03,2.693492990563428066e+03,-3.997184518760123484e-01,-9.039998467830617779e-01,-1.516886160726795274e-01
2.979516569171872561e+03,1.575264705805413996e+02,9.029706529296690860e+02,-7.781013194351218409e-01,-5.733968737570950269e-01,2.564651279587784050e-01
3.746606656145460761e+02,6.410392694883071272e+02,1.554307496253289628e+03,5.544887782920211450e-01,4.568360166950136136e-02,8.309363412962056383e-01
6.098121136649722303e+02,2.122379474169850255e+03,2.812007266369366334e+03,-3.424239919333153803e-02,7.641917826840872729e-01,-6.440794806354269708e-01
2.975545077642241722e+03,2.688657869146261419e+03,2.776913656415557853e+03,-5.914467501256166077e-02,-7.942511506350399819e-02,9.950846991662607444e-01
2.543365387687885686e+03,6.747959891677802489e+02,1.400869264829481835e+03,5.877557058652485011e-01,4.184713237423624832e-02,8.079554738566332439e-01
2.857482331406726644e+03,3.190262189403126172e+02,1.963195008884191793e+03,9.728162672195185268e-01,-1.407449312212560588e-01,1.839004474399297540e-01
2.014388354304820723e+03,1.327066881737087897e+03,2.468819665072977841e+03,9.972701494147659940e-01,1.386617975887094152e-03,7.382632577095593618e-02
2.593084825886639919e+03,1.539548141980290438e+03,1.164014592924872659e+03,-5.447374159894965290e-02,-8.689655951619967844e-01,-4.918652314414668769e-01
2.112874200167426352e+03,2.288783080641072502e+03,4.139389964262367130e+02,-4.727328500274201317e-02,-7.931133412736310340e-02,9.957283509090154583e-01
1.100504705909784889e+03,1.348704788951788942e+03,2.708453200961433140e+03,-2.750808320084193181e-01,-8.696744537891588633e-01,-4.098742249618582689e-01
5.002084683918574228e+02,2.256363108746935723e+03,6.788067088591446918e+02,1.345175954383644049e-03,-8.031348124377452047e-01,-5.957958237116466327e-01
1.558216933128108167e+03,1.647519489287245278e+03,1.433398539063375665e+03,6.130651135978276711e-01,6.319170453987884573e-01,4.741645434063457287e-01
2.403760289910460870e+03,6.013501982992452213e+02,9.405485385317368809e+02,3.482969447567497344e-05,9.341104853786756923e-01,3.569840331058343197e-01
4.526270019585240902e+02,6.945528259111288207e+02,2.505108945137318187e+03,-2.747170095207256413e-01,6.655307417654418023e-01,6.939736280617084807e-01
2.072043760327107975e+03,1.526284812380239828e+03,2.465826115006594137e+03,8.107322084671011453e-01,3.724055636731238850e-01,-4.516939033232126866e-01
3.986234310128663765e+02,2.270099024959078633e+03,8.388209962995690603e+02,1.539448536414864902e-03,6.059090390947832194e-01,-7.955324421049340122e-01
9.478609737682659215e+02,4.002567725223160551e+02,2.788894649162361020e+03,-7.463296608196199472e-04,-9.996569957475833768e-01,2.617888165971569980e-02
6.612614783240887846e+02,2.635716199596377010e+03,2.639457883780034081e+03,-5.045804351597090072e-03,-8.932104825414910465e-01,-4.496104688910635971e-01
1.050779978240900618e+03,2.790315619377140592e+03,2.409510905780904977e+03,-6.343351057273459714e-01,7.717639036338101999e-01,-4.471521765327546305e-02
1.515124853843160963e+03,2.580528298727878337e+03,6.263098634637547093e+02,4.092858059460324771e-01,-2.720664247781007239e-01,8.708989548504284528e-01
2.084144444616215424e+03,1.562001519227403378e+03,2.517043632572699153e+03,3.391162649357025238e-05,7.531156652980837141e-01,-6.578881314726890972e-01
4.680131706655385528e+02,2.276435585411838474e+03,7.755637667300607063e+02,-2.858726921978997360e-01,5.188259400249195519e-01,-8.056652206796465210e-01
1.525417213190318762e+03,2.772755504620328338e+03,2.938209286754412460e+03,-1.516382539829133451e-02,-4.193961348925490107e-01,-9.076766717485257319e-01
1.856825276722861645e+03,1.633601140920867238e+03,2.451257373652108981e+03,6.512960678391803383e-04,-8.177877869293229685e-01,5.755195143196034646e-01
2.105648335000783391e+03,1.591903773864212781e+03,2.468462217832277929e+03,-4.872101695667933652e-05,5.702488299794689075e-01,-8.214720138466734545e-01
2.737897880366339905e+03,3.753018052003753269e+02,1.620928659088606764e+03,4.572896270066316160e-01,-8.143219621325875623e-01,-3.574436165616450833e-01
1.207552451737761658e+03,1.308089866391130045e+03,1.024521628802400073e+03,-5.380297099411277539e-01,-3.000198885096472812e-01,-7.877259026586119761e-01
2.374866469899353433e+03,5.161879412758089529e+02,8.806193486632256509e+02,9.392051653652337337e-03,-4.051329843987120372e-01,-9.142095242984116243e-01
1.441209401528276203e+03,2.869161228944045433e+03,1.232115282397325018e+03,-1.192377708358914384e-04,4.507567210565769367e-01,8.926468306136965403e-01
2.299026834868545848e+03,5.337135222635898799e+02,9.252028515311948240e+02,-6.908133997971807605e-02,-3.004201250271482104e-01,-9.513020114271173444e-01
7.639985864622908593e+02,2.198794534248706896e+03,7.677849347982499921e+02,-5.256028741913331137e-01,4.948140113682590879e-01,-6.920265260779112637e-01
2.219353876731909736e+02,1.236237768818583390e+03,1.974784321098636156e+03,-5.653807714919624194e-01,-3.691887711196258914e-01,7.375935428854660803e-01
2.207363737301565834e+03,2.207124463168901457e+03,1.182470690434179005e+03,-7.905113778020069759e-01,-3.169483874559115844e-01,5.240567538489224741e-01
2.199952846424950167e+03,4.500913695264870285e+02,8.553083987452862402e+02,9.785818752911096263e-03,-8.025816654686969143e-01,5.964619920873650560e-01
1.528385790319424132e+03,1.455789332910728035e+03,1.464718007105015204e+03,-2.533796551390806936e-02,2.020826081149257325e-01,9.790406564597230465e-01
2.333447839693563765e+03,4.916600467457117247e+02,9.205130822895183655e+02,-1.012460100055436775e-02,4.875982802239681724e-01,-8.730093983326916440e-01
5.261785017141260141e+02,2.243189473584088773e+03,7.367893911381798944e+02,-2.150129771908818304e-03,-9.457946546001652077e-01,-3.247581381146872337e-01
5.059979873435909212e+02,2.339910706337769170e+03,8.287089128011963339e+02,-8.183177400225551351e-05,-8.396441339576566909e-01,-5.431369271316924818e-01
1.954398373217146627e+03,9.924932644315772734e+01,1.730000857425466165e+03,-1.204542471243815523e-03,2.740043020688514019e-01,9.617277117382011520e-01
6.687688949227137982e+02,1.155726198334290984e+03,2.943148284017221158e+03,6.631262949966774123e-01,7.438228274969312936e-01,-8.361290676953082868e-02
1.512520755934002636e+03,1.403199207315425838e+03,1.539167394607366305e+03,-6.124878843559015962e-02,2.078661401605349235e-01,-9.762378059110050632e-01
6.639317527601797337e+02,3.281585930908983642e+02,2.792297383998528630e+02,-6.368108806626723295e-01,5.784920587130633063e-01,5.097242786797127057e-01
7.615383018409600027e+02,1.858823364659067920e+03,1.469541486506657066e+03,5.031257848814905120e-01,8.215299169979389804e-01,2.682406383543398665e-01
1.516796678262280921e+03,1.722706381012470274e+03,1.482545119776089678e+03,-1.409175220695524366e-01,-9.646605163003083572e-01,-2.226484679152313240e-01
2.715799735397091354e+03,4.132313367538601483e+02,1.832725694749438389e+03,3.767718920917020788e-03,7.756288756709321941e-01,6.311779871950372600e-01
6.707747013167446539e+02,2.004784152462601469e+03,1.421782130738055002e+03,-1.075229840859212999e-01,9.923478485062597887e-01,6.070053919246502089e-02
1.654323011144084830e+03,1.392437538053606659e+03,1.688892779805313467e+03,6.287989761700538485e-03,8.286187980841738243e-01,5.597779458377186712e-01
1.117634731745428326e+03,5.535689565560874144e+02,2.719453594517980036e+03,9.092889439058667728e-03,-3.302364150138530074e-02,9.994132070688465097e-01
1.319624282652622696e+03,1.628238466430649623e+03,1.570582457802274575e+03,-1.742753157124757035e-01,4.981672347365541653e-01,8.493865554435459098e-01
1.555554856415373479e+03,1.369540895219087815e+03,1.557986588093861656e+03,2.887123549044310830e-02,-2.081703223007300430e-01,9.776663892527274191e-01
1.083407586998731631e+03,2.473307764503907038e+03,1.402855155383307647e+03,8.068831671087229873e-01,3.426618608864481219e-01,-4.811677500939075536e-01
4.754834934595518234e+02,7.373766621446122826e+01,7.282562476996893963e+00,2.291415138638600024e-02,-5.474043352847932642e-01,-8.365545023354159504e-01
1.459182030841684536e+03,1.680326345869488478e+03,1.889959065114428540e+03,-3.478114408033221583e-01,9.364140270404923694e-01,4.643244133281521080e-02
1.499570176578057726e+03,1.369167192269254656e+03,1.665619085857312939e+03,-2.298463820151004302e-09,-6.014523993568665627e-01,-7.989086376475524887e-01
1.666288983284839560e+03,1.328757470613578107e+03,1.625795475080019514e+03,-1.866004762002906775e-07,-5.556077384745925496e-01,8.314445507351130304e-01
2.871524952371842119e+02,7.304501381761426728e+02,1.050833168517017839e+03,5.723727068079016433e-01,7.472318355834701720e-01,3.376893074883386969e-01
2.313359787635839893e+03,4.828496459501575941e+02,9.785252831878932511e+02,1.570655631162485855e-01,-5.254199934607871603e-01,-8.362202098458527688e-01
8.909545936214866515e+02,2.716461512283940920e+03,2.881768508237728383e+03,3.587533479478440812e-01,6.599326139327896801e-01,6.601401217954023792e-01
2.256826480990527216e+03,5.086641787725345694e+02,9.426917664735639164e+02,-9.105550951474424004e-02,4.604945155282768599e-01,8.829800084687013939e-01
1.617369696183030555e+03,1.335673566267447995e+03,1.520157034983523999e+03,2.248207287635768073e-04,9.431186091278708217e-01,3.324563709306087023e-01
1.920911242618049073e+03,1.293660596542245457e+03,6.643348889476153545e+02,-7.891501909759803812e-01,-4.480340637467816189e-01,4.201279017217478540e-01
1.841545653674647838e+02,1.839306769527348024e+03,6.441303141699412436e+02,3.598982103538831967e-01,-7.475806125715672712e-01,5.582082997333452923e-01
1.574534238714003777e+03,2.231367297669612981e+03,9.189412112028693400e+02,7.289944320021105595e-01,2.492552358483990926e-01,-6.375256430231486249e-01
5.265430604721085501e+02,2.378813192657190939e+03,8.555694130921963279e+02,-9.235585312316144259e-06,-6.344294973810837845e-01,7.729807324684679903e-01
1.560269428335263228e+03,1.486116411044216875e+03,1.495373201932643951e+03,-1.569181193174499947e-04,9.649092396227383628e-02,9.953338520163024228e-01
1.850583993875939086e+03,2.311021815727069679e+03,2.910737539505736549e+03,-7.521900953829361303e-01,-4.362784656520402038e-01,-4.938331305371390645e-01
2.180133612154635557e+03,1.853493937123485011e+03,1.663402101641720208e+02,6.998054628583501302e-05,1.531932107049911451e-01,9.881962534317864089e-01
2.860767772561629954e+03,2.245091674741587667e+03,2.979369800207880417e+02,-4.642373553101171724e-01,6.313641991850080792e-01,-6.211786586177455716e-01
1.307548783924506552e+03,1.454341069064114208e+03,2.461083937507268729e+03,6.194197425577753213e-01,-3.895830465663605024e-01,6.815748178723540773e-01
5.648333378944928427e+02,2.354474581186399007e+01,9.872585432285714546e+01,-3.827578845505437422e-02,1.614873276145606384e-01,-9.861322462215965645e-01
8.703947772044188014e+02,9.840811878138653128e+02,5.590514322179315059e+02,-4.540714261187274448e-02,-9.587469123160539952e-02,9.943571968769921998e-01
2.246302795623058500e+03,4.547921959508337864e+02,8.899453718811912495e+02,1.581887208082596863e-03,6.956237753524446843e-01,7.184045244827405030e-01
2.048256944038472284e+03,2.143656041100624407e+03,2.091802651460949619e+03,3.087476892550714558e-01,-9.239877059333864162e-01,2.256581123372520814e-01
8.493482045267036256e+02,4.365497785652217999e+02,2.605034574749716285e+03,-1.881212559642276572e-01,-6.172420773046417564e-01,-7.639519690786144013e-01
1.565607126234355292e+03,1.653915825284621178e+03,1.302117324391177817e+03,7.098860935239036107e-02,2.480856076279287503e-01,9.661336080636544477e-01
6.758667603647764963e+02,1.925176744628681263e+03,1.394795809518092483e+03,-2.097177878882693913e-01,-5.150941116315056467e-01,-8.310815276528535911e-01
2.296578632078374994e+03,5.100258263719280762e+02,2.974362335674966744e+03,-6.607018479898714436e-02,9.928511874605960852e-01,9.940447796106693934e-02
4.149523739331162915e+02,1.715213530197367845e+03,2.654139105834277871e+03,-1.229367140742759629e-01,9.019419299924735789e-01,4.139895158745831583e-01
3.000000000000000000e+03,2.975100059696836752e+02,2.666991006785806206e+01,-1.438794582049258801e-03,-8.435013701997930990e-01,5.371250956166749857e-01
3.745011645931346607e+02,9.172639443996288264e+02,9.809897358130644989e+02,6.432313306008642373e-01,-5.009344832562934169e-01,5.790665754627807305e-01
2.247975105954983519e+03,1.837084826065638254e+03,4.207673879730352695e+01,-9.958027945838250107e-04,-4.218981679496425219e-01,-9.066426772756340791e-01
9.190414102422734004e+02,1.987296858146587795e+02,2.353962130274303036e+03,1.243693946676640572e-01,-9.917167648546121317e-01,-3.209535755059680223e-02
1.007508317730910903e+03,2.112862058225343844e+03,1.352809739213798821e+03,-3.863213424846762001e-02,7.905013476072573209e-01,-6.112406871556559373e-01
2.794694605000351203e+03,2.613091285046134999e+03,2.479750951465268827e+03,8.712668562029373120e-01,-4.666723742332997138e-01,1.520228943603738891e-01
1.552355201091906110e+03,1.622598411205336788e+03,1.265092321209699776e+03,-1.725511879283491909e-02,8.792267665907834706e-01,-4.760909091610142085e-01
2.457001298134156514e+03,6.706308150556642431e+02,2.208087885481907051e+03,-4.265022442323431751e-01,-2.682934968535367060e-01,-8.637791588194727588e-01
6.557989186164032844e+02,2.269730178600263116e+03,1.227938346224753559e+03,1.466771385213575495e-02,-9.996107961899898253e-01,-2.373002972536209648e-02
1.895549738853017743e+03,2.829289781870042134e+03,4.901301097823474038e+02,-9.077886967730679491e-01,4.173656356068678464e-01,-4.154044084419706434e-02
1.274826983322650904e+03,2.370212204694816137e+03,1.029535764607620649e+03,1.401324418277623621e-02,-7.366665017141833527e-01,6.761110073350833360e-01
9.166394671896840691e+02,2.526790387553591700e+03,1.408472604238488657e+02,-9.895246981245827689e-01,-1.439417546404993808e-01,1.102919183202688731e-02
4.773100330459362794e+02,6.655614385892033624e+02,2.518751535752900509e+03,6.655272776614055454e-03,9.482600367466952340e-01,3.174249675961630657e-01
4.712077993171498633e+02,2.156842311334738952e+03,2.344906352951694316e+03,-1.532984543553570812e-02,-7.454930163398266509e-03,-9.998546993714544362e-01
2.208853610849726465e+03,1.406841122477087765e+03,5.019194210025498251e+02,-5.741455969016138194e-01,5.535222595777462562e-01,-6.032992140807376114e-01
1.439346061077410013e+03,2.803731615809158939e+03,1.246634856256524699e+03,5.210110001776180333e-01,-5.677150267798359851e-01,-6.373752317609212570e-01
1.976636553144487380e+03,1.470843534835361879e+03,2.460429254020932149e+03,-9.463351293020088040e-01,-2.979856717150249912e-01,-1.251173948797512647e-01
2.262770650679928622e+03,4.566567963842702511e+02,8.334179558681785238e+02,-4.591658983815723183e-02,5.864218569772512435e-01,-8.087033278260865599e-01
2.219112818560902269e+03,1.928686700341272626e+03,1.610194996790043831e+02,7.678374274720175554e-05,-9.809970442376982902e-01,-1.940226618237063383e-01
3.841876896747250498e+02,1.703045237336186574e+03,2.686078412616109745e+03,-1.747102318600231644e-03,-6.221592095352742602e-01,7.828887951835376002e-01
1.583163497978361193e+03,1.356881942718088567e+03,1.725593075520402181e+03,-1.240910612217874664e-08,-7.862624110427735014e-01,-6.178927261112601155e-01
1.030532105283400597e+03,2.722333488873010992e+03,2.869304092392548682e+03,1.645253803663188630e-01,8.924650982537885024e-01,4.200445781273384194e-01
1.495521210362662487e+03,1.410755692672733176e+03,1.771351856010736810e+03,-2.154487514547947095e-07,9.070564316794160753e-01,-4.210090613620549038e-01
1.658269846975012115e+03,1.717284224402237953e+02,1.067019134707636113e+03,-4.067355617264913903e-01,-5.404428730800171499e-01,-7.365376322796086672e-01
1.845251992868113120e+03,7.592367933508327269e+02,3.694699949310401621e+02,6.694413617751386880e-01,-2.305419139073963952e-01,-7.061860159168846796e-01
8.241680815519973748e+02,2.020462332246898313e+03,1.444586131912116571e+03,1.196164678879987203e-01,-1.345678560917502320e-01,9.836581686322080076e-01
1.525304200636406676e+03,1.511815624226375348e+03,1.623188561802163349e+03,4.776622561953568213e-03,1.869096461832177869e-01,-9.823654961573951017e-01
1.732617804428314798e+02,5.361305274830669987e+02,6.118795915374829519e+02,-9.670056349589319922e-01,2.522498135290945909e-01,3.563893281524977558e-02
1.824225627498315816e+03,2.078846558890904817e+03,2.802071513891574796e+03,6.437130395297279151e-01,-6.784505172535715278e-01,3.540316629593465714e-01
1.150185608665361315e+03,2.157222974985191740e+03,1.609484813118451257e+03,-2.785957932979789553e-01,-7.152954848427166556e-01,6.408874732121799811e-01
2.115510504944229069e+03,0.000000000000000000e+00,1.958439359633345930e+03,7.474696199309769501e-03,2.400411707773563441e-01,-9.707339312337670556e-01
4.694163564733997873e+02,1.610758899555065000e+03,8.204989393124225217e+02,5.194534634159840569e-02,8.897630439738437591e-01,4.534571717062717555e-01
4.437719674019386957e+02,1.726546860637256486e+03,2.616532351177570035e+03,-1.267116500662405706e-02,5.078958123577330674e-01,-8.613253075156059868e-01
1.969486749181111009e+03,1.482337345867340218e+03,2.497952847465443938e+03,9.420709991350005863e-01,4.683372592386217392e-02,-3.321277385357481737e-01
1.695375347434615605e+03,4.397655707667095157e+02,1.131464290813868956e+03,4.423004710514211180e-01,-2.706091212964624182e-01,-8.550678316828714820e-01
7.118988327577256996e+02,1.701590562203020909e+03,5.056011913157562390e+02,9.151926229087803399e-02,9.451760864533875761e-01,3.134747042847187970e-01
1.820724693033115571e+01,2.797770444122355912e+03,2.474520965818531977e+02,-1.701852466914529349e-01,-5.307238809089760423e-01,8.302825687929888954e-01
1.385248922077277484e+03,2.545478830822323744e+03,9.260790140878091847e+01,-1.085463843631586101e-01,-5.611367409755478597e-02,-9.925063919295225023e-01
2.698752429201907717e+02,7.246396232865894262e+02,1.096456187115373524e+02,-2.643178008002700641e-01,8.373277287717941775e-01,-4.785586430208710884e-01
1.628587554422236508e+03,1.285771965149031075e+03,1.041289364937343720e+02,-3.638805150115824602e-06,9.894885642739486009e-01,-1.446111377378628271e-01
2.203509239165686267e+03,1.924381240215614298e+03,1.330734946316450760e+02,1.482809398265179379e-02,-9.616757764026095945e-01,-2.737879265221163649e-01
2.139210468933419634e+03,1.958024991097063548e+03,2.211869714465970560e+02,2.357488939044374149e-02,-9.389315766789612105e-01,3.432953814215802812e-01
4.619089862764630539e+02,2.491098807542947270e+03,1.886861267539786922e+03,-5.701330458701486803e-01,-1.834480145138194240e-01,-8.008090508840197685e-01
1.395257988649194203e+03,1.421156308679120912e+03,1.607982760778559623e+03,-9.013248548721661813e-01,2.624363388417251808e-01,-3.445876870188775420e-01
5.849138025807552594e+02,2.524800504829080637e+03,1.465572426798836887e+03,-3.360898588100417195e-01,9.270203935256194905e-01,1.663634478864024491e-01
1.047094491891958796e+03,2.109671318542590143e+03,1.279744488354586110e+03,2.477040898420807338e-02,7.908491637185058876e-01,-6.115096295926131242e-01
2.326442163290627377e+03,1.259121791139060861e+03,5.364239753113120059e+02,1.636533495025932761e-01,-9.757566410848055316e-01,1.453153762527568671e-01
2.794627044167516488e+03,2.338056723022773440e+03,7.033004643745836120e+02,1.229307960551702245e-01,-2.941398086555360725e-02,9.919792523590819089e-01
2.101078632932072196e+03,6.924099956989805378e+02,2.184499546175468367e+03,-9.427318266498748711e-01,2.960763781314273979e-01,-1.536082072480713379e-01
1.493724226326613689e+03,1.402384640397975545e+03,1.403226976549502524e+03,1.761441021999837070e-02,5.530983205466263319e-01,8.329297571590914551e-01
3.901813002963842223e+02,1.631923083262589444e+03,2.701184215077231784e+03,-9.963164861171855402e-02,5.601681400869010785e-01,-8.223656056928043689e-01
2.575082634432197210e+03,4.689604252585710498e+01,1.833033069563985009e+02,6.072887295868033553e-01,-5.684414170520971643e-01,-5.550448218807650935e-01
2.106147906494092240e+03,1.847422161917833350e+01,2.446705026319473745e+03,-5.854047413455270021e-01,7.187209801116980490e-01,-3.751552232842518819e-01
5.408888438754174786e+02,2.212497291820659029e+03,7.973808444382891594e+02,3.168461237882903066e-03,-9.858361703288922584e-01,-1.676812634871509278e-01
1.620904590047801321e+03,1.320989457975265395e+03,1.652018297757406344e+03,-4.728604678323312938e-02,-5.549862296826700847e-01,8.305144879183194995e-01
1.525751464046243882e+03,1.686720686852451536e+03,1.327404959347898739e+03,-4.910099432778689856e-03,-9.963482262794328692e-01,8.524143894484771666e-02
1.065940670775221406e+03,5.368522858625519802e+02,2.778342726800671699e+03,5.342084137959436825e-03,-9.877126145227675957e-01,1.561897988015276961e-01
4.078879327404929995e+02,1.716541797088495969e+03,4.030173630106243081e+02,5.782893336745560144e-03,-7.923471120369928178e-01,6.100431232226890543e-01
1.672581705329943134e+03,2.308856116604651106e+03,2.420317643222363131e+03,-7.788111112510277545e-01,-2.376074204198958817e-01,-5.805135370974068287e-01
4.362132500143210905e+02,1.729409454205006796e+03,4.946481511214740863e+02,5.348532283486411021e-02,4.382769911135358520e-01,8.972472342123524180e-01
6.105479350795244500e+02,1.029905795933328591e+03,4.701719890757191251e+02,-1.263681388113070117e-03,-2.220601401983541001e-01,-9.750321519029189199e-01
7.542725486129475030e+02,1.847232943137636994e+03,1.940710742178925102e+03,4.966111899611949654e-01,7.838029246216706714e-01,3.728676727202849817e-01
2.255425256278990673e+03,5.133515351868057905e+02,8.370345970186372142e+02,1.061533317883596728e-01,-4.766184470447975552e-01,-8.726776759416021712e-01
7.797046876915579787e+02,1.822312670449295638e+03,1.479435565289335727e+03,9.574000452393459648e-01,-2.884751419700513075e-01,-1.293235636135089094e-02
1.561515940686522072e+03,1.560449608837300275e+03,1.310269434654144106e+03,1.641642339974371811e-01,4.569021342584173029e-02,9.853742987683085097e-01
1.048891627509524369e+03,1.354768427274666919e+03,2.736413255921212112e+03,5.039603841851516552e-01,7.855108134378882001e-01,-3.591610963677743240e-01
1.180158200372650526e+03,2.241093334672239507e+03,1.948085440315669530e+02,-1.162169097869005935e-01,-1.527392033349961147e-02,-9.931064078119874461e-01
2.972036074844518225e+03,4.059705324375484565e+02,9.196133664375125250e+01,-1.946757109006890668e-02,-9.944821905414539254e-01,-1.030833952279626986e-01
1.633319410558024629e+03,1.338771945003295286e+03,1.755145346260015231e+03,-1.396841337096668224e-05,7.895183001697889669e-01,-6.137270187158868628e-01
1.973191563195930712e+03,1.635190837355120266e+03,8.323988103693110361e+02,-1.336153589204796416e-04,4.596217864745739679e-01,-8.881147423305487676e-01
5.309731412655999065e+02,1.164624850596708029e+03,2.601934405951257304e+03,-6.796493021183346306e-01,5.076160720283838801e-01,-5.295306880139576400e-01
1.650804869610539981e+03,1.655037190622153275e+03,1.441695521829927202e+03,-2.279550125897162050e-01,-2.269101143758504857e-01,-9.468623512576475054e-01
2.258432906163789539e+03,1.888235048346451777e+03,1.574944800798576523e+02,-5.915087879557620691e-05,4.012229781100433712e-01,9.159804137303816374e-01
1.254502140810646779e+03,3.620037285421518050e+02,1.662145188183376604e+03,-9.744185746818087024e-01,6.352053504485617730e-02,2.155773247414665139e-01
7.985645468602368737e+02,1.915149975703016707e+03,1.519011073850120056e+03,2.224134858479368260e-01,-1.648966761854931407e-01,9.609065134007295228e-01
1.631829857003107463e+03,1.291453484475667437e+03,1.692964008354677844e+03,1.294531465890116639e-01,-5.963069250508650221e-01,7.922499188858184160e-01
1.544425667572759721e+03,2.720165062241356281e+03,2.951428558844968393e+03,1.133846120837525735e-02,-6.031459700370216392e-01,-7.975502354870986910e-01
2.232305431811768813e+03,1.947895421616696694e+03,1.232849696312640191e+02,2.106417777636540867e-01,-9.653930967484016801e-01,-1.537732428320951195e-01
2.821537156576446250e+03,2.595136044580103317e+03,2.447697774470537297e+03,-9.736810605447515643e-01,2.167063920005187216e-01,-7.059413575195483403e-02
9.831444689986626599e+02,4.977885759467073967e+02,2.760287523466598486e+03,5.396765488196991062e-03,9.383136084739987504e-02,9.955734782746025191e-01
1.654529461605781989e+03,1.421782872576196041e+03,1.714766380792429572e+03,5.094911850097915383e-03,-8.427225573363029687e-01,5.383240039509674668e-01
5.803233695265682854e+02,1.215132214941388156e+03,4.590663527757812403e+02,-8.410409683713353235e-02,-9.284676613816338353e-01,-3.617655354835915826e-01
4.287632208721594225e+02,6.981388538796988996e+02,2.546730730143186520e+03,-3.095901874849094071e-02,3.861656808910182148e-01,-9.219097602586203699e-01
1.515035757954749897e+03,2.114658854461223655e+03,1.033178061090334268e+03,5.306700943279978565e-03,5.082590120194996341e-01,8.611879095911999515e-01
2.113771294100612977e+03,1.493599020825392472e+03,2.428678846723891638e+03,9.279759388373003404e-01,1.635358126389258038e-01,-3.348383116125707160e-01
1.348217859505291699e+03,2.419007271969966951e+03,2.352088375621734485e+03,-6.233781186176574618e-01,-7.817134893892982994e-01,1.799282455639650280e-02
1.179545642368200788e+03,2.023939229377351921e+03,8.050074277353941454e+01,-3.944673501683677169e-02,1.104383999968251533e-02,9.991606420864328486e-01
2.464894747862775603e+03,1.371582989213331302e+03,2.288978567007915444e+03,5.047326013894718466e-01,-1.717942100204141245e-02,-8.631047842461836428e-01
1.550216238509312461e+03,1.493689589826527708e+03,1.563524341357610183e+03,4.182389183736836832e-07,-5.163542712559072712e-01,-8.563750735253835566e-01
1.574759794974786701e+03,1.594269836909963487e+03,1.382920199952409121e+03,-1.484363827360210769e-03,3.650388715977270770e-01,-9.309910949556317039e-01
2.288225435712096214e+02,2.732676726260528994e+03,1.044071861508381744e+03,1.675684665280399444e-01,-8.454674547997150791e-01,-5.070558074807276494e-01
2.662562149043822956e+03,1.457160992687219959e+03,1.055235566928350181e+03,4.256612550162743869e-01,-3.958864636092812028e-01,-8.136869200797733903e-01
2.090136770418387187e+03,1.976598776115624332e+03,2.369018883408019462e+02,-3.244383623241746117e-01,-2.927256565668218680e-01,-8.994728673172586175e-01
4.638832403619699107e+01,1.501576048736608755e+03,7.425728145661539656e+02,-1.218419697528246859e-01,-4.249988701314360573e-01,8.969562390628399440e-01
1.237492160312707256e+03,1.989471277791235252e+03,1.388254762080399018e+02,8.967427168537798199e-01,-4.407580638612433321e-01,-3.980990970838553522e-02
1.361443263551626615e+03,1.609097967679098701e+03,1.597212116223566227e+03,-1.504132941477645449e-03,-5.073350723137590723e-01,8.617475627957918993e-01
1.073463874813442317e+03,1.333627404514997579e+03,2.690839917819300354e+03,-1.930469519840347830e-03,8.580705997278355035e-01,-5.135281094255169654e-01
1.819340462596355565e+03,2.578550043692716372e+03,1.006190128627972967e+03,6.668631724902344127e-01,7.123219864654191102e-01,-2.188398884440845571e-01
2.810049396712984162e+03,3.840924079886061122e+02,2.499108622142350669e+03,3.187257610142608666e-01,-1.789332045514261393e-01,-9.308043820131262081e-01
9.864745894678164859e+02,1.371626024600193659e+03,1.296213893693267664e+03,5.688543717791899601e-01,4.351937370941058036e-01,6.978618164807195434e-01
1.596106523073839071e+03,1.519750568191600905e+03,1.623123273221603313e+03,7.308507289570064676e-08,4.297720200172614469e-01,9.029374346045673239e-01
3.741242718717132902e+02,9.322031977793726583e+02,9.346960353394819094e+02,-6.911207896717517229e-01,4.728461685639241407e-01,-5.465972511437569015e-01
9.375542380312140267e+02,1.599906918944599283e+03,2.508287171980702624e+03,-9.981411583468303983e-02,9.947557602279561983e-01,2.231859703120539842e-02
4.434812945354138236e+01,8.493094771948340167e+02,1.057707493981745301e+03,-9.798250375773380760e-01,-1.946602637964844895e-01,-4.527998934685228960e-02
2.992315011915141895e+03,6.981738738257573686e+02,9.684251085034372863e+02,1.215284222880880782e-01,-7.766650144917668364e-01,6.180795238807639258e-01
7.835932532021547559e+02,1.910377912231159598e+03,1.420016821903122036e+03,1.292515328847392009e-01,6.969053768915398628e-01,-7.054196884880702401e-01
4.987238857346665668e+02,2.326757646165489405e+03,8.492781260754419463e+02,-2.770974235200253041e-06,5.470193975203819781e-01,8.371199309111926334e-01
2.238584950741692978e+02,1.255580700469625754e+03,2.015427421047220832e+03,9.266258096273399802e-02,9.426529477031309057e-01,3.206541224994978734e-01
6.727634315208612179e+02,2.725441067978404135e+03,1.890533387088750260e+03,6.869927138343832895e-02,-9.507587224120039870e-01,-3.022222061147699645e-01
9.670677888289409339e+02,1.413826265744615512e+03,1.289477804942075863e+03,4.628771342578691939e-01,4.690510079953699174e-01,7.521541799922074611e-01
1.569445196350630113e+03,1.372598240385117151e+03,1.479850654559264058e+03,8.568605335853278770e-01,-5.009724446249904650e-01,-1.217236037518117375e-01
2.089705229035859702e+03,6.524221630199683659e+02,2.139564893163906618e+03,1.067444753512680616e-01,1.690029555994716423e-02,-9.941428453657799036e-01
2.217377704563305088e+03,2.766838342263411505e+03,1.395356596561117158e+03,-5.793451230406191366e-01,5.932017583105115843e-01,5.589909680364858469e-01
2.508213612729893157e+03,1.384574952934231305e+03,2.284517335468361580e+03,4.730500008303387127e-02,-9.970112689089869473e-01,-6.108000192891195612e-02
1.449923995339174098e+03,2.258796838087561127e+02,1.217498742578562542e+03,-3.255400065993761527e-01,-1.737296432672887914e-01,9.294308554989438864e-01
1.621393488516557454e+03,1.132158840174563011e+03,5.697258790962348485e+02,5.006545922299168727e-02,9.861930411112886929e-01,-1.578503577964236460e-01
7.355409956245440526e+02,1.928995656671237839e+03,1.440488227770950289e+03,-2.680045378031136738e-01,4.151821621963594500e-02,9.625226259360758485e-01
2.962851008988480316e+03,2.559939354894464429e+02,1.065789578479620303e+00,2.832087941835741387e-05,5.536248607208843486e-01,8.327661813436645355e-01
4.569075944273173491e+02,6.381820065008442953e+02,1.585919866156109492e+03,1.450446907653626764e-02,-9.945482943056689340e-01,1.032633074741093060e-01
4.814676983078564945e+02,1.871161297973799833e+02,1.398503078441094658e+03,2.632610067004597862e-02,9.797626386940919696e-01,1.984240616525653478e-01
7.407320234667347449e+02,2.041704533567464750e+03,1.429065736897893757e+01,-1.922895618944844842e-02,1.232608056472882796e-01,-9.921879968206861466e-01
1.552970651909338812e+03,1.634530079195699955e+03,1.485301782558921332e+03,-8.796788367179311230e-01,-3.803890562864327696e-01,-2.854282923749930090e-01
8.023686709096308505e+02,1.916543935869960251e+03,1.393476050470073460e+03,1.010325594927134057e-02,-9.799095448648356133e-01,-1.991863652512751437e-01
1.541328665575557352e+03,1.360524259851670195e+03,1.685897531033811902e+03,-1.245088458327161022e-08,-7.860514475515157917e-01,-6.181610807889529324e-01
2.284896832971162439e+03,8.385351339451697186e+02,9.813210755796186504e+02,6.132887904771842091e-01,3.053869897086545770e-01,7.284336936137143503e-01
2.222564419117717534e+03,4.764567519364850341e+02,1.033684882477890142e+03,-1.376514910014796644e-01,-9.587654669276244324e-01,-2.486379827221177896e-01
4.945741421548511312e+02,2.411535009796327358e+03,2.750899892540268411e+03,-6.254323887059190512e-02,9.349403603750814362e-01,3.492490025945512722e-01
2.149376770532936916e+03,4.372123516535264685e+02,1.166336453833070209e+03,8.234420265457215171e-01,4.318447494595607505e-01,-3.680398637138164730e-01
2.281548667551854578e+03,1.489725681065929393e+03,1.432583757160280811e+03,-2.657365289632883049e-06,-7.205120532846813475e-02,9.974009343306499131e-01
2.106949810164996961e+03,3.618240306968733080e+02,9.834301847016031388e+02,1.078974656412820282e-06,3.277618158921013873e-03,-9.999946285945940927e-01
5.053399935218233736e+02,1.810890308939632632e+03,4.577117628763398329e+02,-7.287094389554553409e-02,6.078586990184275951e-01,7.906943958087706559e-01
1.860663254672541598e+03,2.102879877594240952e+03,2.771851733291974597e+03,6.992092687099471515e-02,3.861936324976751322e-01,9.197638513247580194e-01
2.642706757600095898e+03,7.222024248683041492e+01,1.335002562339534734e+03,-4.835203319941987210e-02,8.730282137216872629e-01,4.852667502842143432e-01
1.486252553651115932e+03,1.475143779109751904e+03,1.571438815222160883e+03,7.147340953308685130e-01,-6.991309092687254534e-01,-1.926511553690214706e-02
1.704130595623034651e+03,1.349164957912534192e+03,1.722605701082106407e+03,8.898293165009542038e-01,-1.478134546782241265e-01,-4.316885105160124247e-01
2.098213568843186295e+03,4.254149539528934270e+02,5.830240194740281368e+02,7.221407189106813229e-01,4.457052500894628788e-01,5.290175915164387899e-01
1.478003581816808492e+03,1.427750402653718311e+03,1.515966987293810689e+03,2.331939367172151667e-01,-7.490430702986764500e-01,6.201250411939993601e-01
1.270258241730969530e+03,2.348401858924373300e+03,9.843197558397181410e+02,-4.465759102146110715e-03,8.756846601533165853e-01,4.828627475461449992e-01
1.930002539560287005e+03,8.199156048969080075e+02,1.356220040308992111e+03,-4.460688979910492069e-01,-5.407911681725957598e-01,-7.131391523900298957e-01
1.853780972295053516e+03,1.574990204924569298e+03,2.482005574452773544e+03,-2.352366023393123035e-02,-8.348481861441223728e-01,5.499774027185730940e-01
2.158637585893719006e+03,3.152354315258137945e+02,9.782730182365537530e+02,1.294582552907184159e-01,3.250036585485651264e-03,-9.915795466826028415e-01
1.981302259294668602e+03,6.413102388248033776e+02,1.379082617408035958e+03,-1.446146733650136712e-02,7.953991330342562449e-01,-6.059134303931781318e-01
5.003633200336665254e+01,3.079437459369465842e+02,5.427100805027273509e+02,-1.259440220002374933e-01,5.353050087347328567e-01,8.352165293778082145e-01
1.457993286458227658e+03,1.693439469801267478e+03,1.400230434577554888e+03,-3.988310427477971820e-01,-8.988433108916205061e-01,-1.816989317692717099e-01
2.593763888291912735e+03,1.400613646134816690e+03,1.137714075131966865e+03,-8.707338384738469994e-01,-4.845255759164241449e-01,-8.400921865758537166e-02
2.736479720445912790e+03,9.876033120701090411e+02,1.899326873782541043e+03,-6.939887683187343503e-01,7.009598781209864793e-01,1.644227439013772329e-01
3.000000000000000000e+03,7.373650930201619076e+02,9.710112891516838545e+02,-3.560158801216996294e-02,7.819686465302930767e-01,-6.223002191664350757e-01
1.478776004690367245e+03,1.489165501948440124e+03,1.604939068442955204e+03,4.953698980053247158e-01,-1.488746273136463127e-01,8.558300120306702174e-01
1.645957778820567910e+03,1.690206381899078451e+03,1.387495411792832556e+03,-2.821542428504669187e-01,-2.235769506852772481e-01,-9.329535520934324477e-01
2.122981192927788015e+03,1.911170116724141963e+03,9.672632447832982905e+01,-7.717824076556119295e-02,-1.276003398974315806e-01,9.888183212351968621e-01
1.725592884107910777e+03,1.319073314445532105e+03,1.639562404975178879e+03,2.966643541648260052e-01,3.450352571356881670e-01,-8.904723085538798211e-01
1.462769980245729585e+03,1.398194332501145936e+03,1.524995912423122036e+03,1.844189840401810410e-04,-8.108697213080298116e-01,5.852266749350003572e-01
1.436667338617006408e+03,1.393875075101588436e+03,1.474678159345087806e+03,8.874808222769107191e-01,1.709707467885294430e-01,-4.279565326446963525e-01
6.173834303456627595e+02,2.276135054392188977e+03,1.263013745522884392e+03,-3.037034927112773897e-01,-9.524982433111494062e-01,-2.261161215272906866e-02
6.049604367803562610e+01,1.230814570029788683e+03,7.614195046560403171e+02,-9.187647204309670190e-01,3.755946024942514727e-01,-1.216555920152970760e-01
1.469528367537004669e+03,1.678470708421782774e+03,1.446407127991264815e+03,1.931216702615268510e-01,9.617218416753083865e-01,1.944096698213624297e-01
1.510851803415954919e+03,1.750301871088762937e+03,1.450034151134297417e+03,-7.542232993056871559e-02,-8.201356270590960396e-01,-5.671763617925450474e-01
1.620809922500425273e+03,1.560499245110683887e+03,1.362206335806614106e+03,4.160775910165634937e-03,9.999657471932551500e-01,7.154885328252895069e-03
2.956198941530865341e+02,0.000000000000000000e+00,2.382739347378670573e+03,1.043220941769746994e-02,-2.437264914113574099e-01,-9.697878976307009458e-01
5.909160967768968931e+02,6.641252956406378871e+02,2.367989865697348705e+03,-1.224711792086465301e-01,-6.695549901081652155e-01,7.325960179283657059e-01
2.844217790464141217e+03,1.718679381156057616e+03,3.524680954795942398e+02,2.917898570599182229e-01,4.887788389791530852e-01,-8.221641720989451008e-01
8.840247408266528737e+02,1.603647134368226261e+03,2.484415961883810269e+03,-2.008208405627988358e-01,3.393950203028274215e-01,-9.189570230371463255e-01
1.506648614021671847e+03,1.418708244101884929e+03,1.559133304634029855e+03,6.904751096230064486e-03,2.585248300630465512e-01,9.659799359475186309e-01
2.644234256146246025e+03,2.003868983250423753e+03,1.344940662358516647e+03,6.117503994994597516e-01,-4.268952336601504749e-01,-6.659744050566034357e-01
1.565900509214281556e+03,1.506463671064138225e+03,1.537365428173393866e+03,-3.124676651394644664e-02,-9.994035545953594557e-01,-1.470287878558339777e-02
4.352963724046846323e+02,6.748379869698003404e+02,2.507187093542315324e+03,5.027721549554094692e-04,-3.863508275395621805e-01,9.223517687301606705e-01
1.089327805818798197e+03,1.227211487848070988e+02,2.471923927076055861e+03,7.097369102346976488e-01,-1.182006606926747083e-01,6.944797492096655978e-01
1.567548223314058077e+03,1.517516018682810454e+03,1.515004377978530556e+03,4.194784214935513763e-06,7.858250662371292217e-01,-6.184488380260855234e-01
2.107293283499441259e+03,1.913490047438687952e+03,2.395378280806915257e+02,1.383347594985420573e-03,2.877036929406904253e-01,9.577184718996080148e-01
2.134513788604871934e+03,1.476717047280687439e+03,2.527796903522065804e+03,5.472513478293137548e-04,6.583131294925164134e-01,7.527439963584774407e-01
1.343966385056539366e+03,2.049891123268849697e+03,6.410839844344236553e+02,2.810342346855665974e-01,-8.667614790466482422e-01,4.120003608925175698e-01
5.286589648986811198e+02,1.721985611595902128e+02,4.502441180072358407e+02,8.373272015778516764e-01,3.553377678461233646e-01,4.154734988419097608e-01
2.265302570415231003e+03,4.588509408478078058e+02,1.033225364016201411e+03,3.046412494109197646e-03,-2.297473312078975594e-01,9.732455410500293613e-01
1.142510891124949922e+03,2.277435742266831767e+03,2.787670913949190208e+02,-1.010592938240387761e-01,-1.033267522779245280e-02,-9.948267461997709615e-01
1.365527135206799585e+03,1.453733748840132648e+03,1.586432643753152433e+03,2.726391213496367483e-01,2.415227736110663742e-02,-9.618131715712622265e-01
1.966371266934074356e+03,4.747567892589304961e+02,1.845907779910038755e+02,8.158166796277236399e-01,5.492700589647042664e-01,-1.809573086838614786e-01
2.792975784415688395e+03,2.698292179754224435e+03,1.689456749267094210e+03,7.817933415071443015e-01,2.267940468664490228e-01,5.808301227390264554e-01
2.235692101002685831e+03,4.907693838889131257e+02,8.425929434120870383e+02,-1.776293089707321185e-03,-9.715202940190714731e-01,2.369497058279591006e-01
8.161974874992753257e+02,1.865622294190362481e+03,2.925678294471673325e+03,-5.358967075608456199e-01,-1.599020993222167453e-01,-8.290030382681317089e-01
1.474797307900549640e+03,1.378109436068436708e+03,1.519878662707991225e+03,8.056341215572179193e-01,-5.615046803251088070e-01,1.888548547316893089e-01
1.060197330906453772e+03,1.363943126067840922e+03,2.732318667305491545e+03,2.060055580277646292e-02,-3.599949252764312879e-01,9.327267932657629101e-01
2.224604531527327708e+03,1.874954936147196577e+03,8.933768413053192603e+01,6.838389272115651119e-02,-9.967491251783140438e-01,-4.260075906092675169e-02
2.051101534529699620e+03,1.524760865125484315e+03,2.555823648890036111e+03,1.298857945121531521e-02,8.804221694950511434e-01,4.740127638212571215e-01
1.462649670250480995e+03,1.468998641791794626e+03,1.451935758911659150e+03,2.871708572205138819e-05,5.457166615172450719e-01,-8.379697634866078992e-01
2.023163383765102026e+03,1.641181946024517174e+03,7.449080279981111516e+02,-1.956038084749408884e-04,4.821948982970962749e-01,-8.760639484623272688e-01
2.174751703631466626e+03,1.964089193847951492e+03,1.706481753068777891e+02,5.550564954016057612e-06,9.761944433106481966e-01,-2.168972310072329046e-01
7.000539229887120882e+02,1.075540191728631953e+03,1.422323320021965628e+03,2.292338177635369345e-01,-8.674207194314337288e-01,-4.416255793028835974e-01
1.610913706001555965e+03,1.634331524468793987e+03,1.521736141257546024e+03,5.610014424987302267e-02,8.252536139216366806e-02,-9.950087127971474210e-01
4.305830859770611596e+02,1.602221228328509369e+03,2.631931743048434328e+03,-8.299847898169565585e-03,9.342405721395241613e-01,-3.565468635302826428e-01
