x,y,z,nx,ny,nz
2.488881704296278258e+03,1.482334173942578445e+03,1.382711457083165442e+03,9.928063526102467451e-01,-6.532346635378044088e-03,-1.195528111931030146e-01
2.114095029555921883e+03,1.225134011225954282e+03,1.293502854090399524e+03,-1.826964890993666712e-01,-9.288590251017894150e-01,3.222466514297990248e-01
2.031152346693454319e+03,7.353095354099792758e+01,7.516739807666413071e+02,4.168002708646552645e-01,-7.839634263915024048e-01,-4.600857314540904852e-01
2.234398670956191836e+03,1.384087151730884813e+01,1.945865724373553803e+03,3.292013918441742404e-01,8.550317881934706987e-01,-4.006832724066909379e-01
2.319272092053163306e+03,1.961362038856916570e+03,2.627141592493831013e+03,-1.146341782390565903e-02,-9.381476847356416959e-01,3.460455341092405490e-01
4.514676925501594837e+02,3.583753188134652987e+02,1.519836793872841781e+03,3.990765928742946445e-01,-3.737114596698013491e-01,8.373037787633058615e-01
5.736117016835675031e+02,1.175268170730503243e+03,1.270987935514540141e+03,1.609584670777179302e-02,-9.723782427384346505e-01,-2.328550552761819437e-01
2.117388160897095986e+03,6.073529732667378767e+02,7.533438534109159264e+02,-5.114523285395052368e-03,-9.615763887811286104e-01,-2.744898726550892842e-01
4.986957694286400056e+02,2.165655353071687387e+03,1.546765043091208554e+03,-5.982327851869743279e-02,2.175170098218565384e-01,9.742214972917774274e-01
1.082519940937958154e+03,2.410543118905890879e+03,4.971967819757122697e+02,1.826465617962009624e-04,2.899633291437618277e-01,-9.570377392726474586e-01
7.751584745751557648e+02,1.023611794775332839e+02,1.120209408890236091e+03,-4.694470599791088494e-01,-8.678744845337573732e-01,-1.625218046055232068e-01
1.311593656862837634e+03,2.188479525519312574e+03,2.205799594110439557e+03,-2.646804995630122614e-02,5.557425845850043344e-02,9.981036740380723193e-01
5.846685642775454426e+02,2.121033923996939393e+03,2.573178741014522984e+03,9.204881258417380030e-01,-2.387887207018261210e-02,3.900402667071961038e-01
2.992305910481295996e+03,2.021290610865843973e+03,2.147712184211543899e+03,5.795621617278657878e-01,6.029936542131174582e-01,-5.481845981711219729e-01
1.413637745224403261e+03,1.482042289642781270e+03,1.497352516738687655e+03,1.294120558394883935e-01,9.862906969692731840e-01,-1.023874058430169764e-01
4.344999638948652319e+02,2.175464992596910633e+03,1.002657297221890872e+03,-9.631948665039338220e-01,-1.836401871370453021e-01,-1.962955190745323542e-01
2.028871102291049283e+03,2.633434928318401489e+03,5.462614009812696168e+02,-4.087989617384694963e-02,-8.216167301935297651e-01,5.685725835413697471e-01
5.240978556603954530e+02,1.702699631300045439e+03,2.781583875916808211e+02,-1.043810612539071680e-04,-7.266498163597698290e-02,9.973564004649677628e-01
1.571814623111960373e+03,2.537291648180528227e+03,1.156291574741977001e+03,-1.902573080541739578e-03,-9.999227232940776089e-01,1.228526173219372970e-02
1.577606369037741615e+03,1.580776478338542120e+03,1.461125150279654918e+03,8.113775504470877031e-02,9.842866370945032584e-01,-1.568326520323443940e-01
2.839880016904843615e+03,1.556375260809035581e+03,7.666985500210299165e+01,6.100986021157132986e-04,6.946777433339772490e-01,-7.193208329362555942e-01
1.378199003532206461e+03,1.461140206397745942e+03,1.469647256486667402e+03,-2.522551353645872615e-02,-2.914365392017780887e-01,-9.562575056358576520e-01
1.483378724231776687e+03,2.276343311767316209e+03,6.198512515209914682e+02,-2.172210061602792563e-01,6.970019886466979342e-01,-6.833763694372700925e-01
2.575402425300886080e+03,1.576156686325349938e+03,2.458537052851898466e+02,-3.178872165282887324e-02,6.638626619287821828e-01,-7.471785886068406102e-01
2.110294339757136640e+03,1.115213747501303260e+03,2.300396506649292860e+03,6.061592953328869384e-05,7.184546221343611760e-01,6.955738294814444167e-01
1.488998594662935830e+03,1.505767838138125853e+03,1.470869714778364141e+03,6.197696931799629577e-02,9.927427010207490188e-01,-1.030571921031421256e-01
1.259433390433736122e+03,2.516883143324858338e+03,1.739507025192178162e+03,6.622360824233304299e-01,7.377242868764949391e-01,1.311725874150811155e-01
1.329390413687405044e+03,3.000000000000000000e+03,3.000000000000000000e+03,8.822044865449093706e-03,5.961805531441073391e-01,-8.028019180203658234e-01
2.863670285221153335e+03,2.466427966701488913e+03,2.991590631464604940e+03,-9.592064642244003680e-01,2.676411195328820547e-01,-9.105597248566232871e-02
2.913191777921486391e+03,2.222680859161178546e+02,1.050041982041498841e+03,4.390763462637833209e-04,4.648080569316925814e-02,-9.989190867703329202e-01
2.558107328483783931e+03,2.352563705499585922e+03,1.736941871974936248e+03,-6.088135615004306583e-02,-5.992697108924784910e-01,7.982288356606624946e-01
1.028009203298092416e+03,1.538419710440638482e+03,1.561285534403151814e+03,-8.224478146213546337e-01,5.549472786939076974e-01,1.249524313280239302e-01
4.481004128110403713e+02,1.680233212604807932e+03,2.862776731025388131e+02,-3.042766828615545385e-05,2.905733248213103193e-01,9.568527274227973667e-01
2.258681344511503539e+03,1.468718793296947752e+03,6.829852859721486311e+02,-9.640482784527317772e-01,8.052336693507745891e-02,-2.532329050296642237e-01
1.706092135496908213e+03,1.164006935815454653e+03,3.593095155097311135e+02,-7.532931938931249028e-04,2.437565198656873877e-01,-9.698361673872204491e-01
4.780418865336728800e+02,2.368963311421959588e+03,4.049094374265233114e+02,9.159798051692255028e-01,1.869431379998157949e-01,3.550116331571822603e-01
1.059321306183511751e+03,2.532889496536772185e+03,2.825474941154922817e+03,-3.309412448721411881e-03,1.791422995719561817e-02,-9.998340503074922836e-01
4.535574516324564343e+02,1.293990134509240988e+03,1.655794075665357923e+03,6.243376742716914007e-01,5.662265344435419845e-01,-5.381356522077604954e-01
1.009381258601432478e+03,2.433811138883082549e+03,9.039170965593764322e+02,9.370090883248087810e-01,1.050941690416004326e-01,3.331203746848369063e-01
1.202996284726799331e+03,2.170165164979815927e+03,2.265084145354988323e+03,-2.541052957673579082e-01,-9.661875043808467733e-01,4.372876674792791629e-02
2.145138437986330473e+02,2.759791349990709932e+03,2.274958470390851289e+03,-1.295528070110098760e-02,-8.965080157676437178e-01,-4.428380498176709423e-01
1.503816346023916367e+03,1.493017676778575378e+03,1.520887900322966743e+03,-2.470404169614182355e-01,3.264814360515055358e-01,9.123491131695560252e-01
2.744163173108535375e+03,1.529558368118942781e+03,2.538182246693931461e+02,1.824998619135015593e-03,-4.067097556242561529e-01,-9.135556053465481163e-01
1.877706534198081954e+03,5.298737840890460120e+02,4.297916407083171748e+02,-1.698232780802595016e-02,8.747080225572703704e-02,9.960223186731109735e-01
3.196466859649411845e+02,9.955474671995798985e+01,2.812125534569926458e+03,-4.586838137963896167e-01,-8.742891130273190425e-01,1.588323197686886123e-01
2.790961031717445621e+03,1.640885696087633733e+03,6.799334103963481368e+01,-1.116315040132198969e-02,8.076000553420994432e-01,5.896249101628554534e-01
8.497873606758683991e+02,4.512724272539981030e+02,2.435164279419595914e+03,-1.159947901035300426e-02,-9.506095460327897984e-01,-3.101724408744619965e-01
2.895606287477832666e+03,4.872018784221036185e+02,2.625908734228430149e+03,-1.310036611808031506e-02,9.998980662089296256e-01,5.677816412603097114e-03
3.687276633390122242e+02,2.005318920952285225e+03,2.679044241384711768e+03,1.553127309830164282e-01,-7.725932222042597441e-01,-6.156116215591097562e-01
2.905517675263837191e+03,1.648662654815688029e+03,3.375271870409126791e+02,2.526648812245360642e-01,-3.858982474618202763e-01,8.872671527796387458e-01
9.778256434043312311e+02,2.399981110498907583e+03,9.025655624248996673e+02,-5.041622327251021884e-02,3.031853809364036881e-02,9.982679954194669802e-01
2.878029553799677160e+03,2.298823562346619838e+02,1.105186679806900429e+03,5.983269225022753296e-03,-9.988761664551458752e-01,4.701706687206876067e-02
2.170066575598327290e+03,1.279363229611293491e+02,1.915178657450079754e+03,-8.532763359849110385e-02,-9.961287230357517286e-01,-2.113674732886689639e-02
4.458660318404717486e+02,2.050516994837811126e+03,2.503779367592708240e+03,3.275854892383351161e-03,-5.081305080864098045e-01,-8.612738562887944926e-01
2.916581265533754504e+03,1.611658331659084297e+03,2.472835112376376898e+01,2.432023343852053598e-01,9.601637221261689614e-01,-1.376163190265160541e-01
1.631627776626305604e+03,1.481746177827908468e+03,1.631581426943531596e+03,-8.834007226078645081e-01,-3.326193468115521412e-01,3.301023075086864655e-01
4.877215716567881145e+02,2.046059003596054936e+03,2.708198582380791777e+03,-1.083049093663425748e-03,3.552969940389291703e-01,-9.347528406116569766e-01
2.103960068578182359e+02,6.743009983805602587e+02,1.719063153919249316e+03,-7.725618263648609263e-01,-4.543346346341008979e-01,4.435406004140867720e-01
7.171667785189370647e+01,2.635674771993416925e+03,1.534386671004519030e+03,-9.166613887360161583e-02,-1.475617026394282216e-01,-9.847958483351554326e-01
2.887652541395494154e+03,1.692508785108143911e+03,9.383465570845548598e+01,5.509509807464556957e-02,-2.881232713156607339e-01,9.560070662367028405e-01
8.572406509115339759e+02,4.182599008935442271e+02,2.428271886004862154e+03,-3.543523132161912030e-07,4.659051803215140675e-01,-8.848346528868836769e-01
3.633681196281601800e+00,1.967563372069195111e+03,1.461583662536733925e+02,4.455044064283909533e-01,-8.933020227856771633e-01,-5.947537254952406371e-02
1.472522957049238130e+03,1.533825419720957825e+03,1.578995312083219915e+03,-7.295677702692544842e-02,-9.931673136738788932e-01,9.108235688460485091e-02
1.575548821424417611e+03,1.115372844538819436e+03,1.436190679144964633e+03,-4.774303906713984191e-01,-7.300866480353525312e-02,8.756311763105291135e-01
2.295469154700599120e+03,3.884946764152333003e+02,8.454795894834445562e+02,3.251557626377407596e-04,3.120708617726364875e-01,9.500587726589414528e-01
4.274698907267225536e+02,2.000856937069937203e+03,2.664747090669232421e+03,-1.737368417327531805e-02,5.813534898637314763e-01,-8.134655954135415756e-01
5.607678372110570990e+02,2.152429081613960534e+03,2.703864599948922660e+03,-1.651833766453855989e-01,-8.068282820213081852e-01,-5.672235673969947545e-01
1.442098051347005139e+03,9.955572108552245254e+02,5.236019827856855500e+02,6.456955555522971846e-01,-7.072488274456066870e-01,2.878825205128383580e-01
2.847871902551535641e+03,1.673409061890134353e+03,3.065186614812165544e+02,-3.038731020222880039e-02,2.557111283610644104e-01,9.662755456964564615e-01
1.337031472025723588e+03,1.776835502763237400e+03,4.190658847715512820e+02,2.000639325128951429e-01,-8.816782096965054549e-01,4.273382237219609525e-01
1.374908002891008209e+03,2.435685211397265903e+03,9.568386115837121224e+02,2.865943529266472040e-04,-1.704257671733153401e-01,-9.853704763930487553e-01
2.312276519829984863e+03,2.040093374358248866e+03,5.455709784159267883e+02,4.036723332359163502e-02,-2.053754534910643137e-01,-9.778504024528180683e-01
2.728991971769989959e+03,1.560723847726631675e+03,1.682592278155718191e+02,2.356928105262571550e-03,-6.055342536214886051e-01,7.958157529107937611e-01
1.471656259388180615e+03,1.582451729294537472e+03,1.548513773092678321e+03,-5.966906100394617912e-02,-9.219265736692880964e-01,3.827414217475214042e-01
1.159466173610858775e+01,1.957297229809678811e+03,9.453116637140078637e+01,5.730882998990654009e-01,-8.176833169050393701e-01,-5.444073634670999057e-02
1.267952304938418138e+03,2.575402086746547866e+03,5.057978817993187022e+02,8.487424145438325629e-02,8.242460038202799322e-02,-9.929766101925090460e-01
2.934262147232903317e+03,5.855575934585475579e+02,2.579297067182544652e+03,8.646678007752943776e-03,-2.167612127052758464e-01,-9.761863611144997455e-01
2.928676221187872670e+03,1.627733196997479581e+03,2.290614739207976243e+02,1.474739909421034778e-01,-5.974828266240257424e-01,7.882040940549426278e-01
2.464978600850165549e+03,2.607574457979972067e+03,2.567473867136683566e+03,1.552295596649216070e-01,-3.869084562060055854e-02,9.871204598585714418e-01
1.240133577284075727e+03,2.582967899095595385e+03,5.314787108014618298e+02,9.898196728135273403e-01,-1.316187717587493922e-01,5.416192603702519454e-02
1.995190553208256006e+03,9.974233142120293678e+02,1.432987653275981756e+03,1.231404434604431268e-02,1.050907772896049891e-01,-9.943863901122693694e-01
1.474744068816351955e+03,1.515865727731243624e+03,1.479069356911033083e+03,-3.742648564130156383e-05,3.507872913810949345e-01,9.364551643323737462e-01
4.821272843498270504e+02,1.778448422609319550e+03,1.861669192014441876e+02,-1.054313535916706762e-01,-9.296376957403683361e-02,9.900716980231348829e-01
4.525496622888317688e+02,1.634755613000814037e+03,7.988617105454459306e+02,-7.840151287639696154e-01,6.201874029598671845e-01,-2.622714393737424557e-02
3.000000000000000000e+03,1.731942297235762908e+03,1.454704339916137087e+03,-9.757742659823580994e-04,9.965557334662689115e-01,8.291994910809312447e-02
2.956154512507726395e+03,2.524715672751166039e+03,2.413828739503638644e+03,-4.989192058306419347e-02,-1.713891711533449269e-01,9.839393011115586951e-01
2.139030789540676778e+03,4.469802410936885906e+01,1.894614313241050695e+03,4.789223105161822180e-04,4.669909541342420201e-01,-8.842619631026831239e-01
8.141413167543586269e+02,4.115113422794023563e+02,2.387796496894753091e+03,-2.591483757001830646e-01,8.698080241877305108e-01,4.198524984212826383e-01
1.544694494432307238e+03,1.522168718619596348e+03,1.496835497042309726e+03,-9.365377679269558664e-01,-1.926771105375549575e-01,-2.928694936679034355e-01
2.880807518445044479e+03,1.701830234726613526e+03,6.750702883868420656e+01,2.494240512202026885e-03,6.273578506494799367e-02,-9.980270537598426861e-01
1.880150306551372978e+03,4.319245754780340576e+02,3.810087678311605828e+02,5.180418025962411077e-01,-8.517344484804491023e-01,7.862009943101490317e-02
2.941126450756205941e+03,2.538463200139084819e+01,1.048859217248730999e+02,-1.680755158562868556e-01,-9.395347756370820980e-01,-2.983706190934705127e-01
7.345122457560474913e+02,1.085796615621998626e+03,1.183475448342593609e+03,-2.236988708921199345e-02,-4.474544095402667732e-01,8.940269232716581138e-01
2.908553824358549718e+03,1.567161522362352116e+03,2.090947034373121483e+02,-9.751584224657261490e-01,1.965652268137578207e-01,-1.021183759262380697e-01
2.739337493312973947e+03,1.717949228967299632e+03,1.054630889057571466e+02,2.021086131537704769e-05,6.389389818005114519e-01,-7.692574192864484184e-01
1.010233029525664847e+03,1.288082239992202176e+03,2.083710073864092010e+03,-1.218234114197909966e-02,-6.933662015386408140e-01,-7.204824086181267351e-01
1.251482712024025659e+03,2.128101648511839812e+03,2.209238925993311568e+03,-7.939339180230623946e-03,-3.850439806937038800e-01,9.228640744036620269e-01
1.970735329554959435e+03,3.546107476000860856e+02,4.320299350057273386e+02,1.868827861571374649e-02,-9.952372077084645774e-01,9.567470216854652432e-02
1.546925350188575294e+03,1.431189677522618013e+03,1.377419330919295135e+03,5.068130810538144099e-02,1.062179012973015618e-01,-9.930504329855176504e-01
1.652187701161293262e+03,1.537337440119061739e+03,1.655516114219279416e+03,8.022724563341858683e-01,4.237132244591532704e-01,-4.205068480131317066e-01
5.359175312040623567e+02,8.299434422900770869e+02,4.387382364701883830e+02,9.977234493685848138e-01,2.921180083183276890e-02,-6.078313312272066310e-02
1.127753761832776036e+03,1.635439038795244414e+03,5.792316385403884169e+02,-6.930902302782633306e-01,-6.464718824252211338e-01,3.189044338456509808e-01
1.571076291994641906e+03,1.603111610841677475e+03,1.388420066175473266e+03,-7.139408528814413998e-03,9.505349858700862242e-01,3.105354560800000496e-01
2.529331519287508399e+03,7.088165111567191161e+02,1.667252496357879409e+03,6.976046345418779326e-01,6.503363360970924878e-02,-7.135253326723662859e-01
2.741097172898176268e+03,1.004512458000022775e+03,1.606849957752869386e+03,1.897291218396664481e-01,8.876079536103302914e-01,-4.197082093712617978e-01
1.534266220918083036e+03,1.532875967710890336e+03,1.433473332391997701e+03,3.155719974913746059e-04,5.831055951763004508e-01,-8.123963104842407690e-01
2.721146531042397328e+03,1.676455841312885696e+03,6.108269876466103199e+00,-5.939441640598600025e-02,7.407963243680972809e-01,-6.690987289649481529e-01
7.781084027816203843e+02,3.667278051102905465e+02,2.378350510478440810e+03,-2.186331992930346663e-02,5.065354921972183844e-01,-8.619418718139818525e-01
1.492477297944128168e+03,1.487003626316676673e+03,1.375913648389816672e+03,2.073102537892071873e-03,9.424617536120525330e-01,-3.343075608244034380e-01
2.775373507142322069e+03,1.726635691570151039e+03,1.613857318702978887e+02,8.289939593807427176e-02,6.071777776563780371e-01,-7.902296099700165666e-01
1.476126215397840724e+03,1.518462126779427308e+03,1.384862525832043275e+03,5.377724243153980850e-04,-3.277634980464222969e-01,-9.447596520539986997e-01
2.815587308924966692e+03,1.707301603407405992e+03,2.572739136554601487e+02,1.132206221029144174e-03,-8.534402685285767953e-01,-5.211894340476825871e-01
9.824158502604259411e+02,2.447758691642755366e+03,1.918626908555741693e+03,-2.954276157335691821e-01,-2.484826633173964072e-01,9.224851705543412050e-01
1.691513482532847320e+03,6.375004253664867520e+02,1.906825652769807220e+03,-2.148807834036058628e-01,2.134046955436822990e-01,9.530397079050594300e-01
2.935513078651468277e+03,1.251835400635623614e+02,1.670112663767344429e+03,-6.954000916033041824e-01,-7.111661182757136324e-01,-1.032543694705936321e-01
1.494520839932386934e+03,1.552875918792994298e+03,1.650204135537182310e+03,6.899080626548541317e-02,9.838176395481617043e-01,1.653575543019482341e-01
1.540091497019086546e+03,1.561044987957684043e+03,1.395775797365851304e+03,-1.841200858859259604e-01,9.826308790042493913e-01,-2.315922279990673127e-02
2.608556005404140024e+02,4.864306160642158829e+02,1.542574369146352183e+03,9.646599604317012133e-01,-1.218450605011884950e-02,-2.632160681877595554e-01
2.807666032788637040e+03,1.661503391404389276e+03,2.347518734960540030e+02,2.674991592110294997e-02,-6.729496116790164573e-01,7.392044792473020376e-01
2.510672165704286726e+03,1.528078076341978885e+03,1.410537058817982825e+03,5.743939530738308985e-01,4.079579044916911180e-03,-8.185688387099976371e-01
2.732768689915195864e+03,2.225390186812144748e+03,5.402165525257439640e+02,1.539897027620177605e-01,7.271389268403140038e-01,6.689963770580390490e-01
1.887083976180461207e+02,2.838405763664894494e+03,2.828122438011804206e+03,-8.620545803816408448e-01,-4.904503862922645063e-01,1.277510040226757515e-01
1.565515165639822044e+03,2.036514480857109675e+02,2.444340669108989005e+03,2.920438184570092049e-02,-9.349954208627885288e-01,3.534553253901084879e-01
6.269219069185573971e+02,2.590041482845786049e+02,2.549562425681437617e+03,-8.621734859548237928e-01,3.291494884357660244e-01,3.851201038364275853e-01
1.052286023145897161e+03,1.796911160997620073e+03,1.276525350213717502e+03,8.107807991571842621e-01,1.148164725130431385e-01,-5.739788091538740034e-01
3.735870063311852363e+01,1.875444297236790362e+03,7.295688551863248676e+02,-5.327604467820370449e-01,-7.520354385944503228e-01,3.880837608592466736e-01
1.222281507182305404e+03,7.959322651194594300e+02,1.854041247312396536e+03,2.277284805409406643e-01,2.597355201256174584e-01,9.384440306888788275e-01
1.680506850156039263e+03,3.987761261803778439e+02,1.138593664987221246e+03,-8.415571231982835743e-01,3.191573005774828165e-01,-4.357983775581586450e-01
1.051797436528608216e+02,2.899393980291093158e+03,6.036061511335114460e+01,-4.420968443412245859e-05,9.751441522816223229e-01,-2.215713887587021369e-01
1.442766512504352704e+03,1.053810576544318792e+03,6.660133587017020318e+02,-2.146396099498708299e-02,-9.378809558645228028e-01,-3.462926666925747465e-01
1.304530261662534940e+03,6.665621801342184654e+02,2.589957590603192330e+03,-7.810427948336100545e-01,-6.227892760482788281e-01,4.588758304557250672e-02
3.755054656946171576e+02,1.135068645156555021e+03,2.887367449974128249e+03,-6.867498933862716815e-01,-6.638055617089460014e-01,-2.962039165477310387e-01
2.619908778679026909e+03,2.264528977063608181e+03,1.036590334233912472e+03,8.205152193851108500e-01,-5.710998175359301987e-01,2.449026679786636684e-02
2.989337004962680112e+03,1.378454535951033222e+03,1.876711013096032957e+03,-4.662725975907365539e-02,-9.636042926243079121e-01,2.632350012505310088e-01
1.449689994156539797e+03,1.507650950241783448e+03,1.380908119376264722e+03,-3.048890167013385173e-03,-9.967046588570639409e-01,8.105878904457673728e-02
1.097027791181871180e+03,6.494419234009604907e+02,5.313835310727668002e+02,-7.970051180667799828e-01,3.551383768680382857e-01,-4.885279675217105155e-01
3.438946661674627876e+02,2.830289307267971708e+03,9.969656473661656264e+02,-2.831112806323708708e-02,-5.630532241712765673e-01,-8.259355584899569225e-01
1.838178105347970757e+02,3.988857659319278071e+01,1.575549473056686793e+03,-2.686236430091208383e-01,2.672683262341955523e-01,9.254236760578800070e-01
1.544052577994153353e+03,1.631318705625781604e+03,8.617366891564399793e+02,-8.472756015937983262e-03,-8.129511186557712987e-01,-5.822702903994195767e-01
2.850757598146602049e+03,1.689856765730545249e+03,2.607446606873089650e+02,6.985999518448557377e-02,1.389611242616234088e-01,9.878306469313296034e-01
2.659269636814393834e+03,1.662006835267404085e+03,1.097483564524974327e+02,-2.644640979107125422e-02,9.399017869258842195e-01,-3.404191803390233528e-01
2.867061920215373448e+03,1.556922430715658720e+03,2.598326460729358018e+02,1.318033568701542091e-01,8.718119317662447187e-01,4.717751908989782361e-01
2.676164855416215687e+03,1.008319036352949070e+03,1.545219764373241787e+03,-7.276624128865816221e-01,6.355472636207456505e-01,-2.580447414233831283e-01
2.689359264409009029e+03,1.718033644529486992e+03,1.615330077078274371e+02,-1.151806359123992544e-04,9.899888706380340908e-01,1.411453957670994463e-01
4.644254246402268791e+02,8.772955399674244745e+02,2.912170351130310792e+03,7.632814643638485830e-01,-1.729325908441728954e-01,-6.224915462739240013e-01
4.572990798765505929e+02,1.970215001077195438e+03,2.681327909122350775e+03,6.932286317554727482e-03,-4.624534924714028827e-01,8.866164394524915782e-01
3.776056200517729877e+01,4.146523896093723351e+02,2.758848571103269478e+03,-6.100199698764109391e-01,-5.214747566362207820e-01,-5.966068341405226239e-01
1.193059558552315593e+03,6.721405370361267160e+02,2.000985351615860509e+03,-9.825355133978243005e-01,1.202130953306303207e-01,1.420309002404152310e-01
8.076339147658627553e+02,9.330738222061324905e+01,1.167891672393635190e+03,5.507569787648354254e-01,8.204046763548414889e-01,1.536324098520179815e-01
3.196151084643520335e+02,2.080828827493489371e+03,2.654573251158863513e+03,3.828324443956620388e-02,8.262018621349892511e-01,5.620719493088556229e-01
3.733507561668183143e+02,7.093671750809635341e+02,7.229865684706172715e+02,-1.350242788448897391e-01,6.957227323771222882e-02,-9.883967537982683016e-01
2.622140655164209420e+03,2.860528558973651343e+03,2.605657294940988322e+03,3.979778511018661757e-01,-5.866730173767732426e-01,-7.052860417691344530e-01
2.298706704038599582e+03,4.985377907544250888e+02,2.433807812849467609e+03,4.879783675987459102e-03,8.475219714642762137e-02,-9.963901107448470684e-01
3.834248465624542064e+02,2.822382927996066883e+03,3.891695104557004470e+02,2.648375364258817033e-01,-5.499038753350684594e-01,7.921280244956261374e-01
1.449358049835482689e+03,1.534038278123616010e+03,1.273219090314286632e+03,-2.099957331947035766e-01,-1.152612815795815183e-02,-9.776343592620430067e-01
2.819430455807793805e+03,1.607330590353339630e+03,1.559160258934558954e+02,1.184647981722213202e-02,-6.164534933555043672e-01,-7.873021982985537459e-01
8.504151556156037941e+02,5.026525811528468353e+02,2.475312305395925250e+03,1.234747078531669463e-03,-2.072399035388120814e-01,9.782893732331328085e-01
1.074090845689506523e+03,1.828147160619980014e+03,3.621595437352398505e+01,5.135803131304691460e-01,3.758255040933243252e-01,-7.713562422368849258e-01
1.547774469141727423e+03,1.642178923550023910e+03,1.371846157374847962e+03,1.202482631318145187e-02,9.505949560858085734e-01,-3.102009558598384231e-01
1.519323507365013029e+03,2.442342566632399212e+03,1.419237963445112200e+03,1.811853907621737148e-01,6.164173351968890158e-01,-7.662907562036257447e-01
8.929805997579890118e+02,2.923871016394863545e+03,2.207375656800499200e+03,-7.303492050472911723e-01,-6.741669465904660541e-01,-1.099498377064638266e-01
1.726805135487583811e+03,4.250652720084046905e+02,1.353316151983196960e+02,-6.902997855502872593e-01,-1.790446932754354292e-01,7.010201166008951379e-01
1.394166549238098469e+03,2.046440960883179741e+03,2.883960433888494663e+03,-1.359912656602181302e-01,8.220476729561763118e-01,-5.529412256754486776e-01
2.734389757918929718e+03,9.750121060201247474e+02,1.490456601530583157e+03,-3.019162259246453706e-02,5.855765639882687390e-01,-8.100546608920458080e-01
2.790965225450705930e+03,1.747881608051992771e+03,2.698003088046012635e+03,-1.112473478715105641e-03,7.554069331909898377e-01,-6.552550096639800925e-01
2.805625027897658583e+03,1.751174194812043424e+03,2.692064922027517241e+03,1.963046607270639999e-03,7.101620906756341833e-01,-7.040354759635553128e-01
2.854632127916981972e+03,1.697328521817642240e+03,2.405508878570239517e+02,1.199805659964249815e-01,-3.623299755933212518e-01,9.242952193805400452e-01
8.817999896855748148e+02,2.918944452107673897e+03,2.769231543244557088e+03,-8.937378248622493970e-01,-1.689128665543019325e-01,-4.155732714250326421e-01
2.844861519676851458e+03,1.727926722277733006e+03,3.036349866298678180e+01,3.291189151947002123e-02,8.127326440321552825e-01,5.817065039357154355e-01
1.594281977058894881e+03,1.665742716644862867e+03,8.811709476851740419e+02,4.623237723427095491e-01,7.072821040655484157e-03,-8.866829787073469138e-01
1.730159901537449286e+03,1.235659651389717055e+03,3.605983874349577718e+02,2.621445464446971463e-01,1.285224739377826553e-01,9.564320208264757150e-01
2.904995020700196164e+03,1.745320213279215523e+03,2.668969493077137258e+02,-3.288533224365558505e-02,9.305893053634558543e-01,-3.645848319203436327e-01
6.992574904757922241e+02,1.147374610371797189e+03,1.214724814878612051e+03,7.898609384015733981e-02,7.789931473234655845e-01,6.220376784431592698e-01
1.493926276301525149e+03,1.405988101055748075e+03,1.391685976589773418e+03,7.592580548606594482e-01,-3.798790404858033987e-01,5.284118854916051156e-01
1.442212949290517599e+03,1.593954449616567899e+03,1.585277214246234962e+03,-4.451637556807309659e-01,-5.398902966368914758e-01,-7.143862388271178254e-01
2.678955487234551128e+03,2.832220686137926350e+03,2.662062990351364078e+03,-1.958422774212810122e-02,7.696556264312058859e-01,6.381588162256575103e-01
2.710661830637578532e+03,1.510805691301330626e+03,1.788032079890373893e+02,1.891810397118241505e-01,-5.946013041557578482e-01,7.814472620144146120e-01
1.181595640826365980e+03,1.107659740946996180e+03,2.731887439636336239e+03,7.531569257663783823e-01,-5.678643316612371761e-01,-3.320914723341666375e-01
1.923836807349987112e+03,1.793829933574341567e+03,2.722319639305690089e+03,1.230685940663189121e-02,8.348787433022374360e-01,5.502963067235889794e-01
5.077941593250896517e+02,8.154170813696418918e+02,9.728225748169652434e+02,8.734396560644556162e-01,-2.773587922789123028e-01,4.002190244848295997e-01
7.843747644153029341e+02,2.629718073625044326e+03,1.490561953799689036e+03,9.101696287761343873e-01,2.519847988977535480e-01,3.287779006836870632e-01
8.346329865854338550e+02,4.231414008885348039e+02,1.811489069195332831e+03,1.614427711465647730e-01,-5.943024044373527159e-01,-7.878711085732863495e-01
1.480023075781652551e+03,1.552945413090399143e+03,1.588416260536653454e+03,5.960769454719449904e-03,4.736044655717280838e-01,8.807174799094348305e-01
1.165404268145839296e+03,2.605788290828095342e+03,1.794204476454486667e+03,1.331453087948191935e-02,9.995843440446535721e-01,-2.557073343255873710e-02
7.803364351114971669e+02,1.633907262468006820e+03,1.829442094918035764e+03,-1.350140743671732202e-01,5.848832357484117228e-01,7.998017255940645942e-01
1.477364501238824460e+03,1.461418179506334582e+03,1.390962149237016774e+03,6.196438037591157043e-04,2.819335704734433068e-01,9.594337277173721201e-01
2.873221626754954286e+03,1.707937892883443737e+03,2.848866632936393444e+02,-1.871512486945611231e-01,-9.146415265715405196e-01,3.583368359280811322e-01
1.230175657988673947e+03,1.752352579696110070e+03,2.185981522752797446e+03,-2.365093354342808971e-02,8.383374106851003704e-01,-5.446384297755032522e-01
2.081812461852343404e+03,2.488521318697536117e+03,1.608181632758079786e+03,5.559747608018757170e-02,7.022360138833477761e-01,-7.097700342073759439e-01
2.775195757497336217e+03,1.858841255998339875e+03,1.919909911749784044e+02,7.490404664029019643e-06,7.023904233529798535e-01,-7.117918889155141482e-01
1.375030039796583651e+03,2.081694788011881883e+03,2.908475691054753952e+03,8.830957489657937634e-04,-5.634526169453960565e-01,-8.261479096380277554e-01
2.782112210020468410e+03,1.772509716601662831e+03,2.570021130970970376e+02,2.538124779204565347e-04,-2.969081930156747817e-01,-9.549059956348545652e-01
4.975456912064135651e-01,2.444744439859097838e+03,8.345703499371240923e+02,1.916974434178009556e-01,6.912162020905918691e-01,6.967583886502817236e-01
7.130017104507079466e+02,1.095906449434804699e+03,1.208193687142395675e+03,1.001727834126756381e-02,-1.807081044642740997e-01,9.834857574543530712e-01
1.192810015915554686e+03,1.188253554735302487e+03,1.643899141026565530e+03,2.470606027135440197e-01,5.421991951216306171e-01,-8.031071481416888203e-01
1.737737184771922784e+03,9.081684293652671158e+02,1.096062321268105961e+03,8.413923658445208176e-01,-2.901178349890908836e-01,4.559501381947401732e-01
2.919862534251443321e+03,5.905150743130783439e+02,2.581192227711470878e+03,-4.311698151114249896e-04,-4.015529863354503903e-01,-9.158356911901130992e-01
1.646851416915780646e+03,1.484177245255735897e+03,1.652349180371453258e+03,1.140895339019137311e-01,-6.370015692226019821e-01,-7.623729920858861586e-01
2.786472888464449625e+03,2.501961732088012468e+03,1.192505860322693252e+03,-6.739427565299825895e-01,6.734091921461279329e-01,3.038440732577616377e-01
2.375480559842691974e+01,2.222880141474642187e+03,1.059598789135589413e+03,-4.032247519901262754e-03,5.210637999611471560e-01,8.535082057894862739e-01
1.667175186843031042e+03,1.447295309664816841e+03,5.724922981835032942e+02,-3.427427959155689430e-01,9.377900709183577543e-01,-5.547214377433351551e-02
2.681379898799598323e+03,1.772324579972734455e+03,7.469160384920462548e+01,-7.946296370683362265e-06,-5.672971780913289574e-01,8.235131520907674751e-01
2.193551664875665665e+03,1.110849419145441288e+03,2.344109009576246081e+03,-1.748972488390499735e-01,6.861839592386762554e-01,-7.060896022687673801e-01
2.933115425630519439e+03,5.935727623287270944e+02,2.498119744942823672e+03,6.248892843698450328e-03,-2.670340463589296331e-01,-9.636668352825084050e-01
4.745982723417278066e+02,2.091838964932635918e+03,2.490572208845326259e+03,-3.234659317331822466e-04,-8.068953793201919522e-01,5.906942882756821556e-01
2.083442900988740803e+03,1.215480661295789332e+03,2.328271296424549746e+03,3.763348948464325603e-07,-3.908520892984729267e-01,9.204534992550558181e-01
2.433331110870627981e+03,1.145492669887337343e+03,2.584567820017491158e+03,-2.721576957210192476e-03,8.171792197680757819e-02,-9.966517818409087459e-01
1.536015838060974829e+03,1.464496369393888926e+03,1.340799519702015232e+03,-1.059959278886506984e-01,9.896422578578328855e-01,-9.681458946395783693e-02
2.356529013562369073e+03,1.035021219595286993e+03,2.561852028473163955e+03,-6.315116759957450920e-01,4.528098539866716454e-02,-7.740430449544590807e-01
2.054958903245332749e+03,1.150655163083852585e+03,2.230816801861715248e+03,1.838988718531466698e-02,-9.287277266666315034e-01,-3.703061190014851345e-01
2.704800760791535140e+03,2.674823020278315198e+03,1.901315604453694277e+03,1.539694094906330912e-01,9.514719160920996899e-01,2.664481447282642801e-01
2.980381165655895529e+03,2.948909536904345259e+03,2.777676714323720262e+03,7.429720542752252244e-02,-8.954999191030994510e-01,-4.388163854643565842e-01
8.770085210553062325e+02,9.234899020121656577e+02,1.927965541930648214e+03,-5.832404445648723401e-01,3.325620251179806641e-01,-7.411026131874031142e-01
2.050224956361571913e+03,2.016681138642583392e+03,2.354874197684107003e+03,1.852387897583552268e-01,-2.399705614005470666e-02,9.824004947400377663e-01
3.403610246626587355e+02,2.315538675377919844e+03,2.203300949240766386e+03,5.002224429568674635e-01,-2.873041896758927183e-01,8.168438101356598757e-01
8.006181544028795543e+02,1.540423278668851935e+03,1.888382237198116627e+03,3.573777091340413214e-02,9.416708991750741831e-01,-3.346322300331344146e-01
2.029505805499791904e+03,1.845038639539876613e+03,2.857940590534446073e+03,5.836907526848724714e-01,4.203602609241351672e-03,-8.119651685603703761e-01
2.929306528137861278e+03,6.323442115649937705e+02,2.498806032537574538e+03,5.138689554732142062e-01,-4.103522937096569789e-01,-7.533589394492450353e-01
6.797109693596047464e+02,9.952597385174865394e+02,2.214131894566270603e+03,2.697250258439350956e-01,-1.136682985356393845e-02,9.628702953215292348e-01
3.713668392627512844e+02,1.999166863533619562e+03,6.885329148357410531e+02,-9.912353484091265821e-02,6.888709989804177036e-01,7.180746977887214610e-01
7.833680162281330013e+02,1.521288313066195769e+03,1.871556025931879503e+03,2.549518515095492988e-01,9.544007055117010863e-01,-1.553024363318870060e-01
1.965214252054243389e+03,4.291112644033576657e+02,4.418016551963455640e+02,-2.541280126263458228e-01,-9.200286009645343155e-01,2.982722357274066871e-01
2.799667125610635594e+03,1.605575476661886341e+03,1.702309140798661929e+03,1.254499279368089804e-01,-9.475838073681217555e-01,-2.938490149624189418e-01
1.977981758849574589e+02,6.633847798083371572e+01,1.604608019936850724e+03,4.839206066461244626e-01,-2.428142815924413944e-01,-8.407508971853634439e-01
5.599204589408568609e+02,1.796191069971860998e+03,2.425909813684112351e+02,4.251746222423841842e-02,-9.985143747111653312e-01,3.407798264541370831e-02
1.453973558066277974e+03,1.547988616756951387e+03,1.422442112337530943e+03,4.599857110422054390e-02,-4.528313000214772011e-01,-8.904088640491113482e-01
1.414806991272495907e+03,1.633794058165446586e+03,1.486420736465993059e+03,-3.135525219800006005e-05,8.812791956484824496e-01,4.725959990668688326e-01
2.012029597219790276e+02,2.845421848101342221e+03,2.384650045295670225e+03,5.826831386654305334e-01,-7.048815121352974833e-01,-4.045026746077944879e-01
0.000000000000000000e+00,1.169905944743419241e+03,2.872046682198039434e+03,3.425718261780195950e-02,-9.843680644465375718e-01,1.727598307965941826e-01
5.348293179322852211e+02,7.597580776897966643e+02,1.120370076673860240e+03,-4.595054447666838682e-01,-2.502597902421503373e-01,8.521882325036687078e-01
6.080469231351777353e+02,8.949611597149221325e+02,1.256263944583481361e+03,3.717967391509924835e-01,9.172920036395910692e-01,-1.426273634880532715e-01
8.592428257688121676e+02,2.938397091418157288e+03,8.586630231296149987e+02,2.528293536940789607e-02,9.800620687964267663e-01,-1.970764178829483848e-01
1.606751262104245598e+03,1.502302744356607946e+03,1.500763449093696636e+03,1.164122107657365561e-02,4.376886199285737883e-02,-9.989738578620046550e-01
2.955743343804987489e+03,1.415311051867382730e+03,1.891710667365102836e+03,-1.298004116870962905e-02,-9.469907392630656506e-01,3.209985331450147528e-01
1.793892148925749780e+03,1.745121251171839276e+03,2.160715761570857467e+03,-4.967984674364376851e-01,3.692512071833460308e-01,-7.853946961537546789e-01
2.214294909662196915e+03,1.034216444124270708e+02,1.801434105581134418e+03,-3.321337972852294001e-04,-6.847021663651510215e-01,7.288229092598625947e-01
2.794680678448757590e+03,1.710131475282630618e+03,2.386781514351978331e+02,6.575463764593814098e-02,4.369619969816327387e-01,-8.970733196466579296e-01
7.020931694355272157e+02,2.121880096692109419e+03,2.929495840244779174e+03,-1.144821203714349311e-01,8.371049967337140796e-01,-5.349290313291185095e-01
9.147175269943249987e+02,9.319939867343116475e+02,1.940427014779592582e+03,-3.893445989072531754e-02,2.768809329415482592e-02,-9.988580866783588474e-01
1.480507702272654797e+03,2.358013091865702336e+03,2.521609771686074055e+03,-5.153046097056890838e-03,-7.693890653634386512e-01,-6.387596670228137263e-01
2.115911351089497657e+03,8.432037477409609210e+02,1.341376958914242778e+03,-5.499516285454508768e-01,7.501814107287627653e-01,3.671253971835915508e-01
6.585969469042224773e+02,2.758683814456904656e+03,1.951903047763090854e+03,1.189955237095734891e-01,-8.405829247930480808e-01,-5.284509550407201495e-01
2.850482746427907387e+03,1.675016050206475938e+03,9.453014264200712091e+01,-8.889581391687049194e-01,4.352995242127930542e-01,1.423648517922506684e-01
2.268112661895852852e+03,2.835057629187457678e+03,1.835100649393799813e+03,-7.032880069951119584e-01,6.702519208176115351e-01,2.369564134121413257e-01
3.000000000000000000e+03,1.421272934242628935e+03,1.885954668643117657e+03,8.922708692287430188e-03,4.430493095536816583e-01,8.964528401280228431e-01
4.986011888072516740e+02,1.500358044041032315e+02,2.277579059137555305e+03,-4.289839169941371544e-02,9.734134812433130612e-01,-2.250020500426117842e-01
9.917568064051405372e+02,2.131575297759794125e+02,2.204222277138456320e+03,-8.005597494801651622e-04,-9.839380429905419945e-01,1.785085058478443065e-01
2.880448343228050362e+03,5.990128062181282758e+02,2.179017776784525722e+03,-4.370585872943498762e-01,8.131454889834308641e-01,3.844141061643866486e-01
1.835579527475437771e+03,1.030389532757488723e+03,1.175678978144341727e+03,-3.212189423229779295e-01,-7.110750712807888396e-01,6.254523435849677071e-01
1.283215805339231110e+03,1.740285928564425149e+03,2.157201079188167114e+03,1.150841665977704598e-01,-8.330002913917794460e-01,5.411710904507993636e-01
5.901478869289317117e+02,1.287271431821840224e+03,1.739520077666240923e+03,-8.452018881836022984e-03,8.915583104044915164e-01,-4.528270558673692658e-01
2.109914187153200146e+03,1.550105637073228991e+03,1.268328058478286721e+03,-5.952418139566004879e-02,5.612440308677306700e-01,8.255071227097428022e-01
1.273083861574364391e+03,3.069667522501876533e+01,1.951859254920007345e+02,-5.111199199087992223e-02,2.894893418466096824e-01,-9.558156125696739558e-01
2.395487364081538090e+03,4.406201466746128972e+02,8.297647509345089247e+02,4.688212493277394387e-03,6.956526086822398813e-01,-7.183630479758910115e-01
2.203609610989951761e+03,4.639973969237649385e+02,7.920369495457450739e+02,2.909985211584255999e-04,6.873881508923945782e-01,7.262901936089976029e-01
4.064119949818776263e+02,2.350130201775368732e+03,2.485875941694925586e+03,4.345737010206988105e-01,-8.747657676887067302e-01,2.143141387336819914e-01
1.543621603710720819e+03,1.499525563790005435e+03,1.380162337541370562e+03,-4.348518065297039478e-03,-9.997750843473884874e-01,-2.075743502478599387e-02
7.531813484238882666e+02,5.261759487228555372e+02,1.450151075497886495e+03,-8.704881762599082640e-01,2.274537155124453092e-01,-4.364804031010813823e-01
7.445364197515873457e+02,1.461568147713446706e+02,1.136378746505416984e+03,-5.170865952606907429e-02,-2.785392629443991241e-01,9.590318521969997123e-01
1.487769184009657238e+03,1.477563483273465863e+03,1.420949131851089305e+03,-3.174905643270995934e-03,9.317658791596127310e-01,-3.630458186070599780e-01
3.899184365404237269e+02,2.026310906220362995e+03,2.639536283009656017e+03,-9.040345113375512082e-03,-2.140369760594656445e-01,9.767837248027584351e-01
2.910179337060505986e+03,1.642120271858166234e+03,2.016536235291968637e+02,-7.389167043393381207e-03,-2.762311783971276025e-02,9.995910981852620392e-01
5.285357626053778404e+02,2.957597134028552318e+03,2.681843289445954724e+03,5.150255048591338980e-01,-2.666911887349769916e-01,-8.146315358465564538e-01
2.575069510456833996e+03,4.671114484031689926e+02,1.180054352588700795e+03,-9.128908970326686800e-01,-1.350619123426083090e-01,3.852122660939643062e-01
1.159568551657977423e+03,9.563857146436107541e+02,2.749808960701048818e+03,-2.723821957299291108e-01,8.831976489340948033e-01,-3.817981827702039421e-01
1.214164146480131421e+03,2.873380364025094423e+03,5.945305735625197485e+02,-5.450583943996638592e-01,-7.033533786373720453e-02,8.354425695055612833e-01
1.466323946595974803e+03,1.946535025551425406e+03,2.611332996451798408e+03,-5.239575941574980966e-01,-4.700046023211794655e-01,-7.103267651733224941e-01
2.312857999751615807e+03,1.955159998988092866e+03,2.704201931838445489e+03,-2.144043989189353960e-01,3.452040000780290385e-01,-9.137094461886329233e-01
2.868551864792038032e+03,1.717452773380753570e+03,2.405290901745193821e+02,-3.228318157001185476e-04,-6.158096107380071071e-01,7.878949289736055794e-01
1.534417701793902779e+03,1.605662671558556440e+03,1.479011679885165677e+03,2.232515053101335467e-01,9.571194473760841204e-01,1.846107495008315613e-01
9.140548258275263152e+02,3.931378762968533920e+02,2.411936815903171464e+03,-3.675564205843784380e-03,-4.689525932222077254e-01,8.832156902693335532e-01
3.822227325248755960e+02,2.030736019606982381e+03,2.645432832494955619e+03,5.453706475255753333e-02,-4.315523125437922825e-01,9.004378435551675386e-01
2.361116102944573413e+03,4.552325869861893466e+02,8.887511222605678540e+02,-3.581964871526079064e-02,-7.708960719252848648e-01,6.359529849415611613e-01
2.159552338357478220e+03,1.523091374169459300e+02,1.883392106548568790e+03,-6.089952807977271759e-02,8.511010155525629006e-01,5.214578686769020255e-01
2.865064520892211931e+03,9.978819219808838170e+02,2.539326385261905671e+03,2.606100917704557568e-02,-8.998050370020524991e-01,-4.355131676383723338e-01
2.282562907039731272e+03,3.597544941411542254e+02,2.365391801282397410e+03,-6.824413651459422525e-02,-8.264901359778670242e-01,-5.587994210471807222e-01
1.386673411314109217e+03,1.845937614438546177e+02,2.362790691726588648e+03,-4.571188396019584127e-02,-7.447604632001921798e-01,-6.657644298989281451e-01
9.344130686115296385e+02,2.127034303649086269e+03,2.093303317118616178e+03,6.518754094821486156e-01,-1.523844584276393133e-01,-7.428576090625955697e-01
2.609483573297462044e+03,1.082651357719692669e+03,1.961133060866453661e+03,9.074023426599804321e-01,3.996028413997589901e-01,1.301482142805607811e-01
2.240330008631513920e+03,2.416242851448445890e+03,2.004998546133616856e+03,7.997314059881749371e-02,-9.140045815017781017e-01,3.977435376929727706e-01
1.309715561206764050e+03,1.337732370721714005e+03,2.621766067793248567e+02,3.645422348684755898e-01,6.257490445974427384e-01,-6.895992257699286032e-01
8.971048178904164843e+02,2.997403188024418796e+03,8.377471902190017090e+02,8.417444757761128882e-01,5.269476407518027816e-01,-1.174411401788408860e-01
1.319560197965688076e+03,1.829079342565095430e+03,1.067002691801219498e+03,-7.778167845625727495e-01,-1.315142643660082399e-02,-6.283534750722901130e-01
5.336210609811129189e+02,1.692596951609729331e+03,2.475754948614589921e+03,1.191595658386634393e-01,8.075104367445666842e-01,-5.776918663247219143e-01
7.727596544293393208e+02,1.874237241888835342e+03,1.438878181600024163e+03,-2.298421780483854340e-03,-3.314912492703083746e-01,-9.434554938705531635e-01
1.717277477309107780e+03,1.137412118575685327e+03,4.019580843864296185e+02,6.252432250182651113e-03,-5.358306470124044735e-02,9.985438209053119074e-01
2.888628915559484994e+03,2.066392572827328422e+03,6.820683402927256793e+02,-5.447745441233696750e-01,1.472068998304986720e-01,-8.255609152070295664e-01
8.452452395298780630e+01,1.766267537260456066e+01,1.080514772062171915e+03,5.741789467052035856e-02,3.189508772875336295e-01,9.460304029200741205e-01
2.203512387232362926e+02,2.800204093863103935e+03,2.383249959429074806e+03,8.129348360595343159e-01,-2.780504620528430684e-02,5.816904947877180598e-01
3.391777999950004983e+02,1.222058248911780311e+03,1.499618395661442491e+03,-4.230892774585531119e-02,-1.408746827781776068e-01,-9.891229844590326836e-01
1.140309330816380225e+03,2.554956785015137029e+03,1.806793367229951855e+03,-3.327730175272541890e-02,-9.991192957031689303e-01,2.555883686050435324e-02
2.931922890420396016e+03,1.758415532461017847e+03,3.013224649022388917e+02,-1.374250033241112001e-01,-9.257015936119729060e-01,3.524073325650614041e-01
1.080306719623840536e+03,2.566747689334998540e+03,2.811496141493396863e+03,-2.078677906299229022e-02,-9.997454135244999707e-01,-8.775987289926833260e-03
1.499752029280690749e+03,2.538948932785731358e+03,1.426497257457721844e+03,-9.467377034346591280e-02,7.921020688921298625e-01,6.030018156405170249e-01
1.468742814304839158e+03,1.544022165208391698e+03,1.477191942509681894e+03,2.350174564514760254e-04,5.100035899928097027e-01,-8.601722402875143780e-01
1.072051741638536896e+03,1.245611877840800901e+02,2.148657745788386819e+03,-4.206559052014560707e-02,3.292789042180135212e-02,-9.985721006149537171e-01
2.282458585004694669e+03,1.920501537201467499e+03,2.206599190624400535e+02,3.476774091070510275e-01,9.289241165686425994e-01,-1.273593532245484439e-01
9.423024836043204289e+01,2.740607053339357662e+03,2.291215959136452511e+03,2.795501403707983709e-05,9.717995406386276125e-01,2.358085071261632470e-01
2.808225247328858586e+03,1.663282762698062697e+03,3.081211012961342135e+02,-2.500513686648744589e-03,9.846416200492598136e-01,-1.745698355904364840e-01
3.262157682282132214e+02,2.290891482904993609e+03,2.300097962490205191e+03,-2.098636498264527459e-02,9.785760929142045539e-01,2.048130925053015805e-01
2.893573197711704324e+03,2.612169794041136356e+03,8.572275035287149194e+02,-2.979499852284849676e-02,-5.226803096939153237e-01,-8.520079529683372010e-01
1.671280645544892423e+03,7.259940776375432279e+02,2.820324979354998504e+03,2.046272102120191561e-01,1.959964147008387836e-01,-9.590167413894623571e-01
2.728488505469470510e+03,1.951601265984908878e+03,1.840465163008781246e+02,-1.913514399122465404e-01,-8.679850181315031943e-01,-4.582429865723687268e-01
1.921491575952491985e+03,4.853418295432097125e+02,4.582927624354387603e+02,6.751968259060404931e-02,1.779443099678633122e-01,-9.817214039700494776e-01
2.035845168959262082e+03,1.217056220505548481e+03,2.363029125267626569e+03,1.274342048969146119e-07,7.337263394762222335e-01,6.794451109242065634e-01
2.932563610965754378e+03,5.637016049706470540e+02,2.642881414149200737e+03,-7.242640283407482393e-02,5.029660745556705642e-02,9.961047472284112470e-01
2.596451859990967478e+03,2.717936099509393898e+03,2.186588515365496278e+03,-1.713126192218890065e-01,2.184357366337656425e-01,9.606965262020052965e-01
2.928153322596342150e+03,4.530733700883329789e+02,2.606491660868008694e+03,2.275953589844302849e-01,-9.585230191587296167e-02,-9.690266708332525569e-01
2.029081771896196187e+03,4.538359331012204052e+02,4.127577906289297971e+02,1.880553548642952336e-02,-9.731518258719211723e-01,2.293945850215623750e-01
5.344997571479459566e+02,1.855323763504903127e+03,1.177511740868811330e+03,-1.099417844822551532e-01,-5.689451217910498348e-01,8.149934063629133973e-01
2.328775804184659592e+03,2.783259798018983020e+03,1.872555461216977847e+03,4.190679293731663230e-02,-9.596265773507859365e-01,-2.781378304864782214e-01
1.427501528328830545e+03,1.579718948966409926e+03,1.474346800243422422e+03,-4.276744370014937124e-02,-2.077847498630488454e-01,-9.772391946108714977e-01
1.496753362224818602e+03,1.708140627201814965e+01,2.781666833354234313e+03,6.410276942512157516e-01,8.537951299553430892e-03,-7.674702590918922596e-01
4.324650242261881772e+02,2.090508189920605219e+03,2.711721321124948190e+03,-2.788972426068157774e-04,-5.819835539979949512e-01,8.132005073118135918e-01
1.845475528641893348e+01,3.311430665633050694e+02,6.763423985442432240e+02,-8.092727410194899829e-01,1.866332704856745184e-01,-5.569969954951485835e-01
1.547268156688641511e+03,1.566329032455474589e+03,1.478162347340634824e+03,-2.440755305634052048e-04,9.998244066713160016e-01,-1.873756258124773671e-02
