x,y,z,nx,ny,nz
2.372826764442918943e+02,2.456243197464174045e+03,4.712138634279009466e+02,-4.985241031837674835e-02,-5.175145897737646328e-01,8.542209237408905365e-01
1.143604371362043366e+03,2.812182314595283970e+02,1.781599387187560751e+03,6.417469170244771703e-02,-3.962802854416116460e-01,9.158840233977283418e-01
1.553149696938096213e+03,1.437063389697746743e+03,1.530560267122792766e+03,3.634621557118778833e-03,8.287402382968603876e-01,5.596216641212163889e-01
4.376377953885414627e+02,1.408563447007547211e+03,2.142549587425570735e+03,-2.667917519078965571e-01,9.123503946779039087e-01,-3.105461615363945271e-01
3.044743054982214971e+02,2.469233792128135065e+03,2.471830659512143939e+03,-2.173287895349762244e-01,-9.012033217671897578e-01,-3.749676920416544768e-01
2.784842650837731071e+03,1.576095707167583669e+03,1.754058588379170033e+03,-6.268165784011623439e-05,9.998188240471087562e-01,-1.903457780110382608e-02
6.345750619634485190e+01,2.148450532917143391e+03,2.966219504580965804e+03,-4.510382243781863032e-02,-8.801958598263091016e-01,4.724625842816784771e-01
1.540217357629903518e+03,1.437068788401682241e+03,1.533885931283720765e+03,-2.700572244337250995e-03,7.232216772254438375e-01,6.906106808475879211e-01
4.785426473318665899e+02,1.390283017840117054e+03,2.085385086091754147e+03,1.459115827514338021e-02,-9.465621705424313026e-01,3.221911783370101645e-01
2.712894589786285906e+03,1.522738027452798178e+03,1.702533373775120253e+03,7.300273630097571910e-05,9.719302060889282169e-01,2.352693544908348866e-01
2.319229449333131015e+03,2.143754756534503940e+03,1.425511405116754304e+03,2.533948697515426285e-01,7.747586921522726655e-01,-5.792581539504635391e-01
8.331532201951196726e+01,8.296448523810257711e+02,6.058678235877722500e+02,-8.539688770579684229e-01,3.845951845867283669e-01,3.504621249280055473e-01
1.083411950198328952e+02,4.145478524501281186e+02,1.218336934443815153e+03,3.186468223662358712e-02,8.720510048040862605e-01,4.883765832287033093e-01
5.423973070790508189e+01,2.155457069535996652e+03,3.000000000000000000e+03,5.718942321762446844e-03,5.807312312933523568e-01,8.140752610780082055e-01
2.871995770125096215e+02,2.569994403796513325e+03,2.492015265509052824e+03,-1.305303422454772433e-01,-9.424501466008750050e-01,-3.078141499757084953e-01
5.554109201911235232e+02,1.410892952242819320e+03,2.198503243834124078e+03,-1.134155746394087394e-01,-4.869590612195288659e-01,8.660298956302882045e-01
2.786717280882113755e+03,1.490345940174451471e+03,1.781253065247178938e+03,1.373386365520034257e-03,-9.877298375623203563e-01,1.561661992846184455e-01
1.549655700696744589e+03,1.547201171762546664e+03,1.474980333339751496e+03,1.929633547451917392e-03,6.556653258093209091e-01,7.550491752500162468e-01
1.524918104106962346e+03,1.309633204559708020e+03,1.538623417961444375e+03,2.891543985783092199e-03,7.680213993567326369e-01,-6.404176520861246669e-01
2.614776667234835259e+03,1.352066579639893462e+03,2.341833634135100056e+03,6.203581131847800689e-01,6.719054239342475698e-01,-4.045972227951630251e-01
1.523284429984668122e+03,6.148421502203949558e+02,2.899047061269792721e+03,5.596963425578322937e-01,1.497914087635190405e-01,-8.150475679296429465e-01
8.752163154568861501e+02,2.714564544182301233e+03,4.073207001418107893e+02,2.495280509130516078e-01,-9.606985255150567449e-01,-1.216309782938920919e-01
2.786145197026637106e+03,1.487644737571855785e+03,1.850437019339069820e+03,-2.818091464029620630e-02,7.252500196634423420e-03,9.995765289816154198e-01
1.513178960310447337e+03,1.403743492857130832e+03,1.495534120177301247e+03,-1.078260625559185511e-02,6.877749459763874418e-01,-7.258438944356522260e-01
2.276530008549413196e+03,2.478599601542879554e+03,3.561211597458396483e+01,2.294928134162400185e-02,-6.073219047710646246e-01,7.941243192795124362e-01
1.437174709106157025e+02,1.849689908437405620e+03,6.067976943909691272e+02,5.449282269431476172e-02,8.878568816089873472e-01,-4.568814835976292010e-01
2.742149861130704267e+03,1.526775052452528826e+03,1.753866003267351061e+03,1.115097592601903449e-02,-5.113156749473615065e-02,9.986296703690655807e-01
2.235810449333314864e+03,2.403556203498568266e+03,9.698000826231259452e+01,5.524727734281967284e-02,-7.469850307479772855e-01,6.625413965818657269e-01
2.209652900308616154e+03,2.419265732851392841e+03,6.393300011528568660e+01,-5.316602530627884821e-02,-2.054845900704360961e-01,9.772151538922824177e-01
2.772880872757199541e+03,1.448652399378524251e+03,1.816970245813577094e+03,2.532519924667004209e-04,9.259324038910040633e-01,3.776891834406366222e-01
1.957547705728651692e+02,2.785349442638810615e+03,1.584162726464577645e+03,-6.291181379412424945e-01,-5.577247172687704868e-01,-5.414365228360698001e-01
2.817733810534857639e+03,1.484307260965437763e+03,1.843006806629628727e+03,1.076723279713461684e-01,-1.960045797173609328e-01,-9.746737272128820351e-01
1.255287360611652332e+02,2.225805110993219841e+03,2.966135358562303736e+03,-4.604097697917233084e-02,-8.783496572980827866e-01,4.757962883032440526e-01
2.712504314476751915e+03,1.560061395172177527e+03,1.773800347686234318e+03,-6.579817376621190927e-01,-3.056052230047959228e-01,6.882335944832447261e-01
2.798813723357421622e+03,1.579638756273042645e+03,1.756200174535562155e+03,2.176373697935523720e-03,-9.836926759084032579e-01,1.798443292453005826e-01
1.494346509778541304e+03,1.502952950104895763e+03,1.499225241738564591e+03,1.526741728351368500e-04,-6.680208298849822368e-01,-7.441425586071372944e-01
2.132109671564089240e+03,2.602438684207322240e+03,1.556371571277142039e+03,-1.283423439882585594e-02,-9.234263495362471375e-01,-3.835610243619085313e-01
2.796874436200259424e+03,1.445126487844104531e+03,1.799348232854450771e+03,1.537469975330321148e-01,9.848184661736028023e-01,8.058814697615415690e-02
2.194763464976230807e+03,2.427817308190965832e+03,5.923756387209918017e+01,1.111776151835410925e-01,8.624948957412812423e-01,4.937024333567101575e-01
2.269647132617639727e+03,2.497770130301244080e+03,7.276347037137442442e+01,-1.055288331552898390e-02,-4.429234520676665343e-01,8.964973241801619253e-01
1.472481230260917073e+03,1.520999924802547184e+03,1.604501511717800895e+03,-8.897594810473263838e-01,4.534961086825266552e-01,5.166570715860285823e-02
1.601131266622124031e+03,1.958469008651151171e+03,2.975048494632376787e+03,-9.411593993314967821e-02,8.879966897264082171e-01,4.501156172423269597e-01
2.240627769859086584e+03,2.471313944724944122e+03,1.884366883726073638e+00,-1.779950395047921437e-03,8.390447258161971567e-01,5.440595370514275109e-01
8.289773649157666568e+02,2.611844810522310581e+03,1.663336577173723072e+03,5.010068707014304623e-01,7.090738174478652400e-01,4.961919355651316366e-01
2.237185544443711478e+03,2.394254027976609450e+03,1.821238525854753476e+01,3.857652810907771530e-03,9.909294352397923777e-01,1.343278559723808108e-01
2.699817245078014821e+03,1.522987099931573539e+03,1.853602449641807880e+03,1.708350447509998649e-01,9.568781764778977461e-01,2.349458296400623591e-01
2.317745399783831544e+03,1.985789740756355741e+03,4.515531217360575624e+02,9.261109516663110774e-01,-3.020145913710244323e-01,2.260656802849845548e-01
2.711910663540295445e+03,1.521516706488741875e+03,1.737623227757224413e+03,-8.576801540905500121e-02,9.889022792581551868e-02,-9.913952644397552305e-01
1.319912995329942760e+03,2.356169539982350045e+02,2.832519686968440510e+03,7.293530557835289363e-01,-7.432599615831038398e-02,-6.800880577648040770e-01
5.532801521380956729e+02,1.063407663209814018e+03,7.916461620584609591e+02,2.559883697278956260e-01,-7.140874111883129816e-01,-6.515743424555846541e-01
2.735672399605110513e+03,1.537268522483353308e+03,1.671082363111960603e+03,-8.298718192692714662e-05,9.983365060306815808e-01,-5.765599569497097815e-02
2.332413075569279499e+03,1.274403702445640192e+03,2.105020429519805930e+03,1.754133691167158726e-01,-9.577376427297916717e-01,-2.279665713070775646e-01
2.749404209396790975e+03,1.548303501091501175e+03,1.845419563062607949e+03,1.548991153322582144e-02,-3.672353209102223737e-01,9.299990761912932946e-01
2.192682100617550532e+03,2.395589754243775587e+03,2.223033287567178832e+03,-9.644223044350423990e-01,1.597443018196533226e-01,-2.106451441271646186e-01
2.039796404019973011e+02,1.850943550679011423e+03,6.174189111422889482e+02,-2.670174149980381051e-01,8.568935157284426340e-01,-4.409480726687835528e-01
2.446336669306303691e+02,1.501266949390715581e+03,1.645168590399404820e+03,-8.811499193787926121e-01,2.559703791591154687e-01,3.975600389524656109e-01
2.244812941366222276e+03,2.472513432864234801e+03,2.948546861701948529e+01,-8.935118957475698953e-02,-4.411764055244813965e-01,8.929612220752221052e-01
1.576901772791220310e+03,1.882891604035385399e+03,2.990962942019470120e+03,2.171063430217410814e-02,4.298314733854665115e-01,-9.026480780711142460e-01
5.198550259170144727e+02,1.037949458498128706e+03,7.552371279728274658e+02,4.103924075230586110e-02,-7.797952352764587758e-01,6.246880595614155984e-01
1.494730646901228283e+03,1.565813192785366255e+03,1.572882440898524010e+03,-2.643198557538140037e-01,-9.445026050687619357e-01,1.950636892725173266e-01
3.990225336135532643e+02,1.371833891720522161e+03,2.139703649124354797e+03,-1.511534704648839419e-02,-2.700178080731467922e-01,-9.627366771901013642e-01
1.958574371436355477e+03,1.227466765719989098e+03,1.385744804048890501e+03,-6.927050453852753864e-02,-5.761147265333589340e-01,8.144282774267915803e-01
5.558611466033510169e+02,1.333537498726402418e+03,2.147084609664338132e+03,6.325462526128929064e-03,9.336760293090544671e-01,3.580629285719318933e-01
2.850494274828809580e+02,1.535141857492897770e+03,1.648808145895105099e+03,9.360936376681461887e-04,8.405248392633956067e-01,-5.417722014924212237e-01
2.805520484194453275e+03,1.445973361191566482e+03,1.882557843775637821e+03,-2.982241207256995374e-01,-9.542875865970921190e-01,-1.993930500496024494e-02
1.234167589376638261e+03,2.611940300457601552e+03,6.117377832646961906e+02,8.794581213187537827e-01,-3.731039536341604346e-01,-2.955450094808682593e-01
5.405758049442600850e+02,1.142667169568454028e+03,7.563255103836030457e+02,5.886642768154096705e-01,-5.971493787217365679e-01,-5.448733694113109260e-01
1.601750187803154404e+03,1.421431475066938447e+03,1.542597822414528764e+03,1.915989258040619314e-01,-7.098253593892350777e-01,-6.778184202267394376e-01
5.337648139660043398e+02,1.111165466066922818e+03,7.123356147151720279e+02,5.267344905555017276e-02,-7.247621352529840522e-01,6.869827909548591460e-01
1.546778112578496120e+03,1.897775598926494013e+03,2.947990698172287011e+03,-6.529985069866937192e-03,-9.903363834217450146e-01,-1.385323318439633244e-01
2.747152706388889783e+03,1.478445665266516698e+03,1.896059685246297477e+03,-7.626406328867177953e-01,-1.169682917443411047e-01,6.361585366844942913e-01
5.833014502506141525e+02,1.375791691151986470e+03,2.163059113853738836e+03,-3.596945120125331213e-02,-3.757584447829191987e-01,-9.260193247198477140e-01
1.499435171409706754e+03,1.459221879296205771e+03,1.554922586388561967e+03,4.166173856993982951e-04,9.164975117299968277e-01,-4.000401697613356067e-01
2.755472067872060506e+03,1.446222327486922495e+03,1.831539119688672827e+03,6.790875392278895384e-04,-9.731635289827099411e-02,9.952532674142261504e-01
1.488857670119327622e+03,1.523080202962182511e+03,1.658167443508878250e+03,9.471567114730458092e-01,-3.187095265687961421e-01,-3.630980013521521721e-02
2.826136340185317295e+03,1.580907435836756349e+03,1.803728494245652882e+03,-1.012025315925783736e-01,1.149207901632336437e-01,9.882060815374044127e-01
2.262401073599365645e+03,2.414304621160917122e+03,4.052368924150565022e+01,-2.489662443936679643e-03,9.679031941618089219e-01,2.513109792911620843e-01
6.558600791727113801e+02,1.319589217349888031e+03,2.070534426205103046e+03,-1.366322818803769427e-02,-9.901303254118420938e-01,1.394820952499686295e-01
1.540087119363806096e+03,1.521351172114588280e+03,1.659002092316888138e+03,6.083008192867851022e-02,-7.582310399715960075e-03,9.981193364029937731e-01
2.076614236025372065e+03,7.925280774065594187e+02,9.356199140709587709e+02,-4.717304111713445103e-01,-1.708997412413063022e-01,8.650223682771265299e-01
1.531208275666668669e+03,1.949262131691038576e+03,2.946054043242545049e+03,-1.070445668323618616e-03,-2.990048298148947903e-01,9.542509973237842669e-01
2.750016310936691752e+03,1.476622724934881944e+03,1.839989942722524574e+03,1.092256310362978017e-01,-9.659445074615827798e-01,-2.345654919836305807e-01
5.352601737300157083e+02,9.864615437051701292e+02,7.711194077592404028e+02,-1.953663131110640605e-01,-7.654136816407829391e-01,6.131671058190352186e-01
1.572522086311133762e+02,4.034577763144172309e+02,1.262338622759513555e+03,-9.971049433959539368e-03,9.243165254433398648e-01,3.814964468583386670e-01
2.555663115289432426e+03,1.695662933781890843e+03,1.166958888125267549e+03,6.689846604916503958e-01,-4.918300848334803410e-01,5.572815192338274048e-01
1.449434392403642562e+02,4.286343535017606428e+02,1.255365244168769095e+03,7.382261862690500838e-03,6.773635089136926801e-01,-7.356114320766912185e-01
2.409435919525969609e+02,2.461769471860231533e+03,4.749065551754346188e+02,-2.091087720968265451e-02,-5.915544669176957537e-01,8.059938262071505433e-01
2.289286923389909134e+02,2.485076179315890386e+03,4.208486083364986712e+02,3.347144852380148482e-03,8.881009220457258824e-01,4.596363224146550186e-01
1.389483019438913971e+03,4.931855146888401009e+02,2.507513413996457246e+02,6.696723922184236732e-01,-3.160016388139051582e-03,-7.426499184655448449e-01
2.679326871739825947e+03,1.523416659785510546e+03,1.796933037010360295e+03,6.803771275023323121e-06,-2.799194031716382147e-01,-9.600235037131864546e-01
1.499462494849354471e+03,1.571272402856089229e+03,1.679002363539709904e+03,2.829836451857705160e-01,-8.277361336458183283e-02,9.555463282792440172e-01
1.237217076525915189e+02,2.186638368556593377e+03,2.934687465894950947e+03,-4.349829389210831121e-02,-8.784498509119145204e-01,4.758505625312541287e-01
2.870181884279311816e+03,9.272380842610932632e+02,2.772251709367199055e+03,-2.541595316612808575e-01,5.654831034144628399e-01,7.846220696733341438e-01
7.692877683807252254e+01,2.112423839722692264e+03,3.000000000000000000e+03,-8.141912056428304290e-01,-2.418182837835739299e-02,5.800930268759952879e-01
5.874527589008329187e+02,1.355261551481799643e+03,2.160345454657214304e+03,-3.834937609426236071e-01,-4.526485120648451876e-01,8.050104718844119933e-01
7.803752066420324809e+02,2.634481787282876667e+03,1.692882861786969670e+03,-5.915954322927895470e-01,-6.605633342822556653e-01,-4.622455255513203687e-01
5.360706840854163602e+02,1.318886755236985437e+03,2.063920565384553811e+03,-1.520017873819282106e-02,-9.991506485354664235e-01,3.830060179009989879e-02
1.274441199132742355e+02,3.977415858615322009e+02,1.225954970262007919e+03,-5.718320161505958260e-02,6.294066241015847663e-01,7.749692787395496829e-01
2.594052939248270491e+02,2.465249567178779671e+03,4.861538966317397126e+02,-6.478112106681267746e-02,-4.771105408855735308e-01,8.764524734001282180e-01
2.281488768333688313e+03,2.496943224327645567e+03,0.000000000000000000e+00,-5.213274451633569812e-02,6.066558211222493613e-01,-7.932533590522539146e-01
5.430120001782537429e+02,1.184511306923853908e+03,7.521351718993685154e+02,5.961926712023168928e-01,-5.930597638518565473e-01,-5.411417700608837089e-01
5.087804014733934537e+02,1.389267734570107677e+03,2.154883169929595624e+03,4.035619141077337151e-03,8.884294014155909025e-01,4.589955473405847308e-01
5.012525324280202881e+02,1.364837872127261107e+03,2.044467909389419219e+03,1.529757674774627528e-03,1.386658354325610021e-01,9.903380462878553780e-01
1.487997230007031476e+03,1.553428357263594762e+03,1.729367563690596626e+03,4.769785327094521743e-01,-8.599364055070481128e-02,8.746979896622457673e-01
2.337969417909410367e+03,2.496895180122571674e+03,0.000000000000000000e+00,-3.394491214129169172e-03,-7.531470403210771547e-01,-6.578434563670896296e-01
2.606241110142108028e+03,5.307423256626155990e+02,7.981327334691166016e+02,-1.842906903155936693e-01,6.194053265046174372e-01,7.631343151508194200e-01
7.031109821333059244e+02,2.886636411785169457e+03,2.830243409224724019e+03,-8.346946276755837779e-01,-2.883933067081972945e-01,4.691632756039523233e-01
5.626701205125626757e+02,1.293895345442672578e+03,2.039766698746358315e+03,1.094276170637724886e-02,-8.050572186292360710e-01,5.930962238112764684e-01
2.851367056699961267e+03,1.119914635554112920e+03,1.238786711402657374e+03,-4.530815942171222410e-01,-8.104406163258068840e-01,3.713530347137578014e-01
2.722316072087087832e+03,1.573935187484025846e+03,1.779319526510070091e+03,1.170786251798702354e-01,-9.632737875105841230e-01,2.416530691321870372e-01
1.045973400024961165e+03,1.953254157096171639e+03,1.648261904240407148e+03,-1.797633690770069348e-01,1.923103862682719045e-01,-9.647288979145549614e-01
1.896671640843532714e+03,7.355235111788421136e+02,7.330627893587192148e+02,-6.630636850890417877e-01,6.951529757283432254e-01,2.776848750871563354e-01
5.886796958261364807e+02,1.384999789457266388e+03,2.141085747897036981e+03,2.985741384916973818e-03,-9.895842038054352141e-01,1.439242471828335590e-01
1.162252594367244001e+03,2.592432897907195638e+03,1.180136845388949041e+03,-8.891210308902298964e-02,7.540867052313811048e-01,6.507287291318613054e-01
1.495394998047231866e+03,1.543837122866953678e+03,1.642550443388387521e+03,-2.672131102156262081e-04,9.999948064977208784e-01,3.211786845293382493e-03
2.081534362437647360e+03,2.583273436392508756e+03,1.559192971549797221e+03,2.218409428866342237e-01,-2.508027306157746827e-01,9.422762792168973833e-01
5.068167230784756612e+02,1.331155699780644227e+03,2.021070409085693200e+03,2.228871431742058262e-01,-6.098472704915308684e-01,-7.605311486597184922e-01
2.820840130773477540e+03,2.029379999298297889e+03,1.529592783287268048e+03,-8.878749124197650167e-01,-5.662372570850372766e-02,4.565872245064275803e-01
1.202610557495728045e+02,2.081287634890983099e+03,3.000000000000000000e+03,-4.176379253886654958e-02,-9.197569198212958430e-02,-9.948850474889945339e-01
6.039182044841429615e+02,1.359317395582798099e+03,2.112828005084917550e+03,2.863187297910270157e-01,6.381107914531674030e-01,-7.147280621340295070e-01
7.928953808345161178e+02,2.624442953204672904e+03,1.734890980640691623e+03,8.127606134515409364e-01,4.773332191995082741e-01,3.340257221689807432e-01
6.122265857131917528e+02,1.382879941348433022e+03,2.201432543945488760e+03,-1.195228927703736038e-01,-4.391073105754276368e-02,-9.918599325518668852e-01
2.875051932296880750e+03,2.384996556234721993e+03,2.266144515257227795e+03,-4.730607270335043246e-01,-2.191116624500364096e-01,-8.533484797648107634e-01
2.837290338665916806e+03,1.529555735567050306e+03,1.811675888021108676e+03,-3.429935282769159266e-01,1.851911245645218029e-01,9.209015620264091595e-01
1.604158240834640765e+03,4.263221571071736662e+02,6.934460003014421545e+02,4.414713364272259549e-02,-9.862459692084275531e-01,1.592793734645545911e-01
1.596153789625050422e+03,1.851199222736525371e+03,3.000000000000000000e+03,-2.168510895144559192e-01,-7.791503609484575765e-01,5.881329101574591656e-01
2.147525766430007479e+03,2.576685425180709444e+03,1.607806271635040730e+03,-1.555321687216019468e-02,-9.120751458968282543e-01,-4.097279898691411071e-01
2.718317983744112098e+03,1.510441037072798281e+03,1.764783543793874060e+03,7.822240527092422931e-07,-9.858397501021730625e-01,1.676901521195356959e-01
1.605200766016018861e+03,1.431830711289918099e+03,1.543147097330949691e+03,7.066740722321571220e-04,7.100765902152180731e-01,-7.041240917907048980e-01
2.044782309094565107e+03,1.804369292097825110e+03,1.967879603583121707e+03,-3.678481100775084223e-02,-7.475283106641299469e-01,6.632106018714991613e-01
2.865251496251463323e+03,1.103531313675768388e+03,1.192906372613417943e+03,-8.707836502171821536e-03,-4.423214879495330765e-01,-8.968142923044672976e-01
6.403821460176744722e+02,1.567081349536281323e+02,4.513184748260882202e+02,-8.814376073424999569e-02,9.432740714564941120e-01,3.201010833494821739e-01
2.196461511991918542e+03,2.340788238096464283e+03,2.255821152469649860e+03,-9.762540955912198948e-01,3.822519945704279387e-02,-2.132293951776787211e-01
4.921675794170851077e+02,1.410749212243390957e+03,2.185079610612100623e+03,-7.505988151209087855e-02,-2.721853885089430269e-01,-9.593128418141949609e-01
1.957734433300117189e+03,2.598912082754594849e+03,2.017582783407215629e+03,-9.764958323880249536e-01,-1.568450436097269252e-01,-1.478361309825213799e-01
2.191199823311818363e+03,2.481878896887056271e+03,4.798888756364499386e+01,2.367720341509731217e-04,4.276142431315376191e-01,-9.039612840216366685e-01
2.820189784625943503e+03,1.428873454475784456e+03,1.782594567311754190e+03,8.683894619508594204e-01,5.505258269289982354e-02,4.928173652698720208e-01
2.678037887626139764e+03,1.480315854530566639e+03,1.713286609124076222e+03,1.063683309942394789e-05,3.743732776412568852e-01,-9.272780860534773906e-01
2.241280569035906865e+03,1.469765093428350156e+02,2.931653747809564720e+03,5.534984497869802622e-01,-3.063059833041206215e-01,7.744779600966740229e-01
1.483244299241732506e+03,1.521778824065607296e+03,1.661993184017307840e+03,7.490483515030327451e-03,2.774255867521000507e-01,9.607179276311877958e-01
1.636832071883216031e+03,3.878860218354110430e+02,7.328216545594845002e+02,1.285761878910799128e-01,-9.790142663417571445e-01,1.581114486895519033e-01
2.115781566708462265e+02,2.513413581023081406e+03,4.778304058112901203e+02,6.625157225701787389e-02,-5.903838839664675708e-01,8.043989052243554205e-01
2.775315845130347952e+03,1.433132824561758525e+03,1.878761254346081842e+03,7.262876363987870176e-01,1.243045021536352962e-01,-6.760581779392955681e-01
2.817458929962621824e+03,1.485754783538498032e+03,1.876981531554064304e+03,4.884471723893244605e-02,-2.973266566112247600e-01,9.535255910914187671e-01
1.112032889659542207e+03,2.451612169921967507e+03,2.486544732417335126e+03,-2.327074726056437004e-01,9.716210461939369658e-01,4.242375262153520038e-02
2.690197986115998901e+03,1.553115399606326946e+03,1.692757552525342589e+03,5.291027685960218996e-01,5.094722110567166951e-01,6.785929018380643107e-01
1.570010464204906611e+03,1.938985039917877657e+03,2.914740794318279768e+03,-1.157668135377837720e-01,2.969946168299686939e-01,-9.478355566538576582e-01
1.516418478514791332e+03,1.502950802491483728e+03,1.444351073728139681e+03,-2.042046257315683922e-05,-6.481072686352902235e-01,7.615490581210829779e-01
7.390756042599323337e+02,1.123317990500747101e+03,2.636877988521671341e+03,4.954997340848390497e-01,-5.860103309937103599e-01,-6.411488949460147913e-01
1.524282733014986661e+03,1.465841570674371269e+03,1.514634074805212549e+03,-1.069175451272855931e-05,-6.955341975727592496e-01,7.184929922361834587e-01
2.743340590530333884e+03,1.530088931163202233e+03,1.740618396503128906e+03,-8.140956743506683278e-04,4.369103232354736299e-01,8.995047007650972537e-01
2.323920400992556552e+03,2.184860542852828985e+03,1.452039799478178111e+03,-2.705611364020936091e-02,-6.781025635393713724e-01,-7.344691144194022137e-01
1.726092729965157559e+02,1.794090309224664452e+03,6.047856667167716296e+02,7.208159107205322491e-02,-6.718931384125630402e-01,-7.371321827071707355e-01
1.725643209110384078e+03,1.142947590473724858e+03,1.399519585475158465e+03,-9.984474741957787280e-01,-5.567160573538582069e-02,-1.820326045972376012e-03
1.047401766052126732e+03,2.133140785431148743e+03,2.613351849661989036e+03,-1.080097505042906803e-01,-7.388190429975451945e-01,6.651919388418596757e-01
2.050637289102628529e+03,8.260126873593530945e+02,9.221566099397088010e+02,-1.044828722930307985e-01,9.188186611325390718e-01,3.805989980964303854e-01
2.022905500562849284e+03,1.279091944196751911e+03,1.056470304376453669e+03,-8.885121012940304652e-01,4.255835106195848261e-01,-1.715369387122680778e-01
1.056754275653840523e+03,2.185451488538903050e+03,2.646927310924156245e+03,-1.364841805516444663e-02,5.703835579883071993e-01,8.212650713753695264e-01
5.397995059661892583e+02,1.362543974738906854e+03,2.124601476501456546e+03,-2.612572293901650466e-01,9.552194266832555458e-01,-1.389262645372980887e-01
6.586797052441474989e+02,2.890944683223463016e+03,2.867506839937013410e+03,-5.526799226249354963e-02,8.309545797388174782e-01,5.535882363655844074e-01
2.831692576004121292e+03,1.472706593477549632e+03,1.841762919414886028e+03,-7.426334777187246564e-03,9.665387760754895474e-01,2.564130337839164997e-01
2.208641601226312105e+03,2.420639920637201158e+03,1.516896543346634303e+02,7.104086688097362851e-03,5.619935235822661745e-01,8.271111239754407318e-01
1.110016832674068155e+03,8.688329268061831954e+02,2.157120956590036087e+02,9.242221073655153551e-01,-2.479226774725244720e-01,-2.904269998669208874e-01
4.955335000089406776e+02,1.392623552744080598e+03,2.139595707449047950e+03,1.427936170071108764e-03,-9.566745483365302061e-01,2.911559196777395164e-01
2.775581149938126146e+03,6.736172775726943200e+02,7.829124900352318264e+02,-1.132595657791885951e-01,3.207148611808670613e-01,9.403798427110434677e-01
2.739814070342516061e+03,1.450992995113817415e+03,1.848232048380860078e+03,9.838184061193000138e-03,9.345259078807044428e-01,-3.557591005640240445e-01
1.056365979567059867e+03,2.152049995873395801e+03,2.619940179470703697e+03,-4.244560599285874918e-03,9.579983068040707206e-01,-2.867424416891450334e-01
1.393705833124670789e+03,5.448621700144481110e+02,2.789124130684720626e+02,2.880273708303101796e-02,-9.992015022692257720e-01,-2.769043516177043321e-02
2.376572580428832225e+03,1.259801897680931006e+03,2.143597040552272574e+03,2.426282190115434251e-02,-3.618034672972324506e-01,9.319386066287270731e-01
2.566550162158114858e+02,2.432957638751663580e+03,4.579900459732552918e+02,-1.853007628708086205e-02,-5.973978615829094174e-01,8.017308970277757796e-01
6.961480593532151033e+02,2.851275902866093475e+03,2.801356926736234982e+03,-2.559362502125306915e-01,7.224557565410134607e-01,6.423039122315079563e-01
3.627789689249638627e+02,1.858061994529438607e+03,1.566681741065289771e+03,-4.081363509448663329e-01,-6.559192637465340037e-02,-9.105615949686605148e-01
1.255741921781576139e+03,1.730226197210096416e+03,2.700776141714926780e+03,9.542157144250687506e-02,9.887150689979258278e-01,1.154869518165116821e-01
1.285477566382003715e+03,1.691943647595914399e+03,2.694974125288361847e+03,-4.257722304364712496e-03,-9.932383020430215481e-01,-1.160152884557653363e-01
2.814395868539963885e+03,1.470311457414968118e+03,1.863557481207666115e+03,-2.502415291153992777e-02,-7.246307918930455783e-02,-9.970571166816193376e-01
6.294706788359274015e+02,1.423344773179552021e+03,2.163519799999459792e+03,-7.880975091729923703e-04,4.000250626102274665e-01,9.165038615226885899e-01
1.047209518358899459e+03,2.143322735065769393e+03,2.574576688867693974e+03,2.379840148066351274e-02,8.154506303083854934e-01,5.783371902416636345e-01
1.157339694812107354e+02,4.429671961521290768e+02,1.247464498443715456e+03,1.640670719335433122e-03,5.328773511679749664e-01,-8.461908985635531177e-01
2.837168962700645352e+03,1.539594980349390426e+03,1.854700298869952121e+03,-1.479117623983156569e-02,9.874473253695098540e-01,-1.572545729892892985e-01
2.745474049488620949e+03,1.460789455961774365e+03,1.918660935193837531e+03,7.942752127932292683e-02,-9.640203291989395407e-01,-2.536849892181068933e-01
2.830432310240145853e+03,1.507498544039269746e+03,1.909434564754563326e+03,-9.163673159899131671e-01,-7.239531564579446132e-02,3.937383146938948086e-01
1.364564870856819653e+03,2.813357997911291022e+03,2.453854465314674599e+03,-8.142051754387931162e-01,6.808449792697075786e-02,5.765712735046003568e-01
1.424516850817136628e+03,1.518284619790492570e+03,1.626178474233046927e+03,-2.357887728271519934e-01,2.293260719742411802e-01,-9.443586221989668239e-01
4.961009609228749468e+02,1.364339691452799570e+03,2.197148873688490767e+03,-4.412026121553610514e-01,-8.182448590079954842e-01,3.685316889146328379e-01
2.014825274087577782e+03,8.717010787569872718e+02,2.041945249779092364e+03,-7.702837334963918980e-01,6.316814994399223560e-01,-8.741540582867048104e-02
2.672015956782304329e+03,1.554126388744147107e+03,1.761030281552823908e+03,-2.140599758967333968e-05,-1.259111749842335426e-01,-9.920415190685685225e-01
3.712868118649636813e+02,6.761494065121736412e+02,8.014819392883324554e+02,2.363874971103075151e-01,8.402189848108532200e-01,4.880092302132650328e-01
5.717897816920468586e+02,1.869847910756859392e+03,9.773849869894185076e+02,3.792219020066270874e-01,8.487442860377688580e-01,-3.685429228145811198e-01
1.464619233650771264e+02,2.891318024241641979e+03,1.845061962628061849e+02,3.576736958041419334e-01,-7.862498114289159235e-01,-5.038658168181289199e-01
1.364732441966182705e+03,8.797777844126079572e+02,1.168866327808790174e+03,-8.427341959614101929e-01,5.320685188222459283e-01,-8.186675903916684760e-02
1.298087916177105626e+03,2.396148565799630433e+03,1.491232417511594349e+03,6.516254910792184107e-01,2.393580674845248446e-01,7.197860341141950613e-01
1.246006348624045756e+02,3.280114946596739287e+02,9.793530549036601087e+02,9.349535391979125754e-01,2.229589969075602418e-01,2.759550058239057524e-01
1.454573886270702133e+03,1.551054690610726311e+03,1.540013414321834034e+03,-2.373289850822684482e-02,1.166344699003918212e-01,9.928913082303887361e-01
1.530089328698947611e+03,1.364356601059725563e+03,2.146810362251366314e+03,5.781302805782807530e-01,-3.099223818608958791e-01,7.547936777028192434e-01
2.790084362449179025e+03,1.433990472888296381e+03,1.842869770682342960e+03,1.576248129739993634e-02,-3.729038269809482609e-01,9.277361047228419588e-01
2.680101375085414020e+03,1.490540398083984655e+03,1.815190980222551616e+03,2.673099951403712555e-05,9.030088842471453159e-01,-4.296218735774277597e-01
2.874057587462913943e+03,1.173110319735118992e+03,1.162385477852467830e+03,7.472088099804885530e-02,-1.800572091827137566e-01,-9.808140452523137487e-01
2.289901307593578167e+03,1.606643741494434607e+02,2.954020396562177211e+03,8.113077850536855040e-01,3.621277517263344348e-01,-4.589587882815986952e-01
1.315287939837491649e+03,1.046551999713686200e+03,1.438179205886200862e+03,-5.854387838232616437e-01,-8.049116063344580185e-01,9.684387633517510530e-02
2.263475942440076778e+03,2.504293612050563752e+03,1.670165254964447286e+03,-8.654621760246079543e-01,5.009739515685101008e-01,-5.672041806694672061e-04
2.804851007145732183e+03,1.424175427234377366e+03,1.857634706827127275e+03,-6.276458254302754725e-01,7.618129524761017013e-01,1.603176324039037592e-01
1.553602605268925117e+03,1.507405243328809092e+03,1.519676839438442130e+03,-8.767231219130538953e-07,6.590395931528446605e-01,7.521082466348606443e-01
3.480334340565306661e+02,1.228495303717285196e+02,2.783273692822614976e+03,-6.599451910133118104e-02,-4.630239950527237913e-01,-8.838854583338269233e-01
2.876448228419581483e+03,1.455724329365835274e+03,1.776641350845768784e+03,1.028726273592099338e-01,9.933418914568830083e-01,-5.185662172833280237e-02
2.747636593609222018e+03,1.487387456372171528e+03,1.712287240496764753e+03,1.571847480509131693e-04,7.982210207374177413e-01,-6.023646547946434060e-01
2.099022287768069873e+03,2.623816607598618248e+03,1.592708082696033671e+03,-2.397383139528271589e-01,8.965708146680361201e-01,3.724061158312920727e-01
2.721720872651999798e+03,1.477176687108739543e+03,1.707963933441246354e+03,-2.149550417126928556e-03,9.925574351113539140e-02,-9.950596348023850179e-01
5.953178105460837060e+02,1.364458049119643874e+03,2.046526352999590699e+03,8.127238531985698788e-01,-5.287675334655401738e-01,2.447137797404108361e-01
6.445318853125000942e+02,2.864836817928293385e+03,2.815964480035467204e+03,-4.030808040304400403e-02,8.315502397961614944e-01,5.539850696085302229e-01
4.484041920270664150e+02,1.364666122067760398e+03,2.160213681877019098e+03,-5.537066891102916666e-02,9.552078568769695188e-01,-2.907095443649078126e-01
4.885200934038169862e+02,1.347568996663273538e+03,1.620817237103311470e+02,6.859073940433473293e-01,5.017420393287043145e-01,5.270540510867336437e-01
2.797553971554223153e+03,7.205396986178642464e+02,7.620709767720998116e+02,-8.450453088891140456e-04,9.488365199117588800e-01,-3.157665979488145647e-01
7.135122673478233537e+02,1.103930375233820769e+03,2.633059333418715596e+03,4.941396114531994288e-02,6.524469820900890005e-01,-7.562216579849216913e-01
2.619956903955924190e+03,1.355071043731889631e+03,2.395627194198436882e+03,2.003635024220128819e-02,-4.938878325240712575e-01,-8.692947449246699598e-01
5.778835227983893219e+02,9.962680726737014538e+02,7.485067359266444100e+02,2.707025442404283055e-02,7.252407387382492354e-01,6.879629875217242452e-01
5.758259062685607432e+02,1.293545155608308278e+03,2.087138213967301908e+03,-1.675474172009624139e-03,-4.184042492684850179e-01,-9.082593665800393623e-01
1.523482542084482702e+03,1.910424566551228509e+03,3.000000000000000000e+03,3.866972902265848177e-03,-8.118648737015791150e-01,-5.838325730636242383e-01
5.034392862277941845e+02,1.287596512379240949e+03,2.037361820853904419e+03,-1.141511894448570680e-01,-6.214951088269234925e-01,-7.750569886482766568e-01
2.720703867239731608e+03,1.546138481202905496e+03,1.813668582711556155e+03,-1.756250147606927547e-01,9.560599723053234689e-01,2.347449329503207005e-01
1.476624617892371589e+03,1.565072048051925094e+03,1.552964304489645883e+03,4.586169413361241426e-02,9.615074760903180584e-01,-2.709244884347324356e-01
1.951144447630869308e+03,1.285589268423830163e+03,1.373040072837578009e+03,-3.015990521628900689e-01,-5.506104713639518033e-01,7.783740235637447435e-01
1.483656513377690999e+03,1.400199984429087863e+03,2.830573372994008423e+03,6.168441205277327977e-02,-9.179603205497198770e-01,3.918467598512960226e-01
1.154488249556451137e+03,2.537466641944435196e+03,1.064833195005025118e+03,-4.835075315100634263e-01,8.519533208715804884e-01,2.009875768024753651e-01
2.272359926297460333e+03,2.375775138412288015e+03,5.874119622687943121e+01,-3.625285123049025839e-04,4.061034302711090394e-02,-9.991749939886898080e-01
5.879824946954313418e+02,1.076046016944777193e+03,7.823119154986046624e+02,3.158943078541662317e-03,-8.854934774102743988e-01,-4.646410685060959334e-01
4.775679586567864590e+02,1.333325176352337849e+03,2.073981345594073446e+03,-2.574539191242747804e-04,9.528762344318267852e-01,-3.033592187036714405e-01
2.934541669006015582e+03,2.013668038674833952e+03,2.245463273378182748e+03,-6.710700357423363682e-01,3.310981599033923084e-01,-6.633543665623728991e-01
1.566306560651971495e+03,1.932890399865102381e+03,3.000000000000000000e+03,8.618488520428901900e-02,-5.344250498811168315e-01,8.408103422424639817e-01
1.464548069619867420e+03,1.318190223456865851e+03,1.536021031532433653e+03,2.779914911333564251e-04,-5.636166550471254366e-01,-8.260364331397377358e-01
7.669506078673656475e+02,2.648398836944380946e+03,1.741473290952926163e+03,2.327877952717276600e-01,-8.816110825864945655e-01,4.105748913818250134e-01
2.274203926704473361e+03,2.361103825286623760e+03,1.142490664266560429e+00,-1.887255283676231928e-04,8.568938883797566630e-02,-9.963218822364835470e-01
5.263421391300106507e+02,1.037519228385630868e+03,7.583158970212452914e+02,8.406675185683144813e-03,8.794114562848837080e-01,-4.759882544425045880e-01
1.179763660212013747e+03,2.507610834600960516e+03,1.105835290788552811e+03,4.341388102311609376e-02,1.521869335395903411e-01,-9.873977780987391872e-01
2.745121531447356347e+02,4.982687685237698929e+02,1.504180250842703572e+03,5.647011220044906299e-01,8.149286946563349954e-01,1.303988705188479091e-01
2.798209076153259048e+03,1.572634310287709241e+03,1.678521598721707051e+03,7.560922436398816366e-05,9.707505593021663604e-01,2.400902869709151677e-01
5.081433424864434869e+02,1.307561533061253385e+03,1.770214361879515081e+02,-5.310401726592044458e-01,-5.842461917974204333e-01,-6.137203943102218506e-01
5.758892216490904730e+02,1.357283569406471770e+03,2.076213083996835394e+03,-2.085681840628107186e-01,4.092032056208141921e-01,8.882860176240483518e-01
2.121748978766835990e+03,2.551142626167772050e+03,1.539553708690545591e+03,2.168087575827182777e-03,-2.220852034962909616e-01,9.750248518803377173e-01
2.712294001878538893e+03,1.548287617535130721e+03,1.824014148599516375e+03,1.225412683093336178e-03,8.981434494818107961e-01,4.397008557151897978e-01
2.733477520441666002e+03,1.515737515074492194e+03,1.798733901286580931e+03,-1.213955853154521789e-04,9.329601534635507676e-01,3.599796345800407860e-01
4.054734890839055339e+01,8.067034038519600472e+02,5.961227837479979144e+02,-1.868519810662141456e-01,7.413760482884961256e-01,-6.445524743539230439e-01
2.220486028142613122e+03,2.348109177630901740e+03,9.695832780252601424e+00,1.980345072412731666e-01,9.713113535630870654e-01,1.316684790720617781e-01
1.125054412390426819e+02,3.598041848168676893e+02,1.209407703554676573e+03,2.122271396599706705e-01,8.526189676206760160e-01,4.774940180203309792e-01
2.048750480219191104e+03,1.252225083650866054e+03,1.024207075511453013e+03,1.407624620291222650e-01,-4.365402356520491356e-01,-8.886048345245221025e-01
2.296915835092023372e+03,2.374377153536022433e+03,2.608544087207809525e+01,-1.080949896056233317e-01,-9.622348154679140064e-01,-2.498392145432530020e-01
1.408118407050740416e+03,8.576878944608957056e+01,2.792789036956669861e+03,-2.012173028796300223e-01,-9.730467192277049149e-01,-1.126573531645727044e-01
6.009652574589620144e+02,1.885640212153971788e+03,8.087614164068813807e+02,5.482324931089288533e-01,-2.005008642165921062e-01,8.119362887246559524e-01
2.909921166464960152e+03,2.759025266278894833e+03,1.398219709240690690e+03,-8.236441504808654779e-01,-4.457809304757076041e-01,-3.505562371472886185e-01
2.745750607445282185e+03,7.176052070090091775e+02,7.394529117180172761e+02,-1.559173642221535949e-04,-1.352776921367625507e-01,-9.908077117684979118e-01
2.808837484522383420e+03,1.177081433446272513e+03,1.174132781673998807e+03,-4.098011104476792163e-03,-4.279388183862548045e-01,-9.037984144836522793e-01
2.627961476359394055e+03,1.331348728231605946e+03,2.350301543600568039e+03,-1.970630980459597316e-03,-8.166785163485039689e-01,5.770895229930493864e-01
1.017485736655803294e+03,2.191986735364711421e+03,2.549239369497262032e+03,8.363229324391170671e-02,-8.128240580812942095e-01,-5.764743620760780507e-01
1.482135819308804912e+03,1.589973332218101632e+03,1.506501935095669523e+03,1.044075118936938634e-02,-9.999415062896941375e-01,2.823953558265628310e-03
1.618513877332162110e+03,2.013232150262934510e+03,2.966857788974583400e+03,1.353682279948564306e-02,3.196996424547998150e-01,-9.474222358815357348e-01
2.543653223328188233e+03,1.656904068453197169e+03,1.186516315123770937e+03,-7.550515646875163300e-01,4.338575239950560047e-01,-4.915941247978996564e-01
2.698774822186038023e+02,2.394873512475044663e+03,2.532146456500975091e+03,4.592412221338689621e-02,-9.876869246584596418e-01,-1.495510409781361238e-01
2.575185011899809979e+03,1.865917876735999471e+03,9.935421065504671105e+02,6.384912628544475721e-01,7.425633514499704324e-01,2.023081222836109472e-01
5.567782488101009903e+02,1.150693744761048265e+03,7.238476187579018415e+02,-7.619558501492086633e-02,7.676180412268605036e-01,-6.363621418714912048e-01
1.428667588369532723e+03,6.488313343132601858e+02,2.787207513284711240e+03,-9.330550664769428071e-01,-3.434980879160092204e-01,-1.068517969888829189e-01
1.778316975801854824e+03,1.076648581150914055e+02,1.275186350978482778e+03,-6.120044019978964078e-01,4.912458364215356865e-01,-6.197807193949349536e-01
2.373706499963054284e+03,2.135576675904846525e+03,1.405659380382696781e+03,8.331042733745325224e-03,-5.730052590859646688e-01,-8.195093451491539671e-01
1.137346689840910130e+03,1.082884910159409628e+03,1.788579452092361862e+03,2.866367831374140307e-01,2.760182671408932809e-01,9.174166287773366513e-01
1.190136738780543510e+03,7.864508583230202703e+02,1.154242179204922877e+03,-3.273693496771726275e-01,4.407896472042017177e-01,8.357833426250731446e-01
1.966261457515584425e+03,2.562429387637201671e+03,2.030656055694520319e+03,9.989939095793468060e-02,-7.966157585925438128e-03,-9.949656536883824121e-01
1.087559523935617335e+03,2.999106624189046670e+03,7.553216933586415394e+01,-7.935504452073989246e-01,5.538728264397421164e-01,2.519971885612824480e-01
1.434449659870487949e+03,1.585441174534337733e+03,1.562852907753448108e+03,-2.463770761347845555e-03,1.934442846364041180e-01,9.811081686415343839e-01
2.764487935228235528e+03,1.582604872635480660e+03,1.806749326544260384e+03,1.248739334258715377e-05,-2.178361925140626654e-01,-9.759853447030039097e-01
2.653927179234715368e+03,1.527377325161840190e+03,1.693932037183294369e+03,-1.633552370338634002e-05,1.181876400144837337e-02,-9.999301558362106990e-01
1.984801359420474455e+03,2.284149824992166032e+03,1.100358293405077035e+02,-3.241730430529730644e-01,8.432688128635448255e-01,4.287301568696597620e-01
1.526225977756908605e+03,1.530969749033180506e+03,1.563091770943754227e+03,-9.878289057660536235e-03,-4.719458709936954488e-01,-8.815721832370254640e-01
1.028739993422462703e+03,3.000000000000000000e+03,7.372042596627129285e+01,-7.133545060567867413e-01,6.378851038402134632e-01,2.902205075235688159e-01
5.637168207814102061e+02,1.031635186185565090e+03,7.773975381311787487e+02,-3.318885009971631311e-03,5.941067494496489187e-01,-8.043793602900702888e-01
2.717264449574528953e+03,1.430704866979682038e+03,1.775356994095443042e+03,-1.505241444374954274e-01,3.875024277996809152e-01,9.094967566686057436e-01
9.947042116301421402e+02,1.666285012448164252e+03,1.995452956886011407e+03,1.571476119108358716e-01,7.136807713758161476e-02,-9.849930079124448179e-01
4.264094567942280491e+02,3.479749943383156960e+02,2.430845329751565259e+03,1.141523595213381551e-02,-3.383987270841257167e-01,9.409335757087216034e-01
1.187370688402473661e+03,6.479445934129558964e+02,2.487580123884379645e+03,-8.429508603231280484e-01,8.126116200598774639e-03,-5.379291898716713760e-01
1.477500945386698049e+03,1.601611853640265508e+03,1.441825751169218847e+03,-3.506039261429809949e-04,6.181196378455805496e-01,-7.860839588660585298e-01
5.398347027331633399e+02,1.366268301159152543e+03,2.052920202911725028e+03,-4.952904460028073053e-01,5.434622593154949666e-01,6.777434225413315749e-01
2.700862217995334049e+03,1.470691054394877028e+03,1.836110720590944084e+03,-2.367214201236300664e-02,-3.307588519151142409e-02,9.991724653488729402e-01
1.509449067623479550e+03,2.410452954128802219e+02,1.458573182541478673e+03,-7.394286144193183974e-01,1.868241122889842676e-01,6.467936883159575157e-01
1.556643905531086830e+03,2.848669292145351847e+03,1.709068639289718021e+03,-4.902238948036119828e-03,-3.769031759042790197e-01,9.262396903861140895e-01
3.980838973141756014e+02,1.403664056148790451e+03,2.119371710836659986e+03,4.487013922183306219e-02,-4.710784310933220365e-01,-8.809493642456799334e-01
2.652352214753728276e+03,1.523673012831715141e+03,1.722198709764588557e+03,4.065132051755553783e-02,8.364807911702836218e-01,-5.464863732457702072e-01
2.920699569741034338e+02,2.387207136359698779e+03,5.056013240442619576e+02,-5.976035994811187968e-02,-4.908704757159935150e-01,8.691805770087285277e-01
2.701609443962558998e+03,1.499334689743014678e+03,1.704652373611101893e+03,2.440824827918308682e-01,-1.146129927975493568e-02,9.696867433418874249e-01
1.475451871413472190e+03,1.470432155952992616e+03,1.609995318692762112e+03,-1.854456749160665607e-01,2.052281148688702428e-01,-9.609845589406181832e-01
1.858607501097398654e+03,6.121291438522663384e+02,5.436061342827315457e+02,-7.407761426158153695e-01,-5.564566087700721919e-01,3.763067220863109963e-01
1.752752800854527493e+02,2.736115296850157847e+03,1.594200636426327492e+03,4.593751672124774532e-01,6.373196022194322907e-01,6.187068614258071086e-01
2.895678299165922908e+03,2.760223555482656138e+03,1.446267778529883799e+03,7.775283304995393996e-01,4.943131060795420972e-01,3.887212991702337916e-01
1.802719130057942607e+02,2.208329041024504932e+03,2.974837828388926027e+03,-7.954274960203092659e-01,3.253885445279668109e-02,6.051746206887403945e-01
1.315139539589705009e+03,2.813541960251415730e+03,2.429636686930681208e+03,-2.464919489153644672e-01,9.671090649077158652e-01,6.278356228527413874e-02
5.869554668415173637e+02,1.368342714950495520e+03,2.111108516120811601e+03,5.002747713918138661e-01,-8.568518344490043681e-01,1.246197693395573319e-01
2.213394214088114495e+03,2.435470573530576075e+03,5.938055595837624878e+01,1.364597358326407933e-05,-8.778139026011030355e-01,-4.790018290299198900e-01
1.471246591840684687e+03,6.248057003662178204e+02,2.885777797350422134e+03,1.444736199071591509e-01,-9.115314745129460272e-01,-3.850165504535826844e-01
2.113796872378408807e+03,9.010998279263783388e+02,2.422469503936978072e+03,2.097697623508183173e-01,1.142332862321723541e-01,-9.710547889382348252e-01
2.851608953374789962e+03,8.935696480038196796e+02,2.802196717055422141e+03,-1.878816556982777775e-02,5.845795300202167866e-01,8.111188432750550126e-01
1.577805074408018754e+03,1.888092115286641501e+03,2.921324271799660892e+03,2.449611481371986171e-02,-5.721453208114634092e-01,8.197863576765477278e-01
1.613254714196885516e+03,1.811996460302118976e+03,3.000000000000000000e+03,-1.151478360389619663e-06,7.195462227712953185e-01,-6.944445501940637033e-01
2.701073154237854396e+03,1.499926073300241114e+03,1.838061984519285943e+03,1.033809825276115098e-02,-3.263436716655710446e-01,9.451946528035112260e-01
1.421799210429748200e+03,1.577069919206457371e+03,6.725242913475159412e+01,-1.236087407084837941e-01,-8.846220491165732724e-01,4.496273005915654153e-01
2.909941385570650255e+03,2.026151398342723041e+03,2.433063911891681073e+03,-4.943449390114691977e-01,4.595403179722661879e-01,7.378656906454558184e-01
2.930283108903975972e+03,4.080320478668493251e+02,1.998945800046911927e+03,1.955653809397143658e-02,8.884692470990519508e-01,-4.585192894274164321e-01
1.259784855242425152e+02,2.920102659166388094e+03,2.451965358854075021e+03,-1.466377693516927316e-01,6.066119557974077869e-01,7.813573444226422637e-01
2.079613497152153286e+03,2.624445036935071585e+03,1.559537236545236965e+03,5.791673977906911519e-01,-8.138144636964571577e-01,-4.765652122015639341e-02
2.841411354197486617e+03,1.566151801987582076e+03,1.767935871941342839e+03,-2.701851865074283432e-01,4.188371830437986887e-01,8.669344722018392790e-01
2.770200745179146907e+03,1.438527688131453942e+03,1.792160093516640018e+03,-2.640012278719276045e-02,-7.946840750912999296e-02,-9.964877348591822948e-01
1.399649663837290291e+03,5.794541705739559347e+02,3.257555454741956851e+02,-1.130261718303823305e-02,3.666214367066474300e-01,9.303015494945535702e-01
2.766082059488807317e+03,7.447239350520789003e+02,7.841993923424598734e+02,1.301229619196155198e-05,-9.760614401282117214e-01,2.174949767822727531e-01
2.685801924398997926e+03,1.346216131098961796e+03,2.308788247846803188e+03,-3.329388707227078775e-02,4.669731922298898663e-01,8.836444730898537214e-01
5.186335680074840866e+02,1.138284732038000357e+03,6.725407562289342422e+02,7.713973150167331427e-01,2.208289105958817500e-01,5.968088258647077371e-01
2.306395475561961575e+03,7.648595606030925182e+02,7.583121805870464414e+02,9.188986189838499463e-01,3.229425682950972099e-01,-2.265688098846352361e-01
2.910094617144576659e+03,5.192847376748213719e+02,2.811559662749287327e+03,-6.422525900724683767e-01,2.889975960106891395e-01,-7.099239396197654095e-01
2.333702675266708866e+03,2.371115097100310322e+03,0.000000000000000000e+00,-1.045331393394311886e-01,-9.626034267942269462e-01,-2.499349225375569195e-01
9.036013712776218654e+02,5.953428542864671726e+02,1.837158715503347139e+03,8.607296711691138080e-01,4.369475128691991950e-01,-2.611920828940459405e-01
2.935876345127213881e+03,2.749264055371236736e+03,1.364172816692644346e+03,-7.293132985316314043e-01,-5.378074367836909175e-01,-4.229246664892787888e-01
1.124101392176972467e+03,2.554799711982232566e+03,1.193209559007201506e+03,6.959838320201849719e-03,5.922833601729088349e-01,-8.056996846920353450e-01
