x,y,z,nx,ny,nz
1.520867875371719947e+03,1.535360668249748414e+03,1.386103925682473118e+03,8.156674400048901166e-03,-2.530701391864765837e-01,9.674135482382232309e-01
1.051994353379041058e+03,1.187884151838379694e+03,2.308321777438108711e+03,-1.969757247940197298e-01,4.347218586576076516e-01,8.787590508479248275e-01
1.461679200235035296e+03,1.528487649190258026e+03,1.406446040922044631e+03,-1.573047652226384208e-01,-2.499277568002747363e-01,9.554011341939223634e-01
1.526944303789245623e+03,1.502996324629518540e+03,1.552755346043838244e+03,5.156143969448644393e-01,7.771897521029628164e-01,3.607185646585426286e-01
1.500969967919091232e+03,1.486727940735300990e+03,1.405916448010920703e+03,-1.786347241970309141e-01,9.338891292016676671e-01,3.097430058451708379e-01
1.729154433850929536e+03,2.568234428431387187e+03,9.447827014392466936e+02,3.059749615936954714e-02,-9.859707744839462107e-01,1.640896861240974947e-01
1.511734059308216729e+03,1.905126439106400539e+03,2.355359070090823479e+03,-3.303607737900390862e-02,-7.186415175034182035e-01,6.945955563576496905e-01
1.483787670797208420e+03,1.431813159529296854e+03,1.539101998266201690e+03,-5.814937221937739320e-01,-7.116545467779409329e-01,-3.942243740555796405e-01
1.388078468621609318e+03,1.436016200583546606e+03,1.521535075071111351e+03,-2.221062061865337056e-01,-9.033086371209726462e-01,3.670181729507079327e-01
1.507271679226912738e+03,1.938105711745480903e+03,2.147731621810702563e+03,-3.615897027208930803e-02,-5.363040465110365668e-02,9.979059617848873298e-01
1.422543398196561839e+03,9.493926621452791323e+02,2.093464660629737864e+03,-5.610177531080658975e-01,-1.626188279462548736e-01,8.116737013695612957e-01
1.332309605329523265e+03,2.059920398372733871e+03,1.055540962888457216e+03,6.339480795273654268e-01,-7.724710920334447728e-01,-3.739310680088903105e-02
1.932735509713278589e+03,2.307452436734486128e+03,1.492904451151865032e+03,6.398578949087306844e-01,6.380050429335508699e-01,-4.284056950068774738e-01
1.537332761064210899e+03,1.498900695134455873e+03,1.458672778960558617e+03,-2.212580264871841489e-03,-3.807717875515114203e-01,9.246663994616642901e-01
1.442181345497413986e+03,1.531654635799578955e+03,1.356104366668840612e+03,-7.373185085703171972e-03,9.546678090256097704e-01,2.975819392233572391e-01
7.830223690224260054e+02,5.760063755150573570e+02,1.349709167573240848e+03,-3.622813583764989409e-01,3.379159647442519510e-01,8.686570198552707733e-01
1.708212902116003534e+03,1.952265723469642751e+02,5.063405898645923031e+01,-7.524799636451230400e-01,-5.745219462584695291e-01,3.220224178221362532e-01
1.515656298150239763e+03,1.452959395470739310e+03,1.465457418120995726e+03,-4.453688139195809527e-04,8.290970854499685183e-01,5.591044844615248310e-01
2.697337649930978387e+03,1.245464705073417917e+03,7.633778941624753998e+02,9.442089403723954444e-01,3.288252292178531211e-01,1.853228401100448508e-02
1.011851182911958858e+03,1.406754846320837487e+03,3.349949455512635268e+02,3.189186879665754926e-02,9.793287675360479172e-01,1.997450219178997788e-01
2.076764094632504566e+03,8.571668075972837642e+02,2.052302383300496331e+03,9.633934208853401904e-01,1.891309711938301760e-02,2.674236551844180743e-01
7.878598951215486750e+02,1.153211450031872573e+03,2.233153346675631383e+03,-5.861574959630959647e-01,8.093800216829587502e-01,3.637815865002402838e-02
1.390025873855675172e+03,1.456057771350389658e+03,1.476461995328138073e+03,-7.407217258722295639e-02,9.960404348685691911e-01,4.916060775702614516e-02
1.469510759881834929e+03,1.431530684482895822e+03,1.487629384843050730e+03,4.840445623143493914e-02,1.115903905467525992e-01,-9.925747293552069639e-01
1.451522028820547803e+03,1.385708330847303159e+03,1.479645788772965716e+03,7.116029261540192108e-01,-6.539884399988172836e-01,-2.567496754368952527e-01
1.389577316109778849e+03,2.062689687348605730e+03,1.035969589413978156e+03,-8.305584165060697632e-02,5.327048674772639353e-02,9.951200844166344650e-01
1.020965322872034903e+03,1.454339437799482312e+03,3.434969624401514920e+02,1.564760460086934589e-03,2.476563189843655755e-01,-9.688466850806770614e-01
2.444302319164454275e+03,8.258750333101804699e+02,2.032651031231281422e+03,-3.007858285016337674e-01,-7.883488064776912607e-02,9.504277705148549416e-01
1.431779177339517673e+03,1.421869498384975941e+03,1.583979930490912466e+03,-1.976153969232384046e-03,4.410744691280223950e-01,8.974683323097941701e-01
4.434286862700028564e+02,1.656843335442370702e+01,2.578114959571415966e+03,9.120157978865743864e-01,-3.766576896551431242e-01,-1.623458321884643507e-01
1.522398819819364917e+03,1.455478555135982788e+03,1.524888845840252998e+03,-9.516809684904807554e-02,9.415205274298208415e-01,3.232369560715516732e-01
1.391243146264084544e+03,1.977078208690279780e+03,2.280831662661567407e+03,5.587116856817159888e-02,-4.626249886487190377e-01,-8.847918017254677858e-01
1.022772903683032723e+03,1.429428495234862567e+03,3.015806468533523912e+02,4.059562314287140975e-05,-9.620966503450918417e-01,-2.727086976001125707e-01
1.606862896420286006e+03,4.699322163063228572e+02,1.067438587324844093e+03,5.170133622186534605e-01,-7.421438278464851379e-01,4.265204825992885418e-01
1.589507118496019075e+03,1.440270367651081642e+03,1.551089740440741934e+03,-2.120355514482624810e-06,-4.173726789392510073e-01,9.087354108158088861e-01
1.699083696045525812e+03,1.894623928907865320e+02,9.993545914282168496e+01,1.523953306289553278e-01,5.951610822417535696e-01,7.890240486748906212e-01
1.549399003995208432e+03,1.477863498951738620e+03,1.572734018772121999e+03,1.902343027486567278e-02,-4.172971504192117820e-01,9.085709644010109276e-01
3.949273060861517024e+02,7.866110941558722516e+02,1.130045628111998894e+03,8.057611815974988767e-01,3.074480948207117814e-01,-5.061863167073140657e-01
1.498388365048408332e+03,1.480220999789450843e+03,1.503504866718697031e+03,-6.059983965135561784e-02,9.935285002809945976e-01,9.606653196419594198e-02
5.281066454281315146e+02,1.332247718598983965e+03,2.376189928350249374e+03,-2.987444492972007870e-01,-9.517809317439727135e-01,-6.974820415385285521e-02
1.784151711723126482e+03,2.568857532425379759e+03,9.686485937007265647e+02,-4.473803109056206928e-01,1.956590791057190026e-01,8.726788539763594699e-01
8.146484039143881546e+02,1.979506387657536152e+03,1.210586631183243611e+02,-7.289050302796381553e-01,6.818646844764711945e-01,-6.130260106098606859e-02
1.503767606141603210e+03,1.484279872678324864e+03,1.514042076622166860e+03,2.460163487665689430e-01,8.790046140883426284e-01,4.084444203939743834e-01
1.395055533313795877e+03,2.773712190976652437e+03,1.828842639443724693e+03,-2.598653013807050716e-02,-3.201234659083688761e-01,9.470193592668507687e-01
1.002733903900011114e+03,1.497963733523539759e+03,3.230972329682345503e+02,-2.960686214135590383e-02,-2.475480546555050565e-01,9.684231483966179166e-01
1.426501569499290554e+03,1.859112711780976724e+03,2.178760651775246970e+03,-2.671943191077309487e-01,-2.256464563940934198e-01,9.368515744520817812e-01
2.364474216942357998e+03,5.418755374977447445e+02,7.024563719690746666e+02,8.222645795292958804e-01,4.561913050924123469e-01,-3.402505759136813523e-01
1.480646465618626053e+03,1.484000941114270063e+03,1.475067051268002388e+03,1.200835997615818662e-01,9.235733061012385559e-01,3.641322250577779251e-01
1.535215017249766561e+03,1.478356817406563550e+03,1.463090238336656967e+03,1.411689031791141802e-01,9.334178501764327507e-01,3.298521755987253723e-01
1.542084297038091108e+03,1.427659482180070199e+03,1.404431443966388997e+03,7.426503508075617916e-04,-8.397720346003966219e-01,-5.429386506536135748e-01
2.536212402672180815e+03,1.557851481548589163e+03,2.190727730065446849e+03,-5.000553864135486304e-01,1.106975851757142637e-01,-8.588891984156408199e-01
1.523537242718063681e+03,1.360305793040748767e+03,1.801871983969280336e+03,-4.453096769257259419e-02,7.209273108332177049e-01,-6.915784882507178821e-01
4.588884107610435592e+01,1.111288439681904720e+03,1.425530208183202831e+03,5.947952069235534767e-01,7.902496740897425598e-01,-1.473910255810135794e-01
1.700601931339458588e+03,2.109157440877170870e+02,9.617032881368115227e+01,7.810805865966582995e-02,5.459333484649803170e-01,8.341797829042805201e-01
1.335613439231785378e+03,1.401339463257054149e+03,1.536059096498345980e+03,-1.824638446515358947e-01,-9.108963338589913805e-01,3.701010866739370964e-01
1.444891804471436672e+03,1.469174272991145244e+03,1.532620347678042663e+03,-5.146263306175313801e-01,5.063801715578506446e-01,-6.919095762367919455e-01
2.511850120046674419e+03,2.955980033844855825e+03,1.290979675026399491e+03,2.726788872975049668e-02,6.465264859352983784e-01,-7.624040695250624555e-01
2.449769531137150352e+03,8.605928515238670116e+02,2.074018136628711545e+03,1.439436413309171658e-01,8.180199550969413647e-02,-9.861990983827901847e-01
4.849186152673867412e+01,2.404637792605829418e+03,2.263338316289793056e+03,4.450513714734952164e-01,-5.809914264452440413e-01,6.814530351731376001e-01
1.540364473886078486e+03,1.558326077813538859e+03,1.426866332310376265e+03,9.293335853806115876e-02,-2.519833179425767233e-01,9.632589466750290930e-01
1.545976788577022489e+03,1.433362632026654637e+03,1.414337531304091954e+03,-2.522806582043860425e-03,-3.898956984755687083e-01,9.208555694337727804e-01
2.717999338693759910e+03,2.803583537210547092e+03,2.476326809782045075e+03,6.925033307599163246e-01,3.512094594596158470e-01,6.301516107037308245e-01
1.473597161924844158e+03,1.463897458604380063e+03,1.464982639523507942e+03,3.612343457180821615e-01,-4.072348444991763516e-01,8.388501230251806939e-01
1.407116607901180032e+03,1.475765320464815659e+03,1.571182168027814896e+03,-9.918719864745676462e-01,-1.057328508892570323e-01,7.078507391975598362e-02
9.810831500677816166e+02,1.195200011036065462e+03,2.267080843470002492e+03,-8.130370899461164536e-02,-7.842740786993138702e-01,6.150641237985368104e-01
2.682428890434946425e+03,7.599787739322597417e+02,1.445746363873096470e+03,7.987857779871497810e-01,-5.936609688768800241e-01,-9.750864022038309431e-02
1.132903952357173921e+03,2.873906520387432693e+02,2.055893441962760789e+03,-3.747516503622028705e-01,-7.957803946468929857e-01,-4.757044923546975834e-01
1.528885734751136624e+03,1.360421314693847989e+03,1.367536150875202793e+03,-1.523135927550376204e-02,-3.962636238312133297e-01,9.180104281122166698e-01
2.731680808963533764e+03,2.186563572353278687e+03,3.815550029856693754e+02,7.507664984345746584e-01,-4.961365053522218127e-01,4.361172237887109837e-01
1.519698480680345028e+03,1.413448765877428514e+03,1.375622727566643789e+03,-2.544923960782298211e-01,-9.179046928510206094e-01,-3.044414478687731962e-01
1.363814292822114794e+03,1.484410192573428503e+03,1.501673708063650110e+03,-2.515177282004558632e-02,2.717063002354737633e-01,9.620514927675958283e-01
1.449352494096590817e+03,1.556346571140056085e+03,1.542444381361264732e+03,2.330847843244021264e-02,5.285714115336392904e-01,-8.485687819749797578e-01
1.207824195673750864e+03,2.541752606214108710e+03,2.528086104172694377e+03,-8.104378370561399203e-01,4.573200305196887250e-01,-3.661268932395387310e-01
2.213418538869560052e+03,1.334900550756922257e+03,2.148740020353264299e+03,3.274506592557551166e-01,-3.255813842230000366e-01,8.870021578330047340e-01
1.633458164696994118e+03,1.490488611879882455e+03,1.543188528467816695e+03,5.795463906607040214e-08,9.198037477487279734e-01,3.923787272870322695e-01
1.408220775928666853e+03,1.931132872013969745e+03,2.299110314763775477e+03,-4.131158222652235525e-04,-9.018451574184345176e-01,4.320591873531177685e-01
1.445196351276242012e+03,1.560093333616222026e+03,1.471061184294353552e+03,9.458739665674628649e-02,-2.349427135257154131e-01,9.673960645748321818e-01
2.086929917739442772e+03,2.454624088596424514e+01,1.399045786433412559e+03,-2.959150827834764463e-01,-9.550681005728011153e-01,1.670889133097408497e-02
1.451879967440090468e+03,1.494501199154099822e+03,1.493186411330014153e+03,-2.099130278431173349e-02,-9.808516650432149708e-01,-1.936217353226916960e-01
1.473508585649722363e+03,1.471209550686772673e+03,1.509066213123367334e+03,-2.686554753498097137e-01,8.091558457263239301e-01,-5.225811447913952801e-01
1.605128490611954703e+03,1.487795255263871240e+03,1.487563010873548819e+03,-1.190705638182651616e-08,1.950299036013220799e-01,-9.807972964385959225e-01
1.057973082965658705e+03,1.162286491053595000e+03,2.338754278038833490e+03,-9.167476038151167739e-02,4.415417710108179294e-01,8.925450144175490763e-01
1.392858507821372541e+03,1.504976905426269695e+03,1.476242135257396285e+03,-6.725232532592981477e-04,-2.802065741425264767e-01,-9.599394895095121338e-01
1.095309457003766738e+03,3.327257982176816995e+02,2.039163840301989012e+03,-1.502863476252881414e-01,-8.485825839993192954e-01,-5.072687767352622723e-01
1.435766899227499607e+03,1.495868377814826772e+03,1.510117632716287289e+03,8.954312942380938944e-02,9.265681097089532026e-01,3.653129699906210170e-01
1.470949078665182014e+03,1.990150345073230255e+03,2.271272563317885670e+03,6.504027077632213057e-03,-5.668543585011123764e-02,-9.983709025178250096e-01
1.433987447040769666e+03,2.785517524704659536e+03,1.914951680097030476e+03,1.288123519224914637e-01,-5.284870997181527752e-01,8.391118896927224347e-01
2.548904971894438859e+03,2.966676327001143818e+03,1.262876013036282529e+03,-5.932880689619909539e-03,-8.850856389364539778e-01,-4.653903873901693578e-01
1.057953060044752419e+03,1.478739887602517683e+03,3.461327010827261574e+02,-9.272210141321178198e-03,8.425829854462166812e-01,5.384867117725707919e-01
2.642684970608326694e+03,7.079092694385287814e+02,1.748329754797713122e+03,-1.606209365827622748e-01,-5.137248307935151637e-01,-8.427856862556758477e-01
1.436600760777207825e+03,1.439375950873729607e+03,1.489401739430076304e+03,-2.608474080967465025e-01,8.109566451541109222e-01,-5.237441640434752355e-01
1.430461084290746612e+03,1.475633461584536690e+03,1.600504217291521172e+03,7.517875791756727377e-01,2.200809448554711112e-01,6.215945732619492237e-01
2.313624170993411099e+03,1.945820592810843436e+03,8.473508764783272227e+02,-1.409360456160813901e-01,-1.179902893794602670e-01,-9.829625235268397709e-01
1.412993171125440085e+03,1.594038981656726946e+03,1.513178380148934593e+03,-4.017337046294350844e-01,2.161192826489236885e-01,-8.898890302908697425e-01
8.628292731552394343e+02,8.246475049192487177e+02,2.409434804946073200e+03,-4.079266605231584020e-01,-6.503673372337667180e-01,6.407949487112736264e-01
1.809062835401819484e+03,1.542563899278841291e+03,4.463040341623696463e+02,-3.869393247769753463e-02,7.908667267632610298e-02,9.961164981037102795e-01
1.568738830894329340e+03,4.597447927857405716e+02,1.761013732112913203e+03,-2.424624771036663629e-01,8.601830411466270254e-01,4.486614346258148145e-01
1.479747752295460259e+03,1.438628862188854555e+03,1.494125443277805516e+03,7.992256056666730002e-02,-8.758229727916153617e-01,-4.759690164736827822e-01
1.509797749804320574e+03,1.418710316484325631e+03,1.466197063814962576e+03,7.154762088579198764e-02,-9.040439018041557251e-02,9.933317593743241636e-01
1.436030131243683627e+03,1.386345352482896942e+03,1.345742608127001404e+03,-2.554475719458959571e-01,-9.176656331150806478e-01,-3.043621589265730898e-01
2.781951068344978921e+03,1.205075944771728246e+03,5.870755653278656609e+02,4.351791062137143618e-01,-8.402018693773589675e-01,3.235428321100997096e-01
1.656753394289121843e+03,4.365501205150615647e+02,1.782025665611711929e+03,1.468486442935379313e-03,-4.725733170066753197e-01,8.812901358808433727e-01
1.006697068972543661e+03,1.459295496246710400e+03,3.596765879044532426e+02,7.072334637470929558e-04,4.726734832114019569e-01,-8.812373562722067843e-01
2.095099410254975737e+03,3.082460757106459681e+01,1.340940727113252024e+03,2.143424230320928603e-01,9.766091351179737590e-01,-1.708575116448352374e-02
9.884933455076898099e+02,1.337080754388779496e+03,2.587509821275533341e+03,3.687365608639461279e-01,5.941268112639336296e-02,-9.276332691336608427e-01
1.535258841771841162e+03,1.146964567512465464e+03,7.841183039797498395e+02,5.680444542584826007e-01,-6.461636860921120551e-01,5.097038245511182897e-01
1.394386803146579723e+03,1.459123479772001929e+03,1.538310112633510698e+03,-3.076749709982097027e-04,-5.415694864742699455e-01,-8.406559323861979571e-01
2.495459703621199424e+03,1.553193071412655399e+03,2.150625776995439537e+03,4.795555404972520752e-03,-9.928124307712777874e-01,-1.195846142042723131e-01
2.308453583304371477e+03,2.713109241824623950e+03,1.534559455093278530e+03,-5.780343320739741442e-01,5.358593508489092327e-01,-6.154112990932001370e-01
1.728749945718930576e+03,1.564291360253538869e+03,4.537332843759414231e+02,-2.698956690532314674e-03,2.859028324044892710e-01,9.582548126964315349e-01
1.549952269263758126e+03,2.420534673576863952e+03,2.047602244620164129e+03,-3.905632808742243722e-01,8.889820079752116522e-01,2.391052344243482786e-01
2.944898290966194509e+03,2.133194229377359534e+03,2.811714829823267792e+03,1.699798070195501776e-01,-9.669330837129155309e-01,-1.901243719964078593e-01
1.519648875615015868e+03,1.500724998638007037e+03,1.457221584296329638e+03,5.932280447630654263e-02,8.205045978164278164e-01,5.685534362143701559e-01
1.530741404027694216e+03,1.429444833960852520e+03,1.532665847503144505e+03,6.621125209534989460e-03,-7.493310786321240036e-01,6.621624387542509593e-01
2.767707988813526754e+03,2.786450654490161924e+03,2.499453044893214610e+03,-1.191784493717076010e-01,8.000191686631895616e-01,-5.880185600615125407e-01
1.189771299492840399e+03,9.588112164664549937e+02,1.886971655871395114e+03,-6.447493699914798038e-01,-7.634419858553006533e-01,3.813901059158175677e-02
1.484662703359843817e+03,1.960628083966871827e+03,2.331134767198850113e+03,2.357885956130801371e-03,-7.757937411564618246e-01,6.309821800623838239e-01
1.667691135940247250e+03,7.977242227229625087e+02,4.571779976630179476e+02,7.118367922607196085e-01,-4.981209063452829988e-01,-4.951403274282180078e-01
1.556960404061188228e+03,1.383274395138538466e+03,1.579465556765930614e+03,7.186558246989954105e-04,-8.895240248347671130e-01,-4.568878339106463016e-01
6.097584725369022181e+02,1.575694523312386536e+03,9.320603826172329036e+02,-4.957018885865899782e-01,8.649364882541067390e-01,7.851438682395485424e-02
1.516610147661495148e+03,1.540610329760265813e+03,1.498256618149422366e+03,-1.540584580558305994e-01,9.880198166192440956e-01,-9.101289421570754254e-03
1.432512929843469465e+03,1.992680903392146547e+03,2.312140790971411661e+03,-2.688499521981878998e-02,-4.631812605345870248e-01,-8.858556975724778404e-01
1.669629261153694415e+03,1.679814448736713530e+03,9.106324043020449608e+02,-1.001240358118544865e-01,6.081443227792507900e-01,7.874869269544180206e-01
1.269718878551054786e+03,1.859212949070685568e+02,2.388141088773960746e+03,-6.813244784409916432e-01,-6.305896199888580966e-01,3.716903095850339067e-01
1.491488846837782148e+03,1.921138867072637822e+03,2.280649490480211171e+03,-2.337786565361308910e-01,3.925150646804901888e-01,-8.895389051340207853e-01
1.484585308838085666e+03,1.553516204455552497e+03,1.467947734715011848e+03,2.169928361172352993e-01,8.854474416485473842e-01,4.109707254195131276e-01
1.497838149020516539e+03,1.368232367024232872e+03,1.468137467169819502e+03,-2.488313453619118640e-03,4.349512248937673631e-01,-9.004505762447864159e-01
1.571342802292083888e+03,1.377728845108223823e+03,1.354513392780827417e+03,1.037833735755562398e-01,3.941694958455090325e-01,-9.131590331996797261e-01
1.434341529268776185e+03,1.463124736452371963e+03,1.495302905913498080e+03,-3.994071972358708561e-02,3.871598692317390622e-02,-9.984517070266977212e-01
1.523735394543386747e+03,1.509174624523439434e+03,1.442195875199817237e+03,3.941288833353470134e-01,-5.067329328965211044e-01,7.667360419589797083e-01
1.553274003352399177e+03,1.431609753681327902e+03,1.492473671567025121e+03,1.881807254077203298e-02,9.370431020503582342e-01,3.487063306647760763e-01
7.274988378055158478e+01,8.370430262701697757e+02,1.312435006381468611e+03,3.765678724873093852e-01,-8.891626493788090668e-01,-2.599738839961405756e-01
1.431911235883007748e+03,1.385644824461066719e+03,1.481007714209971937e+03,3.020131889145445392e-01,9.223708719271898060e-01,2.408734280528745386e-01
1.228114123089606665e+03,1.524714629345234925e+03,1.685626427912027566e+03,-4.538989567764445954e-01,-2.326637729400677368e-01,8.601414452277880152e-01
1.407460909345097889e+03,1.421526290504780945e+03,1.454502338723141065e+03,-6.883376870748786347e-02,3.579863948602833579e-02,-9.969856416701664559e-01
2.091635899795714067e+03,2.471886584536800001e+03,2.762340718134770214e+03,-6.609068302301396303e-01,3.672223076186530433e-01,-6.544844830417149151e-01
2.502663793763619196e+03,1.607910034852144918e+03,2.185165950983736820e+03,2.275166934322814661e-04,-1.665535677084919730e-01,9.860323814762510519e-01
2.855826439278772341e+03,9.366814861490014437e+02,2.733150764175700260e+03,4.984550539491202081e-01,6.272231955070314835e-02,-8.646435507321841296e-01
1.524806232930501665e+03,1.431560897631671651e+03,1.446743726705659810e+03,-2.940132303870148639e-05,-5.092668031858720301e-01,8.606086929077608749e-01
1.925641908067124632e+03,3.907352234588717579e+02,2.309899118669771269e+03,-4.097872185651206811e-01,3.722585706163452635e-01,8.327652683099466824e-01
1.476015644538498236e+03,1.884994137334239440e+03,2.232749270138234806e+03,-4.108876507428447399e-05,9.288245321424895562e-02,-9.956770802808591059e-01
1.477945784425879992e+03,1.479352851547801720e+03,1.550519389251178609e+03,1.448467617463121068e-02,4.426632526132721068e-01,-8.965709335808039748e-01
1.507509263717194244e+03,1.957864085420710808e+03,2.251936192611636216e+03,3.816432362195612549e-02,-9.666952080685289328e-01,-2.530688821246543374e-01
1.457027915080539515e+03,3.428658224315574898e+02,2.719932039750485728e+03,-3.303269314192362471e-01,-8.567430550856768301e-01,3.960750635190409263e-01
1.776139704084572941e+03,1.427747504968482644e+03,7.743216228624069117e+02,5.198109480949154593e-01,-7.610316059313582127e-01,-3.881075534103957114e-01
1.583282741866723427e+03,1.462773253937493791e+03,1.371142154552844204e+03,5.924433941911070450e-02,-1.066148756483133869e-01,9.925338163192667373e-01
1.533909672726404324e+03,1.554814622252237314e+03,1.476087517776068125e+03,-2.084573427670132484e-01,-8.871329977192372596e-01,-4.117530577958051219e-01
1.480514735221558567e+03,1.534915852973964547e+03,1.447541715560901366e+03,-5.755211074346993083e-01,1.408543424183144044e-01,-8.055653351026479392e-01
4.184541331405614528e+02,5.892531477415323593e+01,2.538731444471158738e+03,2.915157979772941554e-01,-4.862159004748203145e-02,9.553295141001957314e-01
1.503313067045511843e+03,1.491208626087045332e+03,1.493546609470849262e+03,-9.388729957199204446e-02,9.309603493823396247e-01,3.528427452236918560e-01
1.560881575894457455e+03,1.473909306431824689e+03,1.464006592286067644e+03,-5.365704303086192839e-01,-3.474989987612213116e-01,7.689841475468606191e-01
1.388167594802427857e+03,2.068329597396741974e+03,9.755839817524268938e+02,2.743265600535897686e-02,5.343506237321839214e-02,9.981944417264915215e-01
1.476017039342707221e+03,1.416902155226457126e+03,1.468213720358400451e+03,9.006304850297416594e-04,-8.121784604295819721e-01,-5.834083795069825440e-01
1.519672467301830011e+03,1.417771839345608896e+03,1.416687212249274580e+03,1.361330523820540317e-01,-2.199079009142387853e-01,-9.659753139519862142e-01
1.675295173829975738e+03,2.176158176355460000e+03,1.701850213143500923e+03,-1.852211399243076928e-01,-5.868371439008063239e-01,-7.882355586139744297e-01
1.401515173269840489e+03,2.113469399235879791e+03,9.770485569637329490e+02,-1.744216129569619092e-02,5.344704809686136315e-02,9.984183412072651365e-01
1.653638460359186411e+03,2.094793592455924056e+02,1.407013294811691253e+02,-8.124044764188544446e-03,7.754151151307495660e-01,-6.313995558467204727e-01
8.914462796033274117e+02,7.995517976670100779e+02,2.450151662913849123e+03,7.831597506814234888e-02,8.136503333586595499e-01,5.760553298724596649e-01
1.504326045374336218e+03,1.448422787205989835e+03,1.373214405003573347e+03,7.722255830146619593e-02,-1.198423459466882030e-01,-9.897850719259060348e-01
2.923423836959890650e+03,2.137844309435958166e+03,1.762698484491145564e+03,9.673129051099365050e-01,-2.265129366168157077e-01,1.140071627267402743e-01
2.479418992768223234e+03,2.053746952063394474e+03,2.877254223015052503e+03,9.623938141640326904e-01,-3.898681339000766022e-02,2.688460058109438666e-01
1.563766661198992779e+03,1.358055182733469337e+03,1.330028882967503250e+03,-2.471663896186857175e-03,8.416443162745359530e-01,5.400266065300424190e-01
1.482118087307737142e+03,1.481818181954452029e+03,1.571286842522047436e+03,-2.031919491999746585e-01,-8.881399515496322117e-01,-4.122140927257726406e-01
9.521241869503139696e+02,2.383133817491854643e+03,2.798437996582984397e+03,4.423463486128331179e-01,-5.008023819741584948e-01,7.439937379292267394e-01
2.508491135769077573e+03,1.582463377830033096e+03,2.117837760388849802e+03,-1.430103261248414346e-04,-8.992571478013318409e-02,9.959484652176180397e-01
1.700273912845996392e+03,1.539056845600361839e+03,4.306602839734329109e+02,-1.858459829000146818e-04,9.756706459029202971e-01,-2.192413195194946318e-01
2.810185506082534630e+03,9.030606145200722494e+02,2.740566379953297655e+03,3.953659444519148219e-02,-9.892617961810915572e-01,-1.407052106932682733e-01
2.721653156487302113e+03,4.412177930555679382e+02,3.349057677443878447e+02,5.576335089582690197e-02,-4.169614333574007681e-01,9.072119993636607038e-01
2.762038610519522081e+03,4.820843655478342953e+02,3.217274517385444028e+02,1.763398278000684327e-01,-4.110669903583998308e-01,8.943870496430107453e-01
1.424192479832223398e+03,1.505358219546000100e+03,1.546951706531675200e+03,-8.737433337806407808e-04,-2.590054050532663021e-01,-9.658754768218210662e-01
9.784606703540138142e+02,2.346576617351738605e+03,2.768580167670766059e+03,9.416192296546742335e-02,7.039499061088496656e-01,7.039801573572844751e-01
1.350565473925018750e+03,1.415627782291677931e+03,1.543612976548829693e+03,9.403822648479227830e-02,9.223435600209314300e-01,-3.747521437530537680e-01
1.472337593883675936e+03,1.423741286866934161e+03,1.504847351444045216e+03,1.408615250372259597e-02,5.245221061146664310e-01,-8.512802949115387818e-01
1.507563268085234540e+02,1.174506403160239643e+03,2.800458358234855041e+03,-3.881069865818975728e-01,-8.899073100529500402e-02,-9.173078091684720992e-01
1.453054639687785766e+03,1.328192121507989896e+03,1.468104227664772452e+03,-4.930306108206576332e-01,8.098383919094895855e-01,3.179348923651840186e-01
1.501307220754915306e+03,1.419963936129347076e+03,1.408501993222497504e+03,4.628800882177819265e-01,-4.948999870087343878e-01,7.354019491341133863e-01
2.539247346186581581e+03,1.610290092592686733e+03,2.232528273065906433e+03,-9.846736469186749829e-01,-1.364700454711517963e-01,-1.085989675502421203e-01
1.421327015167699074e+03,1.515032785879662470e+03,1.534653469937297814e+03,1.532697046552905647e-04,-3.654427884614411259e-01,-9.308337901418942684e-01
1.415515644189914156e+03,1.558201921608030261e+03,1.451964678314331422e+03,-1.824819658652076279e-04,-9.999574315437226302e-01,9.225063729506833773e-03
1.356327255824196072e+03,2.054772497482332255e+03,1.027287993335773763e+03,1.979686461310769564e-03,9.998228201614119959e-01,1.871921809253116256e-02
1.264327977539997363e+02,1.524113793253601671e+03,9.150058204507971027e+01,7.784109923263019537e-01,-5.760054834474601648e-01,2.495876801127003830e-01
1.424509494830127778e+03,2.739469747157882466e+03,1.866179908572888280e+03,-2.535927478842791780e-02,9.336447768782273338e-01,3.573014662581306955e-01
1.545996095797317366e+03,1.426963762894213914e+03,1.543304355007536287e+03,-2.127401046984801584e-03,2.405985873097672978e-01,-9.706223745357045463e-01
1.465981302555691855e+03,1.466253767635557097e+03,1.559695869604918698e+03,4.001445686775407240e-01,8.016674337094250591e-01,4.440874349580378744e-01
1.453690218660872006e+03,1.447355323995519029e+03,1.581685835697051289e+03,-2.789965375878811736e-03,4.968986427724323973e-01,8.678040993819491344e-01
1.371208422812458593e+03,1.401793279268357537e+03,1.511045447457005821e+03,1.302159469757493450e-02,4.404668656394422621e-01,8.976744278107167130e-01
3.150520593952236368e+02,2.208389479313780441e+02,1.098262384643579026e+03,2.193081055408248325e-01,-9.508550802084252407e-01,-2.185830992687307628e-01
1.514568230951563692e+03,1.605753769270359953e+03,1.484203671186561451e+03,4.690785766894849801e-02,-2.105785207893989541e-01,9.764508894312393661e-01
9.825845391833331632e+02,1.204774167268188421e+03,2.330661385861713825e+03,-1.613188856145877231e-02,4.492259838246223103e-01,8.932725102835309405e-01
1.496587523396083952e+03,1.443929376195255145e+03,1.394462269486556124e+03,1.033697308600777182e-03,-2.834535947574990944e-01,9.589853967026431558e-01
1.527677291995154746e+03,1.406608920809190749e+03,1.334806773485434178e+03,1.844587001393270228e-03,9.593486994085063113e-01,2.822174169713872471e-01
1.502962488976494569e+03,1.419338706035821360e+03,1.495120443074060631e+03,-9.388310422887773815e-03,2.490018630531829202e-01,-9.684575012995910726e-01
1.539559827971954974e+03,1.407998678224066680e+03,1.440503640268191248e+03,7.739621461157480953e-02,-1.198180912700663042e-01,-9.897744444913685324e-01
1.277842894835044717e+03,2.374282535869371884e+02,1.916332791770491667e+03,-6.403984235656483559e-01,-4.614672243094068427e-01,-6.139526528835950181e-01
3.463533600098361944e+02,2.879985375703239697e+03,2.992913780095537390e+02,-3.699573737784730421e-01,-6.978791842363278874e-01,-6.132668145241293445e-01
9.561953314465727090e+02,1.307269965810212398e+03,2.584607468849332236e+03,-8.532763336704128621e-02,-9.846165660588848123e-01,1.524775813894927168e-01
2.336054642011836222e+03,1.337594984504867398e+03,6.210733950935816665e+02,-4.728335846054577685e-01,6.105799840122336786e-01,-6.353113287143350441e-01
2.646741544718561272e+03,1.550026245682878880e+03,2.908546014289916911e+03,5.369932944102557837e-01,6.463693416101563560e-01,5.420746037077122104e-01
1.501696705612882170e+03,1.494977142809281077e+03,1.593553295883024703e+03,-1.985182748955641521e-02,-9.817384647189529856e-01,-1.891969657172075103e-01
8.711031326328603654e+02,8.476846435616002964e+02,2.468599198739975236e+03,6.671265724763990324e-02,7.987575204796198980e-01,5.979430113649698564e-01
2.115200496734154058e+03,2.401554398531424340e+03,1.300368092266382064e+03,4.035946006886639847e-01,9.138928852401303482e-01,4.371718886694231365e-02
1.985126277046369978e+03,4.347459786415585086e+02,6.453839464942687982e+02,6.014509485360898244e-01,-3.809060152312394587e-01,-7.022587586251215486e-01
1.438502793639885340e+03,1.461904206366057224e+03,1.519560172834877676e+03,-1.027268241278139933e-02,6.661164265867705603e-02,-9.977260952076771883e-01
6.532859036291716848e+02,5.671488200803921700e+02,6.673394866450645395e+02,1.250749034531374038e-01,-8.901818734144310019e-01,-4.381010166280858709e-01
1.407045494027534232e+03,1.399017446561181714e+03,1.492691007493033567e+03,-8.735934920369787804e-01,4.529972216191299750e-01,1.778424242861804394e-01
3.028167053500715724e+02,7.863127449865937706e+02,1.765937031219458788e+02,3.292942291066680016e-01,4.360153503886867732e-01,-8.375296561331282419e-01
1.482651981751620269e+03,1.510006270691067812e+03,1.469429366240362697e+03,-3.455516071253769000e-02,9.344253749724774627e-01,3.544787151235959666e-01
2.485978386126357691e+03,8.604323666835419999e+02,2.106486501656048858e+03,-2.342132373688314007e-01,-8.036360910951907688e-02,9.688580132156124902e-01
1.545959019694526205e+03,1.413661554266642725e+03,1.810360171970857209e+03,-3.717374852474791824e-01,-6.699287064643624223e-01,6.426560279938765552e-01
1.429874498873469292e+03,1.426080523640293677e+03,1.477709505296495990e+03,-4.949012205995387010e-04,-8.692676404890590236e-01,-4.943415057137784951e-01
8.027873473137519795e+02,1.120289146146468056e+03,2.192763135629590579e+03,-1.304726032456291762e-01,2.239335601975376844e-01,-9.658315900919602903e-01
1.047774341722791405e+03,1.518191172635398743e+03,2.954530408173701517e+02,-9.834449993370969999e-04,6.248397847926148163e-01,-7.807523782712749716e-01
1.473563262841659935e+03,1.532811901798406325e+03,1.498048670865100348e+03,-1.067598964999491237e-02,4.040880850271532099e-01,-9.146577735875213166e-01
1.430242473056101744e+03,1.521999666987588853e+03,1.507864907774630638e+03,1.870880076031816025e-02,5.570723564329387312e-01,-8.302531966047247414e-01
1.602605944797814345e+03,1.540152129780944961e+03,1.481326225221710956e+03,-1.471435281885628832e-01,3.766280660687643111e-01,-9.146037841390796119e-01
1.470947461298850385e+03,1.856064979929729134e+03,2.201721604591958112e+03,-1.698911215816730283e-02,9.992073897253573866e-01,3.599947758391629921e-02
1.547152314384674355e+03,1.375432869151854220e+03,1.414364837482300800e+03,-1.568695733886389969e-04,-3.533036846603642145e-01,9.355086754260202309e-01
2.560111114199028179e+03,1.557500935585731440e+03,2.231561169414791038e+03,2.256719811233725507e-03,-1.479106232823161615e-02,-9.998880595801191706e-01
1.494042459276161026e+03,1.477840774839823553e+03,1.487643487796780846e+03,9.516836789833756430e-03,-9.524035174162935879e-01,-3.046915978995605734e-01
1.242742921633904416e+03,1.552287058739624626e+03,1.640103173681322914e+03,1.552613642884856674e-03,9.660989911979864786e-01,2.581672492728478985e-01
6.300111546528053452e+01,4.573529065641073430e+02,2.947409569488451325e+03,8.465755548988356666e-03,7.515311296350044579e-01,6.596433067745923751e-01
5.727700073309182471e+02,1.591399417826964111e+02,1.106670131338534929e+03,-7.700351218512437868e-01,8.471458160437113361e-02,-6.323522363201831142e-01
1.636887958519101858e+03,6.733275129489525170e+02,5.021265951337991851e+02,-8.454594558503479851e-01,-4.711520612616011683e-02,5.319572030388561856e-01
5.691505025955837027e+02,1.177473276996357470e+02,1.101773844824029538e+03,-7.544756275560392245e-02,-9.780761466474133803e-01,-1.940997594887407807e-01
1.122430414701912241e+03,5.605691014034341890e+01,1.675178217329556105e+02,7.811551646286254424e-01,3.866384703104771003e-01,4.902114870645111200e-01
2.463855923635939689e+03,8.238717752488839778e+02,2.115100361134232116e+03,-8.655903752499197450e-04,-8.266282484813074205e-02,9.965771962780552995e-01
1.586289369259145815e+03,1.456152626835761794e+03,1.782364010231833618e+03,-5.818499414037188455e-02,5.788743081600988827e-01,8.133382087477827316e-01
2.270898737003802125e+03,1.357551872581553425e+03,9.386041879385728635e+02,8.844372077506221785e-01,2.522649263496266059e-01,-3.925980546055982678e-01
2.441220244188372817e+03,2.292960394378675574e+03,6.057896711466359818e+01,-2.107027771141173067e-01,-8.296774512164023507e-01,5.169522866372224801e-01
1.492325629029076708e+03,1.521850349629442007e+03,1.567624401082717441e+03,1.050470735715970313e-03,-9.864876860721001339e-01,-1.638320534551982732e-01
1.185999316102848752e+03,1.548662354987776098e+03,1.656267587868309192e+03,-5.787788630358937647e-01,-2.129319741634416729e-01,7.871943864648283107e-01
1.321283397991580841e+03,1.455583764314071232e+03,1.566838251409108352e+03,-9.481958089575201823e-03,5.983588275909773602e-01,8.011721449942817985e-01
1.229861578852237244e+03,1.603219481993933186e+03,1.633461631648872299e+03,-2.775838433166159525e-01,-9.281337871350481272e-01,-2.480219407792977893e-01
2.715497367150037462e+02,2.164676489593396127e+02,1.134525699174328338e+03,2.090465417273162929e-02,-3.136534020106414578e-01,9.493073995503613638e-01
2.392995537452976350e+03,6.042271936561163557e+02,2.045705423053807635e+03,-5.659848835392318200e-01,-7.599768154750627946e-01,3.195251970431509658e-01
1.529243317450326458e+03,1.450839384456948665e+03,1.594928497336087048e+03,-5.979504084222186933e-01,-7.682835956887569262e-01,-2.284636199994581063e-01
7.466611953076723012e+02,2.269819066538136667e+03,2.058950012211173089e+03,2.068321360379503371e-01,9.452550807495799789e-01,2.524149358082521943e-01
4.905190421319655343e+02,1.379318479274043057e+03,2.368837023238548682e+03,8.178361997956300200e-02,1.902636160721909164e-01,9.783205997535636689e-01
1.779809381457625250e+03,1.498745372756188317e+03,5.309425648519295464e+02,-3.551431339415889732e-01,-8.915008209434859276e-01,2.812465833947806471e-01
2.730838235863764112e+03,2.218481490760083943e+03,4.200174502630422921e+02,-9.994076499903774280e-02,7.203848359271665114e-01,6.863363108983792094e-01
1.768836502109518051e+03,2.364760801500927755e+03,1.448614602436470875e+02,4.076459203523549735e-01,-9.105978980735000006e-01,6.809017289011222440e-02
7.437327265117509114e+02,1.472804337127436725e+02,1.311328914513766676e+03,4.239100507365367587e-01,-4.022730982599889149e-01,-8.114657252779418073e-01
2.037230323632097452e+03,2.687065141214481173e+03,9.652029822172701188e+02,-8.623271541652912653e-01,-2.692644048319933203e-01,4.288222935898536314e-01
1.649336826007163381e+03,4.407231946125992295e+02,1.725773685400404474e+03,-9.300931506036804331e-05,9.094529432316104112e-01,4.158068486648921480e-01
9.765695233358896985e+02,2.431583432139402248e+03,2.791289814373264562e+03,7.117550000665782972e-02,7.381778232712311594e-01,6.708409270679223102e-01
9.176859160432961744e+02,1.277920245612826420e+03,2.578298814456668879e+03,-7.062738877854622677e-02,-9.857528428255278863e-01,1.526535450479758471e-01
1.355470871291659478e+03,1.194863644856444353e+03,2.735165890139844578e+03,-1.926159928899904006e-01,6.275142842590192283e-01,-7.544036733300640840e-01
1.406746992358281886e+03,1.441851456232452392e+03,1.605837632039192158e+03,-3.082631860323306258e-02,4.295844347990594725e-03,-9.995155245431208701e-01
9.829283338936345444e+02,2.467297411795538665e+03,2.762096555217937748e+03,-3.300406752164934589e-03,6.375939054033811226e-01,-7.703655749757607474e-01
9.072321651092150887e+02,1.593429842837296292e+03,3.520555482319360863e+02,-8.250763750558556264e-01,-5.456291237894695945e-01,-1.467577411839822155e-01
1.524438735631111058e+03,1.395220188653496280e+03,1.366623147017983229e+03,2.361583373076752107e-04,-7.817987791001991260e-01,6.235307636569971113e-01
1.549713651063440238e+03,1.463537786157238315e+03,1.422324762412527662e+03,5.338635691794927978e-04,-8.727420472751828973e-01,-4.881813535025810724e-01
2.425231710904668944e+03,5.724187278041630407e+02,2.071294957238836105e+03,7.160862459734622376e-02,4.806157925660007879e-01,8.740026686569276615e-01
1.851367294523514147e+03,1.148309378349550798e+03,2.506034093375873908e+03,-1.011458786133575954e-01,-8.967499559775493623e-01,4.308236619474319351e-01
2.066280831715283966e+03,0.000000000000000000e+00,1.419645991774142658e+03,-4.326710533689057808e-02,-1.223405944709596571e-01,9.915446215578291866e-01
1.480802830168819810e+03,2.192759270999726141e+03,2.055169443194402447e+03,6.903787942702419578e-01,-5.639813880806121560e-01,-4.531027635323281455e-01
2.306043575806564604e+03,1.330797176374780747e+03,5.826639049344105388e+02,-2.398343376623023396e-02,-6.891026358265723850e-01,-7.242667686713585296e-01
1.426914031660186083e+03,2.809596802130892229e+03,1.796099445618348682e+03,1.094189845310435290e-02,3.202124398706210906e-01,-9.472825704141007996e-01
1.491046990852499675e+03,1.530165750155697879e+03,1.521584546278297694e+03,-7.993779728084259018e-02,-4.412929608436554907e-01,8.937955422107042303e-01
1.810244526618018199e+03,1.509809660920008810e+03,4.797838785789929261e+02,2.559649280728977169e-02,4.389125003081186804e-01,8.981651499747929090e-01
1.545050226579746322e+03,1.464408196735736055e+03,1.511926062906010429e+03,-3.348293826315816846e-01,-8.314849812583118283e-01,4.433080311345811708e-01
2.520527184153009330e+03,2.188009675205530129e+03,4.102374944962991776e+02,6.995078145635273692e-02,5.419089623452004734e-01,8.375210831397581490e-01
1.449737372709832016e+03,1.452789380445028200e+03,1.533075464712836492e+03,-5.144096873718411178e-01,7.908387846353269746e-01,3.315971807095528523e-01
1.677854983108709632e+02,1.782785292339468469e+03,2.044226077597769518e+03,3.396355376961366912e-01,-5.712413512451146591e-01,7.472155111890488310e-01
2.844195408017247246e+03,8.862828949271878400e+02,2.780168268209393773e+03,-3.658738244225112710e-03,-4.866422871926080751e-02,9.988084933948147004e-01
1.463461358004750537e+03,1.456166716019322394e+03,1.443167885855660188e+03,3.871795175134706574e-03,-9.991120481420880939e-01,-4.195383724337559128e-02
2.648166729441081770e+03,6.382434504296396653e+02,1.789495024319830691e+03,3.708758716346751694e-01,6.904660236026142206e-01,-6.210537481487523603e-01
1.796070672585384500e+03,2.643534784576600941e+03,1.624131782372746557e+03,7.345243191692797380e-01,4.120399448239266404e-01,5.391633411299414647e-01
2.034134091668357314e+03,8.313131302246663381e+02,2.070152306403709645e+03,-3.542522140680026688e-01,-1.725557306532418114e-03,9.351483258178351354e-01
1.504364704950499799e+03,1.474249759946567337e+03,1.575141954907336640e+03,-5.075077675422279814e-05,-3.324140907443380866e-01,9.431335375751270789e-01
1.857926429066837727e+03,4.233847667332831861e+02,2.356743145847467986e+03,5.669072940500303748e-01,-3.361829639182506435e-01,-7.520619221340836269e-01
1.541488088054296895e+03,1.389887219981826775e+03,1.501992343246713290e+03,-1.053845678305350125e-04,-8.812244711734005254e-01,-4.726980223136684200e-01
7.758248897916212172e+02,2.162014748127000075e+03,8.017617572964933288e+02,5.730792805814389768e-01,-2.859987764438517432e-01,-7.679745035096412487e-01
1.386004540701345150e+03,1.447591289672077892e+03,1.482707065172947978e+03,2.871441181822253184e-05,-2.491613770635574265e-01,9.684619803354566070e-01
9.948283939702452017e+02,2.339722039096609024e+03,2.800745433291492645e+03,4.616542024042932235e-01,-4.953387620460907304e-01,7.358769654073309407e-01
1.428565600517302300e+03,1.558695416033789570e+03,1.375509640287330512e+03,9.979127405155264335e-03,9.813520346788999760e-01,1.919598943733166474e-01
2.953643684278290493e+03,2.474169915872623733e+03,2.234787434779593696e+03,-9.197316627724680949e-01,-3.555385609570232974e-01,1.663911060315430845e-01
2.696738658137412585e+03,1.283248002494671255e+03,7.362984020498756763e+02,9.838138324917766742e-01,1.781501656221221863e-01,1.930962160822325899e-02
1.189805917748675029e+03,2.226896275636057908e+03,5.942661849399623861e+02,-5.956795539735241229e-01,7.792924448547454697e-01,1.945999855349862528e-01
1.026602812414304026e+03,1.156658917917346798e+03,2.282186945194950113e+03,8.222868129093684475e-01,-1.586331214983857096e-01,5.465161754962351015e-01
1.496978607613820941e+03,1.370296184819830387e+03,1.366180555988850529e+03,-6.219102530511166904e-03,-3.371436073844471526e-01,9.414326905113911126e-01
2.246547361918239403e+03,2.607056143748001887e+03,4.082175635885978409e+02,-6.028272061712015573e-01,9.092370188865746272e-02,7.926741070166770653e-01
7.939710062271476545e+02,1.613913584368012835e+02,1.327036979274313353e+03,4.973397307604205536e-02,-9.369579463340532710e-01,3.458848633917720461e-01
1.528085272650835805e+03,2.389668811230093070e+03,2.080248120031869348e+03,-2.512657076148052532e-02,3.163882252677805984e-01,-9.482969716041871333e-01
1.511697368634874010e+03,1.517162388118313402e+03,1.596913416292295551e+03,8.005437118656696938e-02,-4.160331206495789802e-01,9.058188230416147624e-01
8.763076766045001023e+02,1.606684739343884075e+03,3.821117501391427140e+02,8.324408410671628733e-01,5.350961849382975810e-01,1.439246990195696962e-01
2.357997595678175458e+03,1.363427855520585126e+03,5.868257564899843146e+02,-1.358259760986628862e-03,-7.623385336082210140e-01,6.471770355215710202e-01
1.505472448234353806e+03,1.341057556675482601e+03,1.389442672460192625e+03,-4.028688388638759776e-01,-8.188510384794586150e-01,-4.088761125984064493e-01
1.706598821119647255e+03,2.324065792349257720e+02,1.162779920361568600e+02,2.680471826321547194e-02,8.905852688731314970e-01,-4.540257547155248097e-01
2.055949749537046955e+03,1.897194705472311625e+03,1.381026433880371997e+03,-7.633872838184347920e-01,3.382082416957789550e-01,-5.503226691254523573e-01
1.538470065952231153e+03,1.505044884121067980e+03,1.483409255385996175e+03,1.457147634927776804e-03,-4.469375188040707325e-01,8.945639893300147971e-01
1.544996392764212260e+03,1.465457267893395056e+03,1.483256637649182039e+03,7.093167969645748291e-03,-2.070995480452138271e-02,-9.997603636572862662e-01
1.366293577764709880e+03,1.441107316569628892e+03,1.570907864348050225e+03,6.887206019870280305e-02,6.923987138400978791e-01,7.182204817439867828e-01
1.085857893969379347e+03,1.161697398098955091e+03,2.254866279894931267e+03,4.234359361126394800e-02,7.862132916195865295e-01,-6.165027819570476630e-01
1.324010804396118374e+03,1.507767556184754540e+03,1.561739051837365650e+03,1.358051023337885632e-01,5.928420265618314922e-01,7.937854280107249361e-01
9.250110427854923500e+02,1.685678104950820853e+03,7.504565824255349753e+02,-5.837329571346114854e-01,-7.965082811993086098e-01,-1.575766249664110052e-01
1.398295538966591494e+03,1.481306814856808387e+03,1.637667883464261422e+03,-7.056349488550907323e-02,9.178407109352825222e-01,-3.906267048466577907e-01
1.509169943301864578e+03,1.307327710939508961e+03,1.838037266120949880e+03,-1.547424335647526739e-01,-7.129508750150868046e-01,6.839267717158615811e-01
1.448894482094807245e+03,1.469541977345581245e+03,1.519459954795471504e+03,5.471027866472958322e-03,-9.747588001077385211e-01,-2.231935246968565489e-01
2.021649969249474907e+03,0.000000000000000000e+00,1.414071328974831431e+03,3.248049365707881761e-03,9.988576311692130005e-01,4.767476093643704949e-02
1.560060341487004507e+03,4.319734125765514250e+02,1.790467385840846646e+03,-1.658668929118333191e-01,-8.743580739835484783e-01,-4.560549663094942696e-01
1.662593848743837952e+03,2.057009468137311785e+02,1.318610978432814136e+02,-2.562192227839010794e-01,-5.820928998460100923e-01,-7.716991420397436574e-01
9.788643428634786687e+02,2.502420692354573475e+03,2.527581880003555398e+03,5.813604558480243295e-02,2.246678879265056050e-01,9.726996146490471951e-01
1.451588480605427321e+03,1.368901697393462427e+03,1.514823772831032556e+03,-7.687326030877553729e-01,4.554855911572410765e-01,-4.489800231614566872e-01
2.567786306082769897e+03,2.214210114827790221e+03,2.754315409743988766e+03,6.704386480752475563e-01,3.828547188481921104e-01,6.355582454997388275e-01
2.743025554220711911e+03,2.799214395453211637e+03,2.473895853700305452e+03,2.634161503804221052e-02,-7.544177001715447473e-01,-6.558658803330636999e-01
1.491294768316736963e+03,1.451148318660870700e+03,1.292776147516822903e+03,3.069455230626819901e-05,2.981427084065459421e-01,-9.545213064577730000e-01
1.465117870819162817e+03,1.352725077064513926e+03,1.443635537059565422e+03,-5.984164337512503339e-03,-3.599247978060821085e-01,9.329621266168486304e-01
1.394185262815079568e+03,1.182023649082388374e+03,7.020146339980183257e+02,9.563669189591925690e-01,-2.782783181379953064e-01,8.901400999162989436e-02
2.915941643022464177e+03,1.863712700740670698e+03,9.983836920107196420e+02,4.177636382743155768e-02,-4.881727692998786838e-01,8.717465702481688172e-01
1.481284681953914060e+03,1.467350204003382260e+03,1.488491984867560632e+03,1.191705977043866632e-01,-2.152274082256506738e-01,9.692654597122752902e-01
1.512269781500708632e+03,1.547788283320273877e+03,1.480528450858980477e+03,5.426065928213103673e-05,-9.718691754106602021e-01,-2.355213428595896719e-01
1.614641070139632120e+03,1.456722236858108545e+03,1.553524738087028936e+03,8.495311282946258480e-01,-5.055217952010231386e-01,1.508130519391306379e-01
2.893118741467372729e+03,1.693681604257978279e+03,1.470884242830459470e+03,-1.924475252130852243e-01,-7.620031081878501089e-01,6.183164344827126735e-01
2.336383841600729738e+03,5.745329868345805835e+02,2.372664483496831053e+03,8.086972571860031600e-01,3.835423623571014851e-01,4.459865496821283082e-01
1.461294203839395095e+03,1.399817663604908148e+03,1.425393944308113078e+03,3.345749419989010182e-02,-9.991926119290082120e-01,-2.224230986994964188e-02
