x,y,z,nx,ny,nz
9.062702451803256736e+02,1.044753368039926045e+03,1.989379193792915885e+03,2.102472446369539182e-03,1.948450581195203257e-02,-9.998079483795256905e-01
2.867010187663301167e+03,5.725538916996064245e+02,1.212863841464433563e+03,-3.125351285886136116e-02,-2.756802122342839056e-01,-9.607411922658678494e-01
2.721699867016926419e+03,3.671093896519984696e+02,1.450242996652148122e+03,-5.515685627402229230e-01,2.834155440745029231e-01,-7.845047800833582219e-01
1.388201702392992047e+03,1.436244590093942179e+03,2.297552661975634237e+03,-8.812722164058249819e-01,-4.510674566990351964e-01,1.410582507272399866e-01
8.444297456327898317e+02,7.769003762158667996e+02,5.610713049790660989e-01,9.114066597940380099e-01,-3.101118780905701144e-01,2.704968087616079764e-01
8.998229559883583306e+02,2.636922824025192313e+03,2.433496092362834133e+03,-5.050596871602448523e-01,8.287595754603277465e-01,-2.409819048982992928e-01
1.461280987110101478e+03,1.537194103053692288e+03,9.706519114370672696e+02,-1.237368266279776641e-01,7.264078786958276801e-01,-6.760331289993602999e-01
1.340436632197727249e+03,1.221011446338842006e+03,1.730508868851486341e+03,8.044460935071247321e-02,-9.459455960847610312e-01,3.141903787105158607e-01
2.440437981344998207e+03,9.647500095917289400e+02,1.159843431613121993e+03,-3.210186118421262669e-02,-9.647975752729202048e-01,2.610270278266283439e-01
2.520368215147678256e+03,1.830877957962043411e+03,8.733833223309393361e+02,-5.013008052963134897e-01,-2.316493955862169996e-02,8.649629403532343996e-01
1.438348076982821340e+03,1.546487826658895983e+03,1.529771817304750812e+03,1.384818249054476886e-05,9.204194818874226192e-01,-3.909321899899216302e-01
3.317979359389349270e+02,2.419167244508576914e+03,2.053118509807495684e+03,3.881305266287846667e-01,-6.418086501396325083e-01,-6.613897118226175209e-01
2.045655685863366898e+03,2.863899914125212035e+03,1.662850485177886526e+02,7.394990906786812679e-04,9.571105962038329862e-01,-2.897218662362895936e-01
1.418751097488992400e+03,1.433691850996362518e+03,1.526387285751651689e+03,8.164215236475498524e-08,9.670961114472798048e-01,-2.544113032542856812e-01
1.386611315221043924e+03,2.403171377966370983e+03,9.093837011585925438e+02,-1.355324836192526966e-05,-4.521739527947983561e-02,-9.989771704000290908e-01
1.159959963567145223e+03,1.195761148084520983e+03,1.523235787479159399e+03,1.484571591117202390e-02,-8.185194976049575688e-01,5.742868941214073208e-01
6.604776573243399298e+02,2.909543562197974097e+03,2.347829401601771679e+03,3.903962539902832048e-03,5.403529944269866991e-01,8.414293793838411029e-01
1.124444351844151470e+03,1.201474435484039077e+03,1.356179982934097779e+03,-5.751211576620595019e-03,-3.374725618748753431e-01,-9.413177962553397338e-01
1.530870570988739701e+03,1.480230099985214338e+03,1.319316624880302925e+03,3.777981609297917376e-01,2.274560891706310650e-01,8.975144996585119328e-01
1.497470309454895641e+03,1.904168403018236631e+03,1.612475446874555246e+03,1.451461620379790318e-02,-9.998887615318804434e-01,3.433726648802312015e-03
1.555781619908793118e+03,1.546106374193934016e+03,1.620748397567017491e+03,7.027405131481037723e-05,-1.938913193288072101e-01,-9.810230126508207027e-01
2.445993222015788888e+03,1.092145379156330591e+03,1.828084663668295775e+02,-3.989842475792145654e-02,-2.988530561940944130e-01,-9.534647169692678226e-01
2.960603214278760902e+02,4.098443733630228394e+02,1.480833772269273368e+03,-3.574541415754006191e-01,4.756305731146120291e-02,-9.327187637491700656e-01
1.175287588122400166e+03,1.267642791571614225e+03,1.346706913803858470e+03,1.890997480275554421e-01,-9.758423673350298255e-01,1.094210190497223872e-01
1.576095851609211195e+03,2.746447616452674993e+03,1.084921191831103442e+03,-8.119600005733557872e-05,-1.163670737420551271e-01,9.932062714038412121e-01
3.648487264765800546e+02,2.373788421504243615e+03,2.157794215521101250e+03,3.739010525941671714e-02,9.832529757744310484e-01,-1.783691836036030154e-01
2.363450183388965343e+03,8.384397926676662109e+02,1.074153780067771322e+03,8.356822904204174165e-07,-9.629099697304875916e-01,2.698228867107705375e-01
1.281576933907451803e+03,1.758373740747006195e+03,1.178620789821688049e+03,4.189766324866448649e-02,-5.149437335365510959e-01,-8.561994727315236364e-01
2.486361160073586689e+03,2.284821755851682155e+03,1.295173382558018830e+03,-5.878021962441731807e-01,-8.084781670476910431e-01,2.918272601612525996e-02
2.513303381925543363e+03,3.712982088525946551e+02,2.695509357340925817e+03,-1.013424134233954256e-02,9.676442114220539237e-01,2.521150079900176255e-01
1.449598009525254156e+03,1.420862804575788459e+03,1.561925497445923838e+03,1.371440780188158404e-01,9.797889434399222885e-01,-1.456198069537579243e-01
1.068140264148987171e+03,1.567036359014210120e+03,1.855336130005729729e+03,-3.099735318118342353e-01,-7.397700268879542351e-01,5.972074320487759103e-01
1.532264285249575323e+03,1.789621039736455259e+03,5.930910019290457740e+02,-7.154495564260319324e-03,-9.882955792355534452e-01,-1.523832709213286674e-01
3.340506699705082383e+02,1.429335090736497591e+02,2.841770358925126402e+03,-6.954260531842483273e-01,-2.160554705169173001e-02,-7.182727928086767299e-01
2.805966701016983734e+03,2.622703417409857138e+03,1.069413219726934585e+03,-2.524069701476407968e-01,5.141135525880610180e-01,-8.197426281865369813e-01
2.379658816913935880e+03,9.606233606267865071e+02,1.189395177048851110e+03,-7.800554108018163957e-01,6.217585473685822706e-01,-7.021299632489608200e-02
2.881369489982778759e+03,1.768739433447794909e+02,2.182405350855852248e+03,-6.490144180407746155e-02,9.748382070589667325e-01,2.132563549107297229e-01
2.393838030175608765e+03,2.734766429863392204e+03,8.917658827285750931e+02,6.594423955238901680e-01,3.130208642322972468e-01,6.834864047960127476e-01
2.602087664729612243e+03,2.505902732044035929e+03,3.923879379644010896e+02,1.182743813472727362e-02,-4.797728836999696211e-01,-8.773129953291383121e-01
9.554066503849951459e+02,2.564327646046189329e+03,2.329598483277141440e+03,2.237318980393149389e-05,2.190044649270362909e-01,-9.757238563453610736e-01
1.488051766238485243e+03,1.412951978928719882e+03,1.461895862197616907e+03,-2.468247328670512592e-04,-6.133805967669954118e-01,-7.897874287346665634e-01
1.994029719822396373e+03,6.014521149526307227e+02,1.087080604577309941e+03,-1.051555302500088024e-02,-9.693171700574919614e-01,-2.455883689760443023e-01
2.142821813301189195e+03,5.901711983863222031e+02,2.703346736906250499e+03,1.888172669001046767e-05,5.279536453129431983e-01,-8.492731881110197056e-01
1.429375161634302685e+03,1.433643742697179505e+03,1.463414973852407002e+03,-1.688807868190860201e-03,-1.318781337648965851e-02,-9.999116108468444342e-01
2.226854450976493354e+03,1.814841290500758532e+03,9.592369822559478507e+02,5.919937027823596321e-01,7.798297692741151810e-01,2.034919822005567536e-01
1.370139901189394095e+03,1.448785387747970390e+03,1.452209674603089752e+03,1.980939855812508671e-03,9.292293488143183941e-03,9.999548635608599412e-01
1.515088262530880002e+03,1.625249996714011331e+03,1.416156221643901972e+03,1.185208598970837780e-02,9.967241593155478085e-01,8.000298928419458111e-02
1.441658974994985101e+03,1.414304856686266021e+03,1.518573416015847670e+03,2.122774241053939791e-04,-9.888994791787996119e-01,-1.485859179673300889e-01
1.448556609921474319e+03,6.505205179842536154e+02,2.001297568875396848e+02,-9.324096955610224891e-01,-3.602513529412776361e-02,3.596030439955161806e-01
2.994724774003684615e+03,2.539127693643543353e+03,2.585355474837262136e+03,5.115465767728828890e-03,-9.998013622789352350e-01,1.926312526991887097e-02
1.479812060502241593e+03,2.393997410091428719e+03,2.139584127298252042e+03,-8.567211640505411063e-01,4.068412358277340712e-01,3.170316323303526973e-01
2.049187843386450822e+03,7.043292090572913366e+02,2.835855415219791666e+03,6.923183205048375477e-01,1.201610788695463283e-01,-7.115171524413643755e-01
2.798064994322834082e+03,2.959795074024346377e+03,8.371389539092062932e+02,3.894442781892257233e-01,2.344335882676429617e-01,-8.907154690907923555e-01
9.257448340313025028e+02,2.010494801204400801e+03,9.949400571440233989e+02,-3.592874435328596294e-01,9.302135672951941103e-01,-7.493498608508408765e-02
1.505378467296068720e+03,1.579376310311683937e+03,1.443868936836011471e+03,7.162817595523426895e-02,-6.141457392675144789e-01,-7.859353760640146458e-01
1.469171138070144252e+03,1.480000808814015727e+03,1.528263633627130503e+03,9.370856495088899943e-05,-8.839944007044667762e-01,4.674974767224475691e-01
4.912110611669715468e+02,6.789986894552471313e+02,7.249690477377769184e+02,-2.635469805960191907e-03,-9.746090683202115468e-01,-2.238977852657569878e-01
2.128944709874342607e+02,9.951072427927094850e+02,9.640648160371971187e+01,1.554249329176942036e-02,7.984079135858411780e-01,6.019163018441843205e-01
1.236599530430241657e+03,2.953390469479649710e+03,9.895098309224408695e+02,6.732900747059087330e-03,-6.523490064134716826e-02,-9.978472206634860786e-01
1.573568828666241643e+03,1.389432552466447078e+03,2.361725878920119158e+03,-4.978223047997558555e-03,-7.820630813888845845e-01,6.231793915268759587e-01
2.394380219261714956e+03,5.011734250385726455e+02,2.085467346225567326e+03,-6.343461620542642553e-04,2.450588759153439489e-01,9.695079911687446428e-01
1.167039165472131799e+03,2.850133538161884189e+03,2.442466996739615752e+03,2.344082909207576837e-01,-8.481709047568227744e-01,4.750356507375022019e-01
1.810887395254760349e+03,5.033390354371645685e+02,1.561683292034998431e+03,-3.257091863642930241e-01,-9.345349562346030314e-01,-1.433804083321672806e-01
1.673108882279541376e+03,2.474560525122327363e+03,2.142117216537531021e+03,1.804285105776110400e-03,-6.607063099137808759e-01,-7.506423359998901645e-01
2.847926300029241702e+03,7.545003349490292521e+02,2.190162235258244436e+03,3.053675910878695873e-02,9.317225660590033876e-01,-3.618847416506505987e-01
1.519323593624467094e+03,1.518537614015289819e+03,1.400338054400996043e+03,-3.815264107585641939e-01,1.798231577087202326e-01,-9.066979816043223561e-01
5.958488596443610277e+02,1.422507710213117207e+03,1.677261631310568077e+02,6.627322473694632343e-01,-6.710353179337148477e-01,3.324117482614279973e-01
6.138841278784572069e+02,2.200782380927668328e+03,2.521351068126652990e+03,-8.737659955063524775e-01,1.379372532571608023e-01,-4.663757061218591904e-01
3.945522937323419228e+02,2.491711752131748199e+03,2.783032040253481227e+03,-3.098008911736188989e-02,9.129922919524883218e-01,-4.067988555952717356e-01
1.202627570315740513e+03,1.481652565078337830e+03,1.677948948218014039e+03,-5.442978331617018273e-02,-9.904975696780332628e-01,-1.263010813495448748e-01
2.215444753356508443e+02,1.603064634714764907e+03,2.005638817042118944e+03,5.437444418930665879e-01,7.430055827682285896e-02,-8.359553869376942226e-01
2.336681680761232201e+03,6.309702340683857074e+02,2.192656756060752286e+03,1.742543743907330744e-03,-9.913458527077581017e-01,-1.312644805742534670e-01
1.228897124603435032e+03,1.213155540127968607e+03,1.575167844830869171e+03,-9.180004763600509154e-02,8.683320446965079320e-01,4.874137989503466439e-01
7.346387387081896350e+02,2.202805420380917440e+03,2.399876860982848029e+03,-6.058106055406115020e-01,-7.918219820474010628e-01,7.753359891713441920e-02
1.296695613038442048e+02,2.676589568817052623e+03,1.234112224566966233e+03,2.524541707699900464e-04,1.264790701881717550e-01,-9.919692440147664936e-01
1.500262036141871477e+03,1.533496587742150950e+03,1.592076108443106477e+03,2.301696482574556047e-03,2.785454478075030313e-02,9.996093369553723518e-01
2.370051228118522602e+02,2.877162784866786751e+03,1.222621393574138210e+03,-9.959585833896321683e-01,8.905189492993713374e-02,1.167305366666027133e-02
1.237181930901377655e+03,3.000000000000000000e+03,9.475738227153958633e+02,-2.692277643461907320e-03,9.682523121508693764e-01,2.499604201780472601e-01
1.492135668331025954e+03,1.627327304386130436e+03,1.461360585711086514e+03,-2.172295754351212527e-01,9.677394458792289988e-01,-1.276388516308405718e-01
6.277499068930883368e+02,1.924447532686369186e+03,1.685614208694058107e+03,3.874293976469103118e-01,3.189129749367681788e-01,-8.649814889672104989e-01
2.419499049756680506e+03,1.149815418643695921e+03,2.662101032211654115e+02,-1.257594411600048215e-03,-1.413462620022520599e-01,9.899594197108722016e-01
6.608599780861460431e+02,2.969291429386386426e+03,1.884923277159197596e+03,1.610093907942126701e-01,-9.651784620324257435e-01,-2.061710758200522575e-01
6.883765594270587371e+02,1.889809044706679060e+03,3.470138289538031700e+02,3.009122501458557086e-01,3.283302389668376065e-01,-8.953496925180335353e-01
1.495467995035597141e+03,1.678144203091266945e+03,1.467028887137171068e+03,3.904654526580104146e-01,-8.796221010595975387e-02,9.164056852038020562e-01
2.875848671879783979e+03,1.685861828429419347e+03,2.330257210621896320e+02,5.530291417421252520e-01,-6.996326702361459482e-01,4.524078857869396342e-01
1.881069921702972579e+03,2.462747378857949116e+03,6.583566150926014870e+02,6.036816646057239222e-01,7.007284558283202180e-01,3.801947908787287056e-01
1.587593462170037810e+03,2.809959188721619739e+03,1.125138323680049780e+03,1.449753598813369737e-01,9.879923647305343115e-01,5.341565558376722839e-02
1.587912589173773313e+03,1.490148112960586332e+03,1.326115395191137623e+03,-1.955816513366892811e-03,1.539678678521348154e-01,9.880739195277009612e-01
2.417484623997372182e+03,9.369025951778779699e+02,1.183139311566766082e+03,-1.956419183370353490e-02,6.430417853354927216e-01,7.655811548819864143e-01
2.016323835732777980e+03,1.433487580519791607e+02,2.317292845069334817e+03,3.182377861993679682e-03,-9.554973819672202273e-02,-9.954195698305722262e-01
2.287094148151145873e+03,9.678457693956326011e+02,1.137686691819845919e+03,5.733672998567711510e-01,5.264259844045499070e-01,6.277942516451199273e-01
2.329843403804255786e+02,1.880941669869743009e+03,1.605116143484384338e+03,9.399532653477740141e-01,-3.917759771083147852e-02,-3.390471571915409932e-01
1.498698493144842587e+03,1.433024558284670093e+03,1.432447170565210854e+03,8.687531436550971486e-02,9.833871895292677356e-01,1.593810378420906504e-01
1.172088919480650020e+03,2.035979707090058582e+03,1.013231418039341520e+03,-9.943693002974778317e-01,6.720116663788719413e-02,8.193715780042355734e-02
7.220863953413777381e+02,1.747885716267679072e+03,9.207373630618902780e+02,-3.620448944627001064e-01,-9.387546910157253122e-02,9.274216358779063807e-01
1.544971776751515108e+03,1.325480645740202817e+03,1.494510090895417079e+03,7.747562003379383951e-03,9.925707157614336307e-01,1.214221952356293738e-01
9.771926998717113975e+02,1.656897822183015705e+03,1.172018420237944838e+03,-9.275195621361893572e-01,3.027790655569719269e-01,-2.191627233704180888e-01
2.030324307110349480e+02,2.833808327401605766e+03,5.010708176926281965e+01,9.232046161963790576e-01,-2.104685964228062700e-01,-3.215528052334644116e-01
2.364310446711615441e+03,9.156319186538801205e+02,1.185247211686484434e+03,-2.146921617242899052e-02,-9.505826987441991227e-02,-9.952401710569280802e-01
4.035040173159217716e+02,2.363191924291889336e+03,2.086509716912913063e+03,2.397772336187929678e-06,6.654885656807228989e-01,-7.464080445322551771e-01
2.416268460706892256e+03,2.994979570462573975e+03,3.000000000000000000e+03,1.530984268981596752e-03,-9.975778404310035041e-01,6.954213376208330522e-02
1.262121052588961220e+03,1.280716917790036177e+03,1.549400225926337953e+03,-1.722917915633856087e-02,-9.783433249235814477e-01,-2.062704388977497916e-01
1.472744228447889327e+03,5.151263743208188544e+02,1.653645299033249501e+02,9.495741891340284124e-02,6.105248398991992564e-01,-7.862839871569060612e-01
1.746148620676223572e+03,4.527013822309031639e+02,1.497478571664838910e+03,-7.373594530905781819e-02,-9.851791891555183867e-01,1.548708352926886633e-01
1.386200776112727681e+03,1.346358921110840583e+03,6.376418324454233471e+02,-5.258125543453995299e-01,-8.221162395039331994e-01,2.182797435326464808e-01
1.120254751501830128e+02,1.639241056522262625e+03,2.855979971997065604e+03,-4.098420800169663147e-01,-8.932890641722512903e-01,1.845646696354159844e-01
2.083039530868437396e+03,7.168703561572644958e+02,2.846616164063822907e+03,-8.925027626542844095e-01,-7.510846474625795799e-02,4.447443503608902726e-01
4.112747227595692152e+02,2.621603134826045789e+03,2.939152164841590547e+03,9.850088690423547400e-01,-5.901909174880595743e-02,-1.620934135523320885e-01
2.834683942905963249e+03,7.256657153250356487e+02,9.501941359737843413e+02,-8.597967758765069357e-01,-2.230877483379993809e-01,-4.593270738088985894e-01
2.812193643763869659e+03,2.428096826641729876e+03,2.819075503566459247e+03,6.403932217458180309e-01,-7.631866262789333000e-01,8.627105546468927244e-02
2.814565895264317078e+03,2.541256641724665144e+02,1.114701870943385984e+03,-7.275379096863273665e-01,-6.429461803034122180e-01,-2.393925629640603070e-01
1.596217552278705853e+03,6.675347707086860964e+02,2.563366767443778372e+03,3.388864356322283666e-01,-6.115975796250108232e-01,7.149156484098750930e-01
1.105743833314365247e+03,1.212216190410298168e+03,1.522379738263935678e+03,1.967728061554123720e-01,4.881705255140778577e-01,-8.502764260974389199e-01
3.236965424744284974e+02,7.619450137819968631e+02,2.325970526131284714e+03,1.274336038121067494e-01,-4.700508360931456298e-01,8.733916006623797523e-01
3.213818107833017734e+01,2.756510865859184833e+03,2.540005290936290749e+03,-2.538070827478665793e-03,6.155247014053340238e-02,-9.981006219896236820e-01
2.272004314258827890e+03,1.918777760646084516e+03,1.445259490654488673e+03,-1.418965698547336972e-02,-9.943543461218476986e-01,-1.051574437842009019e-01
1.716820811336576298e+03,1.622563587540152412e+03,8.894091874739182231e+02,6.320617461335360787e-02,8.334334136996676135e-01,-5.489933737484135046e-01
6.261050120438200111e+02,2.323199652306826465e+03,7.242835595670638327e+01,-4.227014857174801743e-01,-8.502749788678506393e-01,3.136174648891723038e-01
1.230837733285893592e+03,1.254359108942839384e+03,1.429881394126667601e+03,3.733910226070397131e-01,-4.500512692679157212e-01,8.111923318589784326e-01
1.520037602963323934e+03,1.538071426513904271e+03,1.401819469523510179e+03,-1.498040354098724534e-04,-9.625490874450295387e-01,2.711074174888838950e-01
2.313218276049293308e+03,6.783752318447817515e+02,2.198622989444191717e+03,-4.804463332855504198e-01,-7.021574738090943235e-01,5.254961491833226583e-01
2.364884387902453000e+03,8.865563003900930426e+02,1.236153141588646122e+03,3.825847217128222795e-03,-9.625966120719164909e-01,2.709116559337000907e-01
2.789021388485408352e+03,2.576139219658186448e+03,1.039903120924351242e+03,-3.684468007806161044e-02,-7.630517798828211351e-01,-6.452863323886568470e-01
1.398349138803437427e+03,2.349229132593028226e+03,9.867613961735160046e+02,1.087853734132710956e-03,-9.846525472712767124e-01,1.745227140702304003e-01
1.250334817210116626e+03,1.494279078244653192e+03,1.608317992545764810e+03,-3.111949177999094596e-02,-9.894763443301697325e-01,1.413086736274831445e-01
2.869629404841107316e+03,2.812480271218649705e+03,2.129619806625031742e+03,-3.054738152217213454e-01,2.112219104137582071e-01,9.284778149073072973e-01
1.371807841622257001e+03,3.000000000000000000e+03,9.698759547687096756e+02,-2.483071464054898425e-01,-8.584662889809206998e-01,-4.487529294915958422e-01
2.397946509885357955e+03,7.289662693163091944e+02,2.134394359907341823e+03,7.230258147378176847e-02,9.765203250063272389e-01,2.029295236326254803e-01
1.601314708623622437e+03,1.407913321206989394e+03,2.259508467310361993e+03,-2.059632842303068590e-04,7.616762206884531983e-01,6.479577859836860299e-01
2.338025976446745062e+03,9.342198771106578761e+02,1.158761129132781662e+03,-2.566052723015747883e-02,-9.489389484101854455e-01,3.144143914206882773e-01
1.217723047841566768e+03,1.413579304746689786e+03,1.530504783901844121e+03,-4.487278460297007901e-03,1.807156959425384457e-01,-9.835251402846924007e-01
1.659065199729019014e+03,1.627415688626768315e+03,2.648946291303158432e+03,9.960178582527368096e-01,-2.760230376549892631e-02,8.477345615502707155e-02
1.189523888117629895e+03,1.350424505732807802e+03,1.484392228903942396e+03,3.253901123813701603e-05,-7.665916764615415824e-01,6.421348772034546348e-01
2.974349424222395101e+03,1.320370065791435366e+02,3.491034931382574769e+01,-8.518879143734292558e-01,-1.790332403586054610e-01,-4.921728153719858168e-01
1.201026410981002300e+03,1.662651147946017545e+03,1.232432030495594972e+03,5.973953593693424798e-05,-9.195872099085087292e-01,3.928859373964308510e-01
0.000000000000000000e+00,1.424193238385563518e+03,1.742986922397374883e+03,-1.517777746553400147e-03,-9.977029120118761085e-01,-6.772441002869479532e-02
1.196661645236303229e+03,1.582579486968785204e+03,1.835867278155270697e+03,9.540214493791362993e-02,9.355524805336637995e-01,-3.400587991929543419e-01
6.003002548504433662e+02,2.063926022027040744e+03,2.206542051893097778e+02,-8.746224343279804248e-03,-8.956792017607049239e-01,-4.446147445744949023e-01
1.464855337458071062e+03,1.565056376940349310e+03,1.554831577970445096e+03,-5.865204917749097368e-04,-1.450345626310657610e-01,9.894264154731913230e-01
1.750439917284439275e+02,2.879825827802140338e+03,2.611905305465047604e+03,3.551999250552725397e-03,-6.194259631925040921e-01,7.850470428097685582e-01
9.727818895742543646e+02,3.274802084493875327e+02,2.316625600857743848e+03,-3.086633064475216570e-01,-1.215985646791250263e-01,9.433667114759032302e-01
2.667193769810812682e+02,1.069753155053971568e+03,6.661329098645986733e+02,6.366155655909793154e-01,-6.451028828423317485e-01,4.225670268676795516e-01
1.452320143834190503e+03,1.587327476643041109e+03,1.387805104979663611e+03,-3.452446142857756167e-02,9.201423453572790123e-01,3.900591312140667122e-01
2.248856832760292036e+03,6.298463739491030537e+02,2.148403333125516838e+03,-2.815451661157531132e-04,-9.425052473809129028e-01,3.341912317697214307e-01
6.206483752265069143e+02,2.917095229526693402e+03,2.366567977927277752e+03,1.906888115584933689e-04,8.668249405381637240e-01,-4.986125611121183798e-01
1.725903368175590003e+03,2.519411367818179315e+03,1.500954207241673203e+03,5.342509086910196425e-06,3.660136879784042230e-01,-9.306094670611861908e-01
1.667732954634442649e+03,2.576303166231190971e+03,1.640126086940903861e+03,6.715900808390616594e-02,-9.627477560889214914e-01,-2.619282836559124750e-01
1.800553462322417545e+03,2.168716900102027921e+03,1.026096335421196727e+03,-2.639191850878712109e-01,7.702114323594202450e-01,-5.806212304122233547e-01
2.644369590117915322e+03,6.017562052905700654e+01,4.391714694488103419e+02,-9.757855748896394621e-01,1.844441314823297429e-01,-1.175707199902464861e-01
1.536104984639700035e+02,1.388175168060830401e+03,1.652331168013965907e+03,-9.530939545079084724e-03,9.998291401529236788e-01,1.583829828148100929e-02
2.428635845353063814e+03,2.213567811873688242e+03,1.216746707614005800e+03,-2.770300664991481310e-01,-7.305704598473455880e-01,6.241162916107185765e-01
1.525123742095133593e+03,1.386295127960261425e+03,1.430352975802617493e+03,-9.878725337298192022e-01,1.202207840858267179e-01,9.825894450896723031e-02
2.499735979021021194e+03,1.084766408900736906e+03,1.902181117961154655e+02,7.687551306858923621e-03,1.597191578973814752e-01,9.871325605791027025e-01
1.525932335365972676e+03,1.535517618297971012e+03,1.412408207128694585e+03,8.722274128424055417e-02,9.189824758194369281e-01,-3.845301061550842059e-01
1.748487334842384371e+03,2.921899211000869400e+03,1.435927982542444852e+03,-3.512328637417949651e-01,-6.002587319803822652e-01,-7.185575343067813758e-01
2.040072991032691789e+03,8.828680884740713282e+02,2.759986299234843045e+03,7.980846917875382696e-01,5.752974132299046861e-01,-1.791471771068979812e-01
1.472236335128973678e+03,1.657290381513189459e+03,1.466613550347746468e+03,1.803415524674610582e-02,-9.721679940913712237e-01,-2.335897268907515534e-01
2.375332689458935420e+03,7.643921136690267986e+02,2.249939898412773346e+03,-1.124784576785523883e-02,7.428962329961926736e-01,-6.693120893616438805e-01
8.873396154099496016e+02,2.486997118447358389e+03,5.017488561949043060e+02,2.201564661752630075e-02,-5.544361817376983192e-02,9.982190724023527473e-01
2.230754375093356884e+03,2.219145841866484261e+03,1.077651519239829440e+03,7.221289112873980898e-01,6.163107721968508201e-02,6.890075803673123556e-01
2.043809833356069930e+03,2.571183607345627479e+03,1.177545201909969819e+03,-1.902684754221218438e-02,-4.067035708014166140e-01,-9.133620227324884544e-01
9.241435515158215139e+02,1.716749366018405453e+03,1.079632870142036580e+02,-7.569248254438302181e-01,6.196916670543026751e-01,2.074778214901207285e-01
1.360819875596652764e+03,2.680895248804553376e+03,1.693282357467656993e+03,-8.520550542948688300e-01,3.230778413802598559e-01,-4.118529990902577431e-01
1.482694730975331140e+03,6.606243339733397306e+02,2.040186836317585630e+02,9.894651222009932523e-01,1.363106825696818736e-01,-4.876648198466759787e-02
1.561647703356744159e+03,2.706728942660892699e+03,1.124043608340730316e+03,8.121631137289739844e-01,-3.135654204449341287e-01,-4.920038656344576378e-01
1.491560493584409869e+03,1.444707561628236590e+03,1.466263730876552017e+03,8.171490211327837178e-03,9.966975094176310224e-01,-8.079171658293658742e-02
1.907770703236530835e+03,6.766913457761170321e+02,9.679912451950701779e+02,-5.519994446951920208e-01,-8.338151271475218174e-01,6.996198693700636344e-03
1.456111832067899059e+03,1.410050220098124328e+03,1.545806480825145400e+03,8.779587158057295948e-01,6.468734467367379115e-02,4.743459083620555905e-01
1.450336766083766406e+03,1.644380247453799939e+03,1.366802481184271301e+03,1.149446298846773795e-01,8.106152379243433681e-02,9.900589686584950755e-01
1.929099072985828570e+03,1.762812642080260446e+02,1.019615966142246634e+03,-3.717567861940282437e-01,-8.638824184032132258e-01,-3.398588811440761415e-01
1.522107368316672819e+03,1.407010709820681996e+03,1.585418959341917116e+03,-2.317171771436685179e-01,9.504256967556423685e-01,-2.073599401116847096e-01
1.095093170127769781e+03,1.590680097289892046e+03,2.324733958428018070e+02,-8.699762611924560796e-01,2.953595254985906249e-01,-3.948468762176585156e-01
2.224329033933216579e+03,2.940168187738952383e+03,1.349617902051778174e+03,-5.278316739300926708e-01,-4.605745405490616617e-01,-7.136279258788693625e-01
1.471018488446790116e+03,1.548418460498163995e+03,1.515547186077629931e+03,1.048516737431447837e-05,6.034045182253191530e-01,7.974352558517410205e-01
2.567016220921798777e+03,1.612017656611479197e+03,4.607661431099170386e+02,9.364320018300926751e-01,9.721331866077773110e-02,3.371122611585695150e-01
1.296350381573782897e+03,2.963715728598455826e+03,9.766140770398041013e+02,8.716712788692598801e-03,-1.599728033669428270e-02,-9.998340391985005571e-01
6.064698669588866551e+02,2.192941797273846078e+03,1.223354943034471205e+02,2.638049584604141087e-03,-3.038840548112130974e-02,-9.995346844940921072e-01
1.423214676953748949e+03,1.579866878776460226e+03,1.431852539600031832e+03,-3.935864285360653192e-02,-7.991658723567141021e-01,-5.998206446039135997e-01
2.428646996569842941e+03,5.372105102815428381e+02,1.620937162735075958e+02,-8.315341170176270003e-02,2.579997761041975535e-01,-9.625599335379284582e-01
1.159466136710364026e+03,1.326139899058707897e+03,1.630710192507470310e+03,-5.965343838774932878e-03,9.213055788944618518e-01,3.887935762983045218e-01
2.063754535001870863e+03,7.736167001200556115e+02,2.845622216886129991e+03,-1.699227818802816203e-01,9.537019860341435784e-01,2.481507002460326405e-01
4.009303436567803942e+02,1.259395651593054708e+03,2.799651370727060112e+03,-2.548967658676481660e-02,7.014704335817969483e-01,7.122425901320896813e-01
7.812068321199852790e+02,2.163317027145677116e+02,1.109425045496110670e+03,-3.534704716700104998e-01,-8.568300482954780417e-01,3.753676784105808850e-01
1.601761293359374122e+03,1.320478895742268605e+03,2.665624486365381017e+03,1.911820001571810645e-01,3.942612731522900926e-01,8.988923691456252030e-01
2.634093453193906498e+03,1.395208349018595300e+03,4.533035560648762612e+02,2.923396664264243383e-01,-7.735583638743666335e-02,9.531807771931235518e-01
1.434530734341354218e+03,1.459588272505669920e+03,1.468709787645730557e+03,-4.012516373416076423e-05,4.048852112306238621e-02,9.991800028259365529e-01
2.740012802140911845e+03,3.000000000000000000e+03,7.384013539136615236e+02,-3.144093284681054312e-02,8.885430734490197269e-01,-4.577146210986627328e-01
2.609854021168765144e+02,0.000000000000000000e+00,2.255246716440066848e+03,-5.489907540508940365e-01,3.553742827668869286e-01,7.565171981617810903e-01
1.628374425393929187e+03,1.529146380437805419e+03,2.904435442416922797e+03,-3.016724855684509987e-01,-6.904500360234260281e-01,-6.574743030767076224e-01
4.203552110973029698e+01,2.257764467837022949e+03,1.793118360687414452e+03,2.443057920498716007e-01,4.301899955246782925e-01,-8.690519246405028486e-01
9.158515142240054274e+02,2.546479722482858961e+03,2.357217928049718012e+03,-1.050058491640752240e-01,5.764817577785354974e-01,8.103348410317191552e-01
1.497621342275288271e+03,1.248748416831307168e+03,1.501414956135900638e+03,-6.604104623733532409e-02,9.760283968385046194e-01,2.073816500482545400e-01
1.292000434958314599e+03,2.953451157837206210e+03,1.007089021649406504e+03,3.324086678959242147e-01,9.427674173690492321e-01,2.634528904662625237e-02
4.530833732549680803e+02,2.417148286792823001e+03,2.207025981774209413e+03,-1.837220099759855193e-04,-9.794559157304912889e-01,-2.016583134581063086e-01
1.070149813159547648e+03,1.263062779529937416e+03,1.537365727827086630e+03,-4.407897857539678295e-04,5.803705220952865007e-01,-8.143524192800125627e-01
1.451140742795672622e+03,1.421310466156775647e+03,1.443541700613135617e+03,-5.959621561386367963e-03,3.969597497883766563e-02,-9.991940314480088903e-01
2.911582035549045486e+03,5.634109260150632537e+01,1.350811560830364897e+03,-9.983663635408728254e-01,-5.094048452279861111e-02,2.587800584968413808e-02
1.194098391783225452e+03,2.976658179723989178e+03,2.161785487163423568e+03,9.694526888234629158e-01,-2.426591869200258600e-01,-3.574916972840030266e-02
2.733164937383846791e+03,2.420698419399606337e+03,2.617823935258042184e+03,-9.485707563870627856e-01,-9.887825564045089541e-03,3.164107315387558739e-01
1.341533704142558236e+03,2.951625367599551282e+03,9.450304050658579627e+02,6.432738784677734592e-03,9.794431610119309628e-01,2.016177428171562203e-01
1.042051422753628685e+03,1.297108948483508129e+03,1.640401360255522604e+03,1.247168795683046075e-02,6.631603112775826814e-01,7.483734753087706304e-01
2.700978589934874890e+03,7.882794116906886757e+02,1.203371698321992227e+02,-1.000084524014461657e-01,-9.922691593754860984e-01,7.348622184147135528e-02
2.863378078543300944e+03,3.374592589794112882e+02,1.499550829259063448e+03,4.243608845219173920e-02,9.832357329357188647e-01,1.773320948819971377e-01
5.849186681714182896e+02,1.155037035611049987e+03,7.833463447716183055e+02,2.802895694940982785e-01,9.455088298231539845e-01,1.656828595819832828e-01
7.204394921063227457e+02,6.078138030808100893e+02,1.104817512622311369e+03,-2.044007143837313183e-03,5.022441947298494913e-01,-8.647234187270291805e-01
5.621632400845011546e+01,2.462000563180350127e+03,1.115614738313192220e+03,-7.850640633992473916e-01,-1.971382341099978397e-01,5.872060396581887387e-01
2.843591149135681007e+03,2.643216488543154810e+03,1.050816832055430950e+03,3.315388649840808610e-01,-5.012665183762886612e-01,7.992583177921774862e-01
1.822601665066963278e+03,2.781294903790191711e+03,2.650860215766990223e+03,-1.422099178728361557e-02,-5.713738989736145690e-01,-8.205666523593776462e-01
1.391690896992079843e+03,3.000000000000000000e+03,9.840774225248109133e+02,-7.834464624826935602e-05,5.917571185551351309e-01,-8.061163107774461656e-01
1.744354330892628923e+03,1.661914434477588884e+03,8.489301389853910678e+02,-2.671673238794669003e-01,6.631006715124875273e-01,-6.992275169719598393e-01
2.370205462737721973e+03,8.986576272052476497e+02,1.128351924107519380e+03,-2.519297198905766089e-01,-5.534793930019359376e-01,-7.938463187280420108e-01
2.774215577684452455e+03,1.904865018646584303e+03,2.326645488812063377e+03,-9.575543757846608764e-04,9.429904472717014485e-01,3.328184181260616104e-01
1.481444256487645362e+03,1.513866371040732702e+03,1.448768090590545626e+03,-5.055702925645520112e-04,-8.693752985308887959e-01,-4.941521372037231408e-01
1.151313637572168091e+03,1.200581637764847301e+03,1.523541582782895375e+03,-8.002964901571542333e-02,1.545554333058463403e-01,9.847374641568501508e-01
1.269038035908808297e+03,1.783738220291926382e+03,1.243867501952179055e+03,1.468389184171591845e-02,-3.893441059704795815e-01,-9.209753256555947010e-01
2.252311422311338902e+03,1.562027121654377879e+03,2.392084744927536121e+03,7.549008529864689176e-01,1.686054895731048664e-01,6.337956224573622066e-01
1.488314614350787224e+03,1.510420040393792533e+03,1.437777036714605174e+03,-9.806980821845443508e-01,1.933253121842528344e-01,2.926764883652133165e-02
1.450625471211685408e+03,1.329233856840982071e+03,1.490063070459714254e+03,-3.844882908279144266e-04,-7.565747733451620889e-03,-9.999713054033041448e-01
2.607500097953409295e+03,4.945837254156439826e+02,2.318083748997833482e+03,-8.266810036770494419e-01,-4.956079048343550730e-01,2.664044346950837916e-01
2.020155774433570969e+03,2.913193233819508350e+03,8.670305538071414730e+01,-1.926166052076130073e-03,9.908532793508708636e-01,-1.349298657968838189e-01
1.430106539681682420e+02,1.448814821526748574e+03,8.829199154659357873e+02,6.182459658543488779e-01,7.858799135330419849e-01,1.283305147351643423e-02
1.662297920143970714e+03,2.673137269670132810e+03,1.318163287483345584e+03,-1.389290187766338280e-01,-6.543143606702905846e-01,7.433514950293640400e-01
6.439564914843811039e+02,2.109863840584475838e+03,1.188096753397425346e+03,-6.240781551304962482e-01,5.744512338374085231e-02,7.792474023622684154e-01
2.238051471374559242e+03,2.980010919058381205e+03,1.322772125347533802e+03,8.352569299672106817e-01,4.771246555561109437e-01,-2.733092095085945528e-01
1.401571278100679592e+03,1.429467341928422002e+03,1.420186105933943963e+03,-3.386266880379613963e-05,-6.270368399335490839e-01,7.789896021253868152e-01
1.363442929788665879e+03,1.582941655047702170e+03,1.448051276501191069e+03,-1.284380248773747159e-03,4.651791915068422267e-01,-8.852156065933413087e-01
1.573673091139905864e+03,1.522421430331388819e+03,1.321977112342959117e+03,1.304185846856266255e-02,-9.964546710555357567e-01,8.311436975210775846e-02
1.528925876174199175e+03,1.579551260385890373e+03,1.310602618625205423e+03,-6.858400659600008033e-03,-1.875727816564562445e-01,9.822267629840126801e-01
2.259547462257252846e+03,2.517999287816600372e+03,1.086602715630601779e+03,-3.137336385499422259e-02,9.639778944876794542e-01,2.641255969790181624e-01
1.630650672134496062e+03,2.184020793954608962e+03,2.396819171002918210e+03,3.525591901207315026e-01,7.266871905014539168e-01,5.895996477462630558e-01
1.440713964248697039e+03,1.405114380664188275e+03,1.430720759021838830e+03,-2.178347771020640216e-05,-8.408394530175731241e-01,5.412845959147446484e-01
1.501771178956586255e+02,1.446124544721018083e+03,1.672923477276069889e+03,1.604455698735821664e-03,-1.527000820130666736e-01,-9.882712738287566800e-01
4.778296709753404912e+02,2.027166384290574797e+03,1.052748531687854893e+03,-1.332674089686998464e-01,9.945454135769672688e-03,-9.910302142966189720e-01
1.442228477581303423e+03,2.623443861670291426e+03,1.111921619479206356e+03,3.553254350472328377e-02,-1.877788939332190599e-01,9.815684007471419115e-01
1.553356112085488576e+03,1.541039790398122477e+03,1.413498536855396878e+03,4.107539810760406189e-03,-9.984225795103777168e-01,-5.599536445587836170e-02
1.234460680257671584e+03,3.317708350112400240e+02,1.830875588709968156e+02,-1.200267412708661691e-01,2.671796103412039103e-01,9.561425820440270229e-01
2.837209013205158953e+03,1.790593148529796963e+02,2.253216749573759444e+03,-9.529827096958155552e-01,9.053749296467715479e-02,-2.891831900171448200e-01
2.578937014729327075e+03,1.637904445262528043e+03,5.088097714372075302e+02,-9.253478412806619424e-01,-1.810002885613192780e-01,-3.331220019421386458e-01
2.730739217969683068e+03,2.782174000246553987e+03,8.398507634515303835e+02,-8.065764704358571908e-04,-8.474102530646739906e-01,5.309380495267433941e-01
2.854982334468343652e+03,1.574468841001527835e+03,2.638605931920434159e+03,5.739451471076033595e-01,8.014919852285863344e-01,-1.679213081356003556e-01
1.741297783510962518e+03,2.974173245281799154e+03,1.429255872731230966e+03,7.527522054572506616e-02,6.392857622612511115e-01,7.652759994549963585e-01
2.720258724588213227e+03,1.445214502785780041e+03,2.679988699713854203e+03,-1.239031457643268164e-01,-1.295122306121122280e-01,9.838061763333156851e-01
7.445276829624136781e+02,5.799022349666313403e+02,1.150282533538163534e+03,1.291124315106783604e-01,4.980414317540893254e-01,-8.574874414740644157e-01
2.141501602026704859e+03,7.345104430695673727e+02,2.599109224960935990e+03,-9.139668232673507729e-04,9.909841462196248285e-01,-1.339760672881815662e-01
1.218789507256610477e+03,2.486452731495722674e+03,1.932452985281275630e+02,-1.488459830995181310e-02,9.097757627391203084e-01,4.148331113419024274e-01
2.776972094220985127e+03,1.506835902822674143e+03,3.109132003133940998e+02,-7.791746308700890633e-02,6.647323598217327323e-01,-7.430072400400382637e-01
2.152478475801369314e+03,1.949440548126360000e+03,4.288625213406114085e+02,4.871425174903343258e-01,-8.643748668122879231e-01,1.246926512526651543e-01
6.596952198148096613e+02,2.923777384003619204e+02,1.933169341675432634e+03,-3.841215392536294349e-02,4.694631113759183405e-01,-8.821161451237905515e-01
1.191105657820533224e+03,1.783812660111531613e+03,1.454408296418664577e+03,-1.346879218161326506e-03,6.545167870308180591e-01,-7.560462693587122196e-01
1.472353270362790226e+03,1.480876842737660127e+03,1.411592023453391903e+03,3.748316168402188262e-03,-9.978785902373160654e-01,-6.499437877146338471e-02
5.074274183642186813e+02,2.100539564623018578e+03,1.855459261778952964e+02,-8.692273413012100575e-03,3.449098499307584609e-02,-9.993672079556746857e-01
2.120933990484461447e+03,6.998875364691880350e+02,2.547458397775227695e+03,5.018205355429235237e-02,-2.798685734883119003e-01,-9.587258956942237287e-01
2.390062406262603872e+03,5.070113020314119012e+02,1.923246748338828240e+02,3.414379302768617008e-01,-2.433378431857482482e-01,9.078583776349486989e-01
1.890953609223951617e+03,2.411912514590491810e+03,6.394836750224669686e+02,2.228035252842583691e-01,7.018494172424234456e-01,-6.765840558551298178e-01
2.609366877302841658e+03,8.097510238469651540e+02,1.650385271636424022e+03,6.766986381950509388e-01,5.117202225758709089e-01,5.293593929192763614e-01
2.710779243713372580e+03,2.074235098989432117e+03,1.768891745046374808e+03,5.535063342770292216e-01,6.440622725851822272e-01,-5.280289073030152158e-01
2.626323574577235377e+03,2.085925256982804058e+03,1.646206883960267987e+03,-1.392053250365071770e-01,-8.799366897193916515e-01,4.542392536617234633e-01
1.713081879352073429e+03,2.651692081484639857e+03,2.841521150451016183e+03,-4.157691066425567294e-01,-1.652015921815705723e-01,8.943402506330151436e-01
1.620028955876113741e+03,1.230552267218332190e+03,1.040430642041504370e+03,1.758210609554360648e-01,6.644405624626383844e-01,7.263647110638274951e-01
2.371348669705942029e+03,2.221416112135018921e+03,7.001027504877177421e+01,3.763235822893687410e-01,-5.287734790753084724e-01,7.607753737073059686e-01
1.616367773230327202e+03,1.618743535614875100e+03,2.684640404353155191e+03,-9.882366668850212088e-01,1.277247022182520786e-01,-8.411118039382527167e-02
8.722512581974000341e+02,7.835409136193381983e+02,0.000000000000000000e+00,-4.366607145214720376e-01,5.320078536886562598e-02,8.980518341553195283e-01
2.345723590531987384e+02,1.981977389705558153e+03,2.650559680927950012e+03,-1.398045528268721804e-01,2.426157490250909765e-01,9.599959819363164115e-01
6.358483346942139178e+02,2.621136061638374940e+03,1.984025023978678746e+03,3.295155451774353650e-02,-2.010292029007358094e-01,9.790308752209804233e-01
1.081569263090197182e+03,1.541112765781719190e+03,1.578447459822106339e+03,3.463160081482012393e-03,-3.531080656930166151e-01,-9.355761329067701082e-01
1.092713869989353043e+03,2.416627245684993795e+03,2.350913932433804348e+03,-9.011513640514934309e-01,-1.244731740461919450e-01,4.152501029632613694e-01
2.178670143546757117e+03,6.980628939416920957e+02,2.623871373449064777e+03,1.277401147514152860e-04,-2.711655194752057296e-01,-9.625327239788811218e-01
2.344796384366733491e+03,1.255690708478809483e+03,8.529328975379111171e+02,3.588460964046252255e-01,8.521936799062443946e-01,-3.807826296235372610e-01
1.536143768722349705e+03,1.501087249654279276e+03,1.647344720507969896e+03,4.884390975511636590e-01,-8.291745051492842578e-01,-2.718398204712555444e-01
1.407462658585263171e+03,2.365155042474081256e+03,8.927411031704547213e+02,-2.223088903037144320e-04,-8.798589379460097781e-01,4.752348891814206500e-01
2.475385881924913519e+03,1.066584183003499675e+03,1.455138452456361904e+02,-1.930526392403307812e-01,-1.836803236837425690e-01,-9.638424234146254488e-01
1.994475712770931978e+03,2.559115262511482342e+03,8.395218193246649889e+02,4.768074633780185895e-02,-7.298076896861400709e-01,-6.819877436608732246e-01
1.419837962218097573e+03,4.905705608812664877e+02,1.084767067587352585e+03,-6.665367098022171310e-01,-6.883008992535398773e-01,2.863052332263653632e-01
1.505774215985599312e+03,1.375790898346240510e+03,1.463070654302368439e+03,-4.772773731251352450e-04,1.587503448565121267e-01,-9.873186416827384182e-01
9.962918015394104714e+02,1.392926605688822519e+03,1.961425908424807631e+03,-1.766637881299862323e-01,8.754453207375368917e-01,-4.498726446032417781e-01
2.618758567175183543e+03,5.648023378061297990e+02,8.955372639723231032e+02,7.773605377807465411e-01,-2.889885330409540654e-01,-5.587452210731345126e-01
2.344869409998131232e+03,1.131068740172789148e+03,2.259059018319731535e+02,1.788863484251111136e-01,9.313476571643061197e-01,3.171611827473341250e-01
1.991857177571791681e+03,2.574218341522629089e+03,1.712506804835091543e+03,7.119754485417520984e-01,4.599086821430564131e-01,-5.306363771578499477e-01
1.083458828321819738e+03,1.486787790185549966e+03,1.582953902294596674e+03,3.948215611882460729e-02,-9.478341882407560481e-01,3.163092014946702335e-01
1.184453859551780397e+03,1.196171317479447225e+03,1.636905433252059538e+03,-2.378625830225019201e-04,5.515733670028546420e-01,-8.341263478841355328e-01
1.278355812254942521e+03,2.274598265985121543e+03,8.864209722807635217e+02,-2.206105504280185259e-01,-7.672833948918644786e-01,-6.021687279849908814e-01
1.514033555467886799e+03,1.459382442601621278e+03,1.459750307893063564e+03,5.606444389888905200e-02,9.984225540912172736e-01,3.030117535477088592e-03
1.949849544341218007e+03,6.948336204315797886e+02,2.025662935936170697e+03,9.206252273999603331e-01,3.393211089930501245e-01,-1.931589388728829626e-01
2.412504775772123139e+03,5.809780096183478690e+02,2.116323448681989248e+03,7.552362606431892514e-03,-1.370011026932995979e-01,-9.905421039410091666e-01
1.662792254373882486e+02,2.715562401617856722e+03,2.588955998591496609e+03,3.618867845022304738e-03,-7.206717797436670292e-01,6.932669685457512054e-01
1.567162720930554542e+03,2.294392966069412978e+03,1.872059599188598213e+03,6.797487986894837353e-02,6.304760741917238009e-01,-7.732265745424131698e-01
1.689658174694782247e+03,7.871896507003912120e+02,7.165000716170206942e+02,3.925808789765893314e-01,-7.991851285761868429e-01,-4.551740147730672370e-01
1.427525509077499919e+03,1.423608184801608104e+03,1.455835872153200853e+03,2.300214599173902629e-04,9.640802492738220764e-01,-2.656110314920167026e-01
4.423330427147593582e+02,4.834293060356503702e+02,4.584415508371111514e+02,5.534003075497296864e-01,9.687312824483707008e-03,8.328590850642774157e-01
1.971373043670680772e+03,1.849457471992566752e+03,2.192878524195317823e+03,-3.404455074901814871e-01,-1.488480942990454692e-01,9.284078313183787845e-01
1.252031107826693642e+03,1.255817546708833788e+03,1.821321006238801601e+03,7.191913105648641003e-02,-8.485922035069247693e-01,5.241363474663266464e-01
1.586572149628948409e+03,1.600285822413323558e+03,1.588168798026267950e+03,-1.698405961185819142e-03,9.887811854692135638e-01,1.493615836796326757e-01
2.249604565626844760e+03,5.037704243074601322e+02,1.332919518289647385e+03,-6.619747820755150780e-01,-6.023548745416708039e-01,-4.460470748833158527e-01
4.521612989972513219e+02,2.229400445755761666e+03,7.148135466247218517e+01,-2.003673154468261219e-01,8.576469652813309974e-01,4.735975315015434894e-01
1.576670510751369193e+03,2.716471324589579126e+03,1.217545147405164698e+03,-1.983023708611105287e-02,-8.363921463085677299e-01,5.477727076903851078e-01
2.177322504965211465e+03,1.097363563867137373e+03,1.405903496419901785e+03,9.736177630483185963e-01,-2.260079211821417466e-01,3.144631997094182729e-02
7.131974098696874762e+02,7.598658047769604309e+02,5.669218051449674931e+02,9.056496922342553990e-01,4.012499952564211880e-01,1.371024298206291459e-01
1.539887793410559425e+03,2.325268241363706693e+03,1.931417111557117323e+03,-7.232545824807320445e-01,5.858701223326683305e-01,-3.655940490195734860e-01
2.595341736685369597e+03,2.574909141665260449e+03,2.052525468963245601e+02,-5.123106006401715318e-01,7.450797364796301059e-01,4.270761463242260803e-01
1.496196412649620470e+03,1.298227386881819712e+03,1.498218191644460831e+03,2.634457531579074696e-01,-3.896569076950989197e-01,-8.824759653546129234e-01
1.294569518691406756e+03,2.950702137439117450e+03,9.775894919147532391e+02,2.863762029342744111e-03,9.420652670123698114e-01,3.354173990060020927e-01
4.758149417121803708e+02,2.128774986022612211e+03,1.094123397068754230e+03,9.172745775446790040e-01,-3.904222982786049179e-01,-7.859884475666779891e-02
1.421143062674527300e+03,1.541766636840829506e+03,1.383454730926137927e+03,1.401761702383318431e-01,9.116008400972963610e-01,3.864382869634138129e-01
2.432799727059066299e+03,1.142135701379829698e+03,2.241367308647004961e+02,2.553762393560788236e-04,9.980369735593589420e-01,-6.262694461213676178e-02
1.466144924712053580e+03,1.494399337003952951e+03,1.502847326213765882e+03,-1.121013216931587814e-04,2.690537069731187558e-01,9.631251684995657536e-01
1.216033815469861338e+03,1.164512337372878392e+03,1.628522286129910981e+03,-5.574361511317225265e-02,4.188059485520839176e-01,-9.063631870456256845e-01
1.569328030120389258e+03,1.641071021427033429e+03,1.412856340195100756e+03,2.270057335560035083e-01,-8.406761381055734283e-02,9.702582301845730228e-01
1.140667442248733551e+03,1.143450839777404582e+02,7.367534801298451157e+02,-2.453062797466712686e-01,-7.081666648422252353e-01,6.620610273404463619e-01
2.760204078274214226e+03,1.703216227231712537e+03,8.779275695665315880e+02,-6.797659610518567985e-02,-9.525802134139584876e-01,-2.965975714569655253e-01
3.822015084756072838e+02,2.481968729915379299e+03,2.060674053963261031e+03,1.088236698418688780e-01,4.287281768138495597e-02,9.931361086911535407e-01
2.504008925103044021e+03,3.867448102460180621e+02,4.687652151707421240e+02,-4.413973927220347232e-03,8.570939652395631603e-01,5.151411957746074854e-01
2.630609806323576322e+03,6.690654038146690255e+02,2.218436836292884436e+03,-4.250988539636720298e-01,4.360587909320637889e-01,-7.931857885827502397e-01
2.704774016520555506e+03,4.389330575236720620e+02,4.474656792311840832e+02,5.623050552599370144e-01,4.140535960759433309e-01,7.158020986318068823e-01
1.322303739657725373e+03,1.171000266147198090e+03,1.838547533307053982e+03,-3.702361231946682540e-01,3.503171158925672988e-04,9.289376138146742123e-01
1.228978633525179021e+03,1.338645887905948484e+03,1.561701308516877134e+03,-1.177396143642970433e-01,-1.450983975717223540e-01,9.823868068288911237e-01
1.282318517113506005e+03,2.120611082525732854e+03,2.648340227766451335e+03,9.169072665491480034e-01,3.937397382237587951e-01,-6.519266134202406082e-02
