x,y,z,nx,ny,nz
2.391955939094895712e+03,2.079200023721595244e+03,1.598825285643293228e+03,-1.244602380902587041e-01,8.784596585421226012e-01,-4.613223140588079696e-01
2.741907581309641273e+01,2.241071156805825240e+02,1.291434173201424528e+03,2.093492359539947736e-02,8.535113458235035200e-01,-5.206535426986036441e-01
7.480729170385257021e+02,2.762215966035736074e+03,1.946612112299274031e+03,5.554353394455242565e-01,1.005098579375116041e-01,8.254631137442887123e-01
2.182972060050225593e+02,4.609607648126568051e+02,1.777523559747367017e+03,9.801827546805164104e-01,-1.383386408686507474e-01,1.417892374954072832e-01
2.516083031807031603e+03,1.766474637200517918e+03,1.566937958460139726e+03,-5.051351140402271019e-06,-8.528867063517645564e-01,5.220960314950907621e-01
1.443873505591235926e+03,2.508016925405013808e+03,6.672680272521729421e+02,6.148592636298307879e-01,3.794076838326292944e-01,6.913739186412385385e-01
1.498096305051390864e+01,1.154713156580333049e+02,1.303367624602487467e+03,-1.755602742077360182e-02,-6.645872435622404151e-01,-7.470044053387799865e-01
0.000000000000000000e+00,2.338903612006332935e+02,1.239980722496429053e+03,7.635547657368015051e-02,-8.512062053844431375e-01,5.192473756430776577e-01
6.831291595526880656e+01,1.243104956151472891e+02,1.281747454671178502e+03,-3.261212425752152977e-01,-8.328631369536212414e-01,4.471956286067333419e-01
1.242095108131893539e+03,1.665538443430379630e+03,2.930490739026305619e+03,-8.377874164666382351e-02,9.727139640267257192e-01,2.163531063689987932e-01
2.014141108228375970e+03,1.792122546629322414e+03,1.448653024462972098e+03,-2.634349201701342014e-01,-8.505279277247238534e-01,-4.551969760392111652e-01
3.874099296924012492e+02,2.400091697145960552e+03,7.461233195475183493e+02,2.878215099484151326e-03,9.999868372244795633e-01,-4.247499926232350433e-03
2.381494805519786041e+03,2.170845638426426376e+03,2.148943641469342765e+03,2.980816109606349712e-02,-9.988972996502926138e-01,-3.627200412749082004e-02
3.185165231517260054e+00,2.730800923195145060e+03,1.208920225074764176e+03,4.719357751235470403e-04,-9.812374349587282829e-01,-1.928026802517011917e-01
1.801375931851802989e+03,4.821858587736126651e+02,3.139819234793154124e+02,-1.456733492748211733e-01,8.280181122904771707e-01,-5.414473945176677683e-01
9.216590821627797823e+02,2.990984399716562621e+03,3.944222334369744090e+02,-1.261587035006948576e-01,-2.800196575286049705e-01,9.516685205094190803e-01
2.083764556626088051e+03,2.691201311618752925e+02,1.736302639807762262e+03,-2.504531213183478627e-02,-5.028110576385043107e-01,8.640334326035465917e-01
9.499110245331984288e+02,1.796414949192541371e+03,1.972243641990677816e+03,-1.350889508117984472e-01,-3.161475718076119379e-01,-9.390429639844593002e-01
2.448084203536092900e+03,5.716533861623951651e+01,2.806132192594897788e+03,3.096194661836240147e-01,-9.203154395592187953e-01,-2.390717002681199965e-01
1.124198277383229424e+03,1.394294285522058317e+03,3.086648263022118499e+02,6.728419427335846636e-02,8.203775331867405596e-01,5.678499275719099959e-01
5.175536361541290944e+02,2.896497001914277917e+03,2.821402415970655511e+03,-1.099622874770747035e-06,-9.732408814202990754e-01,2.297872640749052398e-01
2.384861103734024255e+03,1.834956456714042815e+03,1.183617271315704102e+03,-5.110834033598558035e-01,-3.193622168608752365e-01,7.979984519106626539e-01
7.106492886086008411e+02,7.759313425393135049e+02,2.499744224250785464e+03,2.889147236382167642e-03,9.967414192049582899e-01,-8.061138920482821546e-02
1.005180302532503305e+02,2.710350437287255318e+03,1.125595258182493126e+03,2.920581961995775133e-01,8.247824848976248457e-01,4.841857728586709264e-01
1.375178602997350026e+03,3.630835310574352661e+02,1.484434651446779299e+03,3.349147196399060444e-01,3.835708575991145786e-01,-8.606425086928968238e-01
3.805938002749461901e+01,3.374485226766124129e+02,1.317102546702706377e+03,-2.243027092226622735e-02,7.643394976674100505e-01,6.444237854485856953e-01
5.963446632682107520e+02,2.889138037014339261e+03,2.839655529624415522e+03,5.096493298409164874e-01,3.685148573623397428e-01,-7.774666298278782861e-01
1.336606551353377654e+03,1.362465388486905567e+03,1.527775811833157832e+03,9.081786427631313935e-04,1.990532098500592817e-01,-9.799882626133545882e-01
1.536484931223036938e+03,1.508169657907909823e+03,1.467539650048989870e+03,-4.595583892341203319e-02,1.010929970026678594e-02,-9.988923179844840794e-01
1.438899637046580665e+03,1.467283295903184580e+03,1.387656329663848055e+03,3.781531747490062228e-04,-9.338216970939213768e-01,3.577385847749791625e-01
1.105743095249494559e+02,8.179989561305697521e+01,1.281003030696606174e+03,1.853710797513614844e-05,-8.938395900535208716e-01,4.483868719190263752e-01
9.285201099742876067e+02,2.757093205658574334e+03,1.403414776486073151e+03,-2.461024897221319400e-03,-5.438096199586236468e-01,-8.392050051071624495e-01
2.645588848935931765e+03,2.892608996063745053e+03,1.790919683834797524e+02,-9.727078759675378272e-01,1.351935254804566278e-01,-1.885791576470910169e-01
2.348181616245011810e+03,8.661392410052361583e+02,1.343543783899668824e+03,2.109248772571338179e-02,-9.457336627675108076e-01,-3.242575304752208232e-01
1.507139938591390774e+03,1.587014834010154573e+03,1.427529702499417226e+03,-2.767513311429279366e-01,3.625786195718894711e-01,8.899131673033950918e-01
2.363155019462814835e+03,8.809780444759252305e+02,1.275266915180423211e+03,-1.938462830285244409e-01,2.109148544632488340e-03,9.810296478947218013e-01
3.335279233182345706e+02,1.550403224951272477e+03,2.765924183077791554e+02,-3.684597388919597788e-02,-9.178896598583686783e-01,-3.951214326422256562e-01
2.741259400197368450e+03,7.052178356052263553e+02,1.323552549030871660e+03,9.247712865713147989e-02,-9.757044517765904867e-01,-1.986172285041642449e-01
1.394751620484924842e+03,1.524196244775542027e+03,1.446403855362329296e+03,-2.566597540171449698e-01,9.134971469297715752e-01,-3.156718758759258225e-01
1.170939219588054812e+03,2.321599131678832691e+03,1.338035438818588773e+03,-6.478294448029878749e-01,7.574387529845217903e-01,-8.126220476645462654e-02
9.170486917082897662e+02,2.574578784603702957e+02,1.690488005136849779e+03,-1.366873376004411333e-02,9.035306656217015897e-01,4.283053840411091273e-01
1.380173790804908322e+03,1.559620127781101473e+03,1.423577777760697018e+03,1.677105798137698278e-01,9.485607372914693913e-01,-2.685250250676709527e-01
1.519509153777025631e+03,1.401903448032165443e+03,1.440046079754168659e+03,1.401733223170516067e-02,-2.624077825334830694e-01,-9.648552586077179249e-01
6.290238687032507414e+02,8.841881789963864549e+02,2.331424210914578907e+03,-5.671198049252860196e-01,8.210662624162599066e-01,6.500245828658424152e-02
1.367983366059671880e+03,1.437992170236074116e+03,1.595497955949311972e+03,-1.627451304201127380e-01,-8.279248731886845736e-01,-5.367070214558790076e-01
1.856075304727929051e+03,2.023640877281190797e+03,2.252942226716512323e+03,-1.045974761287561811e-01,9.129525611266784413e-01,3.944324899393212291e-01
1.808008909732305710e+03,7.486514638810718907e+02,2.446180347520005967e+02,9.393300968330688464e-03,-8.025347120502216436e-01,5.965314759938373790e-01
2.005040846798399571e+03,1.728609922226000890e+02,1.556518596289773768e+03,7.072632203482134283e-01,5.854125953872898469e-01,3.963216248258371044e-01
8.722149573789016586e+01,3.234666097752786982e+02,1.150059593732828944e+03,3.672080552818467961e-03,9.699530686509797439e-01,2.432643838274756998e-01
4.934401259710172383e+01,1.551635411113680334e+02,1.264647424266330290e+03,6.282602747966497317e-06,5.396896385917717698e-01,8.418640590720165573e-01
1.861326598401409171e+02,2.772641783978893955e+02,1.456384090031522646e+03,7.886410954684301977e-01,-6.147492801301261967e-01,-1.133777393697887881e-02
2.876836590946048773e+02,3.037902774000643831e+02,9.323112209570240339e+02,-1.595963984143927358e-02,8.185415823575641348e-01,-5.742255374395208722e-01
2.099194403824111760e+03,2.441729139085241059e+03,9.435597521230989742e+02,-5.207926528725141668e-03,-9.969804901925090057e-01,-7.747760758293972816e-02
1.363985875531071770e+03,1.656384513963992504e+03,1.558855109466446947e+03,-1.640943079386139938e-02,-3.355808296080873832e-01,9.418684819976561595e-01
1.296457338632489382e+03,1.948831917159961904e+03,1.312998072856412136e+03,-2.146038140461380972e-01,4.773097043735565759e-01,8.521271320100531899e-01
2.508342962177725440e+03,1.731000252016571039e+03,1.549045058413077868e+03,9.221319863023827446e-02,-8.029986405833284824e-01,-5.888037951811339044e-01
1.538067210955414112e+03,1.432997357915095563e+03,1.420092006551395116e+03,1.898706985826787430e-01,9.300829123565285128e-02,9.773937669031603770e-01
1.439646922776591055e+03,7.830067098020429057e+02,2.549189219875466733e+03,6.345128118833957831e-02,-5.424944859486797721e-01,8.376596371025858412e-01
1.958065121069293582e+03,5.780753425572178230e+02,1.060044190794792257e+03,3.517536830835836254e-03,-6.970261206978440871e-01,-7.170371078260582287e-01
1.019631489642799011e+03,1.486830496478197006e+02,1.310070690962950721e+03,-7.016369881186989010e-01,-3.837521622723807924e-01,-6.003664005047193442e-01
6.993751521759114667e+02,2.506827093290159496e+02,1.620870947510992892e+03,-5.477599765974526524e-03,9.940637451737993624e-01,-1.086612462280990149e-01
1.547112236514047709e+03,1.463324736335596299e+03,1.489895192573431132e+03,-2.533175051431627578e-01,9.471386696646582060e-01,-1.968719939806199692e-01
1.504282706172766439e+03,1.455504837143852455e+03,1.525470300789840621e+03,-1.360296873284655677e-04,-9.927530546619988128e-01,1.201721846152204315e-01
9.665925374233968341e+02,2.715290145564547856e+03,1.370191816708015722e+03,-4.177386887065321426e-04,9.217932287884009757e-01,-3.876816591666966128e-01
1.809365566141372028e+03,8.314377524807204054e+02,1.934101456294410184e+02,-7.141104698091656211e-02,-4.285068260263366624e-01,-9.007121418177531647e-01
7.897509152257205187e+02,2.639346281942748192e+03,1.050307610188522858e+03,4.628541269617451603e-01,7.122082456856284605e-01,5.277551249697913782e-01
1.406453025378897109e+03,1.520144869783432796e+03,1.481840703318161104e+03,8.321583661975083535e-02,-1.824102044394499411e-01,9.796946676654074704e-01
1.336077076818110299e+03,7.387559363120268472e+02,2.040854637254242562e+03,4.480186042189944484e-02,-8.911695233339963496e-01,4.514528480178128245e-01
1.406366683377587378e+03,1.351349419067517601e+03,1.572294614957202157e+03,3.079514263080797565e-01,-7.627905062746054288e-01,5.686093233250315571e-01
1.285952631447427393e+03,1.812839734484601877e+03,3.000000000000000000e+03,4.258743892404583554e-05,9.302670290083162596e-01,3.668831597748123396e-01
6.819985111344200277e+02,1.026698165156262121e+03,1.083017688529392444e+03,4.785230480885034887e-01,4.305440328899547975e-01,-7.652761123875102545e-01
1.476160078397742382e+03,1.444394928182606691e+03,1.491921524385305702e+03,-1.219918414127243028e-01,9.580622374693891219e-01,-2.592966250530086558e-01
1.798762417867962085e+03,1.899714761787899761e+03,1.204303414161405499e+03,-2.296268589095475706e-03,5.953317523242354081e-01,8.034767151729551582e-01
4.763826615457878688e+01,2.810521075362624742e+03,1.113584798844203078e+03,8.126490357826955668e-02,6.225813853605669523e-01,7.783241188919509668e-01
1.756071117022084991e+03,2.897664346084814042e+03,3.820146590941293994e+02,-9.118591890894081620e-02,2.051488785964568351e-02,-9.956225527622595273e-01
6.683216408506227708e+02,1.801556987535331245e+03,9.328052297344855788e+02,4.765650402841638267e-03,2.671855714182675978e-01,-9.636333114842656755e-01
1.324668216844662311e+03,9.816605431501374142e+02,2.045696501455360931e+03,-8.465457538938673254e-01,3.187825307945888614e-02,5.313605777105276928e-01
3.476542987456261358e+02,2.937620029263774541e+03,8.140576450322802202e+02,7.428792217222044414e-01,6.870387500053304342e-02,-6.658905611985523887e-01
1.810273015659633074e+03,1.270237921963233475e+03,5.844538452081735613e+01,-3.122682531172572551e-01,-8.590361096449742329e-01,-4.056420841346770612e-01
1.450982278296294908e+03,1.546725427423046995e+03,1.482074630309559780e+03,7.957320887847655134e-08,6.080679204099459501e-01,7.938850068922559400e-01
4.740405366686738375e+02,2.212164904236549319e+03,5.600313479028870915e+02,-1.525464967393530269e-01,-9.027412773810323809e-01,4.022284828862974226e-01
1.471314041126796383e+03,1.521230761750395459e+03,1.431542644461515238e+03,-3.234473240465348017e-03,9.958822783764436082e-01,9.059815560264224132e-02
1.465251418306503410e+03,1.504760213140229098e+03,1.596247840983333390e+03,7.748341356066367099e-03,-3.133924182184447821e-02,-9.994787717246733649e-01
2.727917414229236329e+03,1.739186139556986177e+02,2.239522593706138650e+03,-4.141910915275797689e-01,7.144263196364513124e-01,-5.639510382204355743e-01
7.793023470990171973e+02,1.492356145941715113e+03,4.010676483231038105e+02,2.904042607062294334e-01,9.474091660035783846e-01,-1.344664922427609710e-01
2.392601617778647949e+02,1.684809167227021135e+03,2.140937661431749802e+03,7.353199717088094722e-01,-6.724419899786591159e-01,8.441747046492566187e-02
1.063807615775477416e+03,2.970453863612951864e+02,2.679169585355482468e+03,-1.135199267386550158e-02,-1.392335751047925688e-02,9.998386231677429681e-01
1.777328896624687559e+03,1.173473152292889836e+03,1.095883655579892775e+03,8.762914159324834695e-02,5.168797584488522556e-01,-8.515611832684053528e-01
2.137785791361402062e+03,2.852544790443278544e+03,8.031421178114429722e+02,9.504893664019161692e-01,8.126763950892085253e-02,-2.999425530422983321e-01
5.390228723227836554e+02,1.477697818222916908e+02,4.521097354357565337e+02,1.650468152742231298e-01,9.531172119335975523e-01,2.536279343521969931e-01
1.283763288112770340e+02,1.106285016371048414e+03,2.285768971978854438e+02,-9.214195809966883033e-01,-1.323204162660336913e-01,-3.653454025919458115e-01
0.000000000000000000e+00,2.558453647394598192e+03,2.794068232268981319e+03,1.284057669885175779e-01,9.283616382104205034e-01,-3.487931015707662064e-01
1.470597970528059477e+03,1.446666511670250429e+03,1.411680926815711246e+03,-3.267056397258725326e-04,-9.983493248261851027e-01,5.743273354564653460e-02
6.289210920710614516e+01,1.386278451851377724e+02,1.291726559290877731e+03,-1.378327661903898816e-03,-8.343651032788046429e-02,-9.965121419015234849e-01
2.149979386243254851e+02,2.791546022758448544e+03,2.863367446761212705e+03,9.223215302086756884e-01,-3.718887206006109003e-01,1.049846388933528551e-01
1.355618694624849923e+03,1.424275295018111365e+03,1.407183419191534767e+03,4.496933974693066022e-02,-7.129697345094860861e-01,-6.997513245119284520e-01
1.522145949054634229e+03,1.438617556602673631e+03,1.415542147962529953e+03,-9.474926999377626890e-07,9.834924434824476869e-01,1.809492017446517054e-01
4.094777222190519410e+02,8.926670885371282793e+02,2.200897351542099841e+03,-1.641787131809578359e-01,-8.415629974437811578e-01,-5.146038004831321455e-01
1.211260852147991500e+03,2.344225728133546909e+03,1.312878333012896519e+03,4.274149238070253376e-01,-8.988971417939838338e-01,9.643864050079337114e-02
9.239695788161029100e+01,2.796697065406805450e+03,1.060360455116715457e+03,1.412153332475459249e-03,-6.694994917444162530e-01,7.428111714136601540e-01
1.518783886812836727e+03,2.511307830182357975e+03,1.367905606952280948e+02,-2.158699803007136167e-02,-1.640021592793889926e-01,-9.862237541591398760e-01
1.254792954841752362e+03,1.766351167914699545e+03,2.964862636566688252e+03,-6.654779852287909803e-01,7.357438864808025780e-01,-1.257775205748353498e-01
1.944799988459890756e+03,1.644016946511012748e+03,2.106588351901593342e+03,-6.722892207976169550e-03,9.175630330057613637e-01,-3.975334994458052384e-01
2.555954851457313737e+02,4.303126697070626960e+02,1.406651157189779269e+03,-2.144568044708651255e-01,7.574676958496017187e-01,-6.166449292424617257e-01
2.391904836767112101e+03,9.369631156879530636e+02,1.431872312429497242e+03,-9.185274038967440324e-01,1.104139352271699820e-01,-3.796263573546467818e-01
7.021397222030866487e+02,6.726427651139994168e+02,2.421954230637692945e+03,9.003786867214437495e-02,-2.059013832046235892e-01,-9.744217785945675780e-01
1.524340391243043541e+03,1.320785469046803200e+03,1.499323218149464083e+03,-4.098174548251730040e-04,3.205845682310727862e-01,9.472198090526562364e-01
1.021616567840337439e+03,3.610068756102077145e+02,6.665415290387750247e+02,-3.865263246565186495e-01,-9.025903389717837566e-01,1.895470399197096700e-01
1.634883005067388012e+03,2.082680462068412623e+02,9.592466628645049695e+02,-4.996421988010817383e-01,3.184609175830063754e-01,8.055683193556025801e-01
8.315799386097090462e+01,2.738190736391162318e+03,1.143660968775114497e+03,-7.067849999807123990e-04,5.833197981863988968e-01,-8.122422751240806482e-01
6.157621375575805587e+02,1.510380081810308866e+03,1.472409784904271646e+03,-3.261252517273376950e-01,6.528924151906135842e-01,6.836474342615117550e-01
1.380266830265566114e+03,8.482591225379348998e+02,9.492109509551399924e+02,1.683600078699720726e-01,-9.332780998492311575e-01,3.172489497095799527e-01
1.897688600078857007e+03,2.752705945768775564e+02,2.046240228256305045e+02,6.036993282171789074e-05,9.941033392759607290e-01,1.084368350508961992e-01
2.047372120510008244e+02,1.178353413204165918e+03,1.419287651240093055e+03,-1.665313251410365262e-03,-3.252700720433552850e-01,9.456196946789364732e-01
1.438576381372445894e+03,1.364361432688899185e+03,1.567120029702990450e+03,-3.716865627233364444e-01,7.443150462578419502e-01,-5.548371031258614305e-01
2.957006888412027365e+03,3.629858776649535912e+02,1.843163805497840031e+03,-2.846781628440137601e-01,2.200956411628890441e-01,9.330146045699680979e-01
5.493859579910688353e+02,2.603957434728432872e+03,1.427261001007944969e+03,4.997352446031366399e-03,9.998545684851155579e-01,1.630546987895753822e-02
1.224698145352703023e+03,1.677578851630500196e+02,2.562821242632324356e+03,9.004531889809467282e-01,2.635594498633694327e-01,-3.460064606936719134e-01
2.861111636443932937e+01,2.175933633515930410e+02,1.306614241776998369e+03,-1.412702554574620517e-01,7.259887657478364398e-01,-6.730401376819339365e-01
1.444286905174001959e+03,1.516787134941882186e+03,1.542348094028747937e+03,-7.050471250998133765e-01,5.180189492162855514e-01,4.843190267182815312e-01
8.923648851588325215e+02,5.955086606251375088e+02,1.235602984624539857e+01,-6.752695222400079134e-02,9.971977596367844754e-01,-3.219843006600409813e-02
1.273657555285430590e+03,8.193903574133611301e+02,2.849565133230567881e+03,-2.935517662904297276e-01,5.474269479506087971e-02,-9.543744536995653061e-01
1.616882741752264110e+03,1.502772655839267145e+03,1.587535993564262753e+03,1.580955775259680148e-06,9.994117891236257156e-01,-3.429396095837004832e-02
1.541814771520874956e+03,1.581381968366265710e+03,1.381843407100592003e+03,8.047438930716112326e-03,-9.151050655563435221e-01,-4.031351606096603701e-01
2.903794238506327929e+03,2.502102330359326515e+03,1.317338237524926626e+03,6.105889469309870865e-01,-6.590777998089295542e-01,-4.390872255995715290e-01
2.402476554754839810e+02,1.619905093880799996e+03,1.526326763995521333e+03,1.738685630137817573e-01,-7.585230325941098029e-01,-6.280227160061632175e-01
1.497707023624517660e+03,1.329615341808997073e+03,1.606701795870987553e+03,1.508484653723749673e-05,-4.070890426095208348e-01,9.133884776806149297e-01
8.362978520749220479e+02,5.860932607350100021e+00,1.187744880747574143e+03,-1.136810887468214237e-01,-4.520356565649626401e-01,-8.847261583423542408e-01
1.975422832675769087e+03,1.373649704817162728e+03,1.670913249660882229e+03,-3.737320440283488365e-02,5.574695017622858240e-01,8.293557729934559752e-01
4.851279893838652129e+02,2.792557838973184516e+03,2.681338167848638022e+03,5.718801436797293913e-02,-1.871052677672280784e-01,-9.806738243607823202e-01
1.406522666275790698e+03,1.344292380880623568e+03,1.600671172400689784e+03,-4.065891496314713027e-01,4.138514172088952336e-01,-8.145012387198351522e-01
1.349942197461651858e+03,1.406345052842763607e+03,1.531800185459540671e+03,-4.644124258860895491e-05,-9.888854330233839418e-01,-1.486795150562632561e-01
2.439300576319991706e+03,4.631202777313423553e+02,5.845686172429118415e+02,-7.031085824099456150e-02,8.169538630249502109e-01,-5.724008812903993437e-01
1.745843928242744596e+03,2.168817842856041807e+03,2.464889878553232847e+03,-5.249547519417923080e-01,-3.325400548035741255e-01,7.834791767270954388e-01
2.613607047371463977e+03,1.758156585913487106e+03,1.596015293500799999e+03,-1.609637498285968881e-04,7.647231628452650920e-01,-6.443589514382532801e-01
2.277570178999739255e+03,1.805562925240574259e+03,5.913227052303507207e+02,7.152475438357572823e-01,-2.006618909730291389e-01,-6.694443640423337616e-01
2.890896247872368804e+03,1.727568156359305931e+03,1.573849402048687352e+03,3.697052314640591475e-01,-8.265409247846965402e-01,4.244386192185685136e-01
2.356129333292438588e+01,2.799377732059430400e+03,1.205201529034529358e+03,1.984513418987150432e-02,8.771144746999137709e-01,-4.798712003453431407e-01
1.595206851658736923e+03,1.616870884007050563e+03,1.498357407826715416e+03,4.589776630354514553e-01,-8.857600480373619689e-01,-6.905535558785953765e-02
2.305890653000808015e+03,2.424292151358186857e+03,1.300305967604832631e+03,-9.776361221233248466e-01,-5.567462507457196508e-02,2.028002683491161862e-01
2.446535551901456529e+03,2.529152492293085288e+03,1.146594716555251352e+03,-9.375946191547561703e-01,3.100880539598302454e-01,-1.573585997759678889e-01
3.785041737937028756e+02,8.640936765174513994e+02,1.983257924003287144e+03,-3.925402993291605691e-01,9.025256564996855246e-01,-1.770862862064271348e-01
4.101893807613443528e+02,1.469373964164491099e+03,1.442859426586396467e+03,-4.843592459609014633e-01,-3.608950393540060197e-01,-7.969635446002893975e-01
1.443842700295789655e+03,1.392269663834658786e+03,1.479583240721217862e+03,-1.987440622838990058e-03,-9.993524201519686789e-01,-3.592757181015226314e-02
2.211349529585063010e+03,1.515401920475447696e+03,6.910766976998097562e+02,-3.505687942197328044e-01,-2.292235112037585287e-01,-9.080518170406042255e-01
1.545294863379653520e+02,2.306133264492841136e+03,2.870736743260648382e+03,3.370285412306905232e-02,9.989699591300617021e-01,3.038319238727365743e-02
2.341253804405001119e+03,1.529565014790558052e+03,1.170328900268126290e+03,-7.806403546801582438e-01,-4.204715448090569629e-01,4.623897886531684875e-01
1.251570420711439283e+03,2.799145937912296176e+03,1.015635660770478921e+03,8.792859782433356530e-01,-4.762035153973881441e-01,9.294105004239883172e-03
1.685648191368935159e+03,8.077775536475304534e+02,3.343506532613918694e+02,-8.985501435085065320e-05,8.234921487110433702e-01,-5.673276592387729300e-01
1.513386940234044232e+03,5.125158182588733098e+02,5.121905106655423197e+02,-3.534600418334212235e-01,-4.018045230086795261e-01,-8.447598026166276419e-01
2.679488923788631382e+03,1.141011355774465073e+03,4.414388799606696807e+02,9.994096385174737751e-01,1.448385194921926987e-02,3.115433310288584501e-02
1.921071308453867459e+03,9.035746215568791513e+02,1.831765103012263353e+03,-6.957558664609198376e-03,2.748229354162794180e-02,9.995980771885869531e-01
3.303967737197709198e+02,1.267568133927899908e+03,2.605842191808731513e+03,-9.317586096639359772e-01,-3.438501502602582804e-01,1.165888823307212885e-01
1.529399264244748792e+03,1.549993567259403108e+03,1.458120451338966404e+03,-1.497288558910265244e-01,9.850950157256785911e-01,8.467041812811182400e-02
1.506584174291010186e+03,1.429371327127883433e+03,1.497424064035967604e+03,-3.159509956277136377e-04,-9.953804390425841087e-01,9.600875869607292112e-02
1.292772756803422908e+03,5.138806260768702714e+02,2.626237467630234278e+03,3.299642095236933748e-01,6.121941236968960753e-01,7.185693949399694080e-01
1.428344681447657649e+03,1.418229885347648406e+03,1.511902738159329147e+03,-6.335721147727783886e-02,-5.783575708585485531e-01,-8.133193616190521613e-01
2.614275625761805713e+03,8.999472555003454772e+02,1.709736683243539346e+03,8.718436796242433340e-02,2.589812758136721960e-01,-9.619394912160095235e-01
8.649819447062811832e+02,5.675506169136335757e+02,2.835229104624460433e+03,-9.653931065580226845e-01,-1.970338042659284250e-01,1.708620197315549316e-01
8.936526536210939184e+02,1.270735537867241476e+02,1.683040774365573498e+03,1.487481470856306075e-02,8.824779738968194787e-01,-4.701184589806599590e-01
1.249873237525267314e+03,1.685393908713176870e+03,2.880799892920771072e+03,1.368329545964710459e-01,9.669642262808230138e-01,2.150742374844775151e-01
1.860562221590413174e+03,1.144672723478261560e+03,1.992867841937689036e+03,-7.862813675036016414e-02,-1.911106443901011351e-02,9.967208151369041369e-01
3.994046021171833445e+02,1.069034673006787216e+03,2.668807931056363941e+03,-5.206879953903486014e-01,2.005372862864596428e-01,8.298607161838924551e-01
2.233650695290347812e+03,1.547720287130749057e+03,7.320022993992781721e+02,3.925035695849745099e-01,2.251149058544482662e-01,8.917758838549043610e-01
1.117259642043531187e+02,1.426103061001943502e+02,1.312144864512858476e+03,2.456072447812147831e-04,-9.656968586376641905e-01,2.596719409070387674e-01
1.773469990260167833e+03,6.995969495033500607e+02,3.127008402556665487e+02,1.003757268736338859e-01,5.756430590419479021e-01,8.115169634896229889e-01
1.391672457476080581e+03,2.586235501226228735e+03,6.640964015987775610e+02,-6.478224487667858227e-04,-7.657519570142155008e-01,6.431356938119466848e-01
2.129854680954470950e+03,6.952509278228939138e+01,2.061402014195499817e+02,2.240915778897913102e-01,-1.873181328883357366e-01,-9.563968223546601699e-01
2.226657325829116417e+03,4.076261440018291751e+02,1.495263382165482199e+03,1.237416020173843917e-01,-9.875443422407045313e-01,-9.718121237433452464e-02
1.458711906092952631e+03,1.396615857116022198e+03,1.417549641385589894e+03,2.529361663823061993e-04,4.929813715061691637e-01,-8.700398286119964686e-01
5.495339446606024012e+02,3.570575467507477470e+02,1.334061958697586306e+03,-5.587191487218957052e-03,-9.698623790238668496e-01,2.435893040456635628e-01
8.489509732400550774e+02,1.375676091808090405e+03,4.697340781758920798e+02,5.290935552800842538e-05,3.657117657397637167e-01,9.307281566602055856e-01
8.198317458518878311e+02,4.715261525054998515e+01,1.216059804389710052e+03,-2.498848685894534127e-01,-4.405510403461616042e-01,-8.622484173948632424e-01
1.847355012149743288e+03,1.973543929505724918e+03,2.223145653739697082e+03,-1.241521719649982432e-02,5.021673790337043419e-01,-8.646813203813203952e-01
2.518275431584899252e+03,1.720290184373099692e+03,1.533077269172324122e+03,-8.945386189191285864e-02,-3.483026603923218278e-01,-9.331041010285259230e-01
1.066210110846165207e+03,8.868151801021129188e+01,1.974039232418071379e+03,-3.994373113607886938e-01,-8.178803758814759961e-01,-4.141515725442075357e-01
9.639441653464085675e+02,2.426355263556503814e+03,2.996908585721335498e+02,3.225239850617060422e-01,-1.109120985073894748e-02,9.464963096198332204e-01
1.287305518864678788e+03,2.210519420101792093e+03,8.667557150460325488e+01,5.397204220501100602e-01,-4.980506294907784959e-01,6.787101269952366955e-01
1.946107453083523751e+03,1.929234985321418890e+03,9.202846499479963995e+02,-5.236529447449005392e-01,-4.137477625279150639e-01,-7.447149672613933014e-01
1.790234774966889745e+03,2.943857098656093513e+03,4.318705461389190532e+02,7.998205685197011744e-04,-9.802071095180218130e-01,1.979731869152565049e-01
2.132741448382630551e+03,1.533854658883967659e+02,1.762488825485111192e+03,5.294839615003289479e-01,4.107534703086942462e-01,7.422454588229442374e-01
8.899950563538746451e+01,2.592495065373313992e+02,1.294470816206428481e+03,-1.785584763751982273e-02,-4.070696238813615864e-01,-9.132225851446252873e-01
2.770979961359154586e+01,4.975019854561289776e+02,1.964499902902007534e+03,-5.837306854655105459e-02,6.857130148137924319e-01,7.255275640411185112e-01
7.917185271082062172e+02,2.622277143406144205e+03,9.982878092074764709e+02,-1.017953451830701656e-01,4.241555965966876118e-01,-8.998498416818039303e-01
7.328749177691050818e+02,1.098803677003717667e+03,2.006252262439026708e+03,4.870694689610271383e-02,-7.202739727108561363e-01,6.919776279327107815e-01
1.826582068662725305e+03,6.986128762873040614e+02,3.382454739736776901e+02,-1.305654079912390020e-01,-4.366492048312742846e-01,-8.901068172732400363e-01
9.357288268351014722e+02,2.875411328970108571e+03,2.896659428113692911e+02,-1.856738589393030214e-01,-7.032995262017956994e-01,-6.862178914535218555e-01
2.503800698826433290e+03,1.618658969802808770e+03,4.629640072711932248e+02,8.688687112506020549e-01,3.285953563874574601e-02,-4.939508209602692101e-01
2.313876627144286886e+03,1.401356300263394132e+03,2.279810184357940216e+03,9.767209729982401223e-01,1.953031133739081826e-01,8.872899645453836970e-02
1.518596091736223570e+03,1.453604813661578191e+03,1.436556010897664237e+03,-1.203588343323631626e-01,1.004642398940078750e-02,-9.926796161718945966e-01
4.044209666690966998e+01,2.849365184543269606e+03,1.244346664948585385e+03,-6.152245785825988245e-02,9.643083615759252547e-01,2.575351839532480924e-01
8.363914707174859586e+01,2.793438389845167649e+02,1.212553479997034174e+03,5.902066205261412568e-01,1.046074691581334731e-01,8.004457648607066211e-01
1.457276564505410761e+03,1.532168142100817477e+03,1.507436163937212768e+03,8.030546987314314544e-02,9.916512405253335993e-01,-1.008902803694223110e-01
7.298389941394638925e+01,0.000000000000000000e+00,3.229862471312738421e+02,-1.173713697724823417e-02,-1.898818708815527556e-01,9.817367848492276616e-01
1.489246203983152100e+03,1.460907384643159503e+03,1.491544409756303139e+03,9.956150289475057636e-06,1.925104762301262096e-01,9.812949181782840702e-01
1.530214706169395413e+03,8.808147229269297895e+02,8.135935232569346454e+02,-1.772155715176293722e-01,6.731751787242535867e-01,-7.179344120191266665e-01
8.854265558911749849e+02,3.000000000000000000e+03,3.136909947901746136e+02,-6.173347754268189826e-05,-8.415221522081696159e-01,5.402226055358179124e-01
1.431066803993113126e+03,1.375187139789610001e+03,1.487539535674110311e+03,2.991100597603493227e-01,9.081326811565127999e-01,2.929645124680529400e-01
3.512093181933598629e+01,6.662269623186975309e+01,1.263789467448694040e+03,-1.052125734495247176e-04,-9.537319605232617015e-01,3.006581720272542002e-01
7.326880379560520851e-01,2.768778287632921092e+03,1.194537223390804684e+03,4.464211077972296202e-03,8.950657333670467564e-01,-4.459118789307616182e-01
1.457559330114369232e+03,1.494137488244915403e+03,1.475608119085840599e+03,-1.510728167204696622e-04,3.588670699958895760e-01,9.333886667672633974e-01
2.007754738036413528e+03,1.484071683819048076e+03,0.000000000000000000e+00,2.651833895522899207e-02,-9.995139828879304744e-01,-1.638827967059136928e-02
1.424062921545267955e+02,2.579524263748311341e+02,1.492174753060426156e+03,3.902363535925060245e-02,7.146979124933369176e-01,6.983437905222719122e-01
1.678288872081732507e+03,1.274133633733764981e+01,2.470723608823075210e+03,6.631709100728743200e-01,4.573328452545901701e-01,-5.924955803079519079e-01
8.696561767333186026e+02,8.221009727203220336e+02,1.113970503846445808e+03,7.579861538814887112e-01,-2.249277211129239173e-01,6.122617992320726898e-01
1.145658565039987934e+03,2.194018154021058308e+03,1.695104168140258025e+03,9.269185865039658578e-01,2.889074457264825257e-01,-2.394878322531015791e-01
1.562489380214857420e+03,1.101819941666405384e+03,1.276373119930011853e+03,-4.423644693096196456e-01,5.365495562833043353e-02,-8.952289215775708353e-01
1.469392290226600153e+03,1.544311606614634456e+03,1.492817081004876172e+03,-1.600775381564668171e-02,6.312449076424725414e-02,-9.978772722552269325e-01
2.563260859860577057e+03,1.227180849417504533e+03,2.098788194335255412e+03,1.349240734316299040e-01,9.607384066112694132e-01,2.424401131633446838e-01
2.576306737946948942e+03,1.112234313976227895e+03,4.197205386408031700e+02,-5.316058380565019670e-01,-6.493896346865924984e-01,-5.437723193634060870e-01
1.532916819863456340e+03,1.419585417030534245e+03,1.364391104040831124e+03,2.849183817016434639e-02,-9.864245244156788495e-01,-1.617246820648818306e-01
7.607471676759155343e+02,1.998656070532134379e+02,9.630456424796502688e+02,6.177344092844978540e-01,-5.004887741402668233e-01,-6.065601260761421809e-01
1.448363606521642396e+03,1.439516855163249829e+03,1.463361075163361193e+03,-5.274252086860581118e-04,-1.978700425296190946e-01,-9.802281204352261135e-01
1.799369641096812529e+03,4.037201955039579957e+02,1.528736805656318893e+03,-3.577450284802697333e-01,9.716449944877386669e-02,-9.287505341287940475e-01
4.086279109518617361e+02,9.813255937175290455e+02,2.114285615639939351e+03,1.681659349114914270e-01,1.110772633048924124e-01,-9.794805051209746205e-01
2.406908236290566947e+03,1.115871605116782348e+03,1.581501414486687054e+03,-5.154100755744465134e-01,8.518303044426620563e-01,9.347505779332254683e-02
2.235631631626938542e+02,1.550871825785832016e+03,2.877137882378084214e+03,1.293749629658273448e-01,9.817774056714587694e-01,-1.391949879507539123e-01
2.829844529627193239e+01,2.460277002657774119e+03,1.647488366505010049e+02,5.578932016827733986e-02,-9.822744905626296097e-01,-1.789535608617158491e-01
5.510361423274982684e+00,2.838816509424715150e+03,1.162856023367450462e+03,-1.890836065644819208e-01,1.293421132234194408e-02,9.818758047258508981e-01
3.381433259845321686e+02,8.811008282430530016e+02,1.999839654329791756e+03,1.039887269009579646e-02,-1.331213460836703577e-03,9.999450441486756880e-01
1.089900110104672876e+03,8.073507019398562079e+02,2.435670720607688793e+02,-8.940217195145299112e-01,-1.183764095801442678e-01,4.321020605032996897e-01
1.667580497902097022e+03,2.975379219813763498e+01,2.160045034278511139e+03,-1.497631994579485815e-01,5.154167422937362408e-01,-8.437514834662105390e-01
0.000000000000000000e+00,2.490815319696694985e+02,1.290767012400862541e+03,2.944029014291942303e-01,5.637373474121135652e-01,-7.717040460972239835e-01
2.231501580643126488e+02,2.832966254269619640e+03,2.885752989240220359e+03,-4.153536115221168057e-02,-2.871783639396805615e-02,9.987242360365572447e-01
2.764626074780986073e+03,2.919311117496629322e+03,8.904574471247141219e+02,6.050420197530196331e-01,1.406646751031730147e-01,7.836693202565132577e-01
0.000000000000000000e+00,1.644794714639378412e+02,1.134783011991005196e+03,-2.176516417346378504e-02,-7.688531970356510259e-01,6.390548012780755682e-01
1.244960071858385845e+03,2.719939564609141598e+03,3.559176415393381490e+02,5.865631735609410091e-01,7.742903303260401104e-01,-2.375250045483830175e-01
0.000000000000000000e+00,1.334421875361583432e+02,1.347380038493654411e+03,-2.576975525896441424e-02,3.798760738377474633e-01,9.246783701587873994e-01
1.733084654208475968e+03,1.195285800401307142e+03,1.091400249788600149e+03,3.341133924432486690e-01,4.890574925433130993e-01,-8.057239043104722498e-01
1.563095850608372757e+03,8.959919162750113628e+02,2.691793160028182683e+03,-1.907180226888753605e-02,7.377946736804606997e-01,-6.747557230931494621e-01
1.387680033688573758e+03,2.625646085363132443e+03,2.150899946883559551e+03,8.254453149681614255e-01,7.583667485164729237e-03,-5.644311472487917314e-01
7.667940002246820086e+02,6.553705782859603914e+02,2.509942362846401011e+03,-2.896440552467758889e-01,-3.639116957214660886e-01,-8.852539742793192890e-01
6.762231120594823324e+02,1.286584059453438158e+03,2.149752897660615417e+03,5.970108816701300558e-01,7.933043438218737586e-01,1.193575520895111541e-01
4.540631947903649461e+02,1.818521118605380252e+03,3.781743452000605430e+02,8.660276630519569974e-01,5.372428745852521337e-02,-4.971013858015684850e-01
2.616313772418297958e+03,2.435857803323209282e+03,5.246960918947373784e+02,-4.469834606235796870e-01,-5.494274353790965515e-01,-7.059286643717747056e-01
1.138043839670456691e+03,1.310464739050039043e+03,3.105721614740234031e+02,4.092348250797065573e-02,7.417927035137203973e-01,6.693794541164417300e-01
2.679684347385998535e+03,2.233458460736524557e+03,6.166639742496211056e+02,4.039787687932252375e-02,-7.371032496295807368e-01,6.745715758384391858e-01
1.818631466523668678e+03,7.353198461540616790e+02,2.474233081251729232e+02,2.296919651068714697e-03,-8.171958523669093921e-01,5.763555005675203846e-01
2.352359896541207945e+03,3.663828398127122199e+01,6.111369612040030006e+02,7.282614942394571855e-02,9.710714039117489538e-01,2.274130173603657046e-01
1.372095246722159345e+03,1.323694918005812724e+03,1.529495518266618774e+03,-6.817994332084967302e-02,7.517029293601085183e-01,6.559681404765002055e-01
1.868626014528820406e+03,7.125423383328685532e+02,2.664034853309667028e+02,-7.414456688760221424e-03,-3.544714675431927531e-01,-9.350374348280318104e-01
1.416420886562590795e+03,2.464802939543676075e+03,7.558180004455122116e+02,1.894275987739998252e-02,-9.928933320678132723e-01,-1.174904378385845521e-01
2.277300021753957481e+03,9.067600928831311649e+02,1.434108996732770720e+03,5.143208528059745044e-03,2.471168733248279015e-01,-9.689720317554052498e-01
8.449817668284277943e+02,4.476180899686325176e+01,2.215522720661306721e+03,-7.954533551569512584e-01,5.983973286099821820e-01,9.578411602132354263e-02
7.868227740513167419e+02,2.652601702498694976e+03,1.002601535053606995e+03,-7.454757429079272857e-02,4.728869361202829302e-01,-8.779638972156715848e-01
8.298015256065157246e+02,5.998843610071120338e+02,3.758821907497778625e+01,8.883514064815595246e-01,-3.582031980004039134e-02,-4.577648777392798185e-01
1.896754354637923143e+03,2.236733005006747135e+02,1.891217291062856134e+02,8.879168885461827924e-06,2.534695988906219277e-01,-9.673433528791044456e-01
2.521321877797066008e+03,2.235256585522851310e+03,2.587792143453550125e+03,9.249162378548167474e-02,4.136370382826784486e-01,9.057315828048941864e-01
2.599655021123327970e+03,8.488958137165038806e+02,9.575246678989922202e+02,-5.519543070583938782e-01,3.249314454120307283e-01,7.679622378099959512e-01
1.122425305158266156e+03,1.288018241597340818e+02,2.213444367630226225e+03,-8.817833219935878875e-01,2.745575064169841206e-01,3.835053438011526983e-01
2.947343966852783979e+03,1.611047610473356144e+02,4.933258864271737707e+02,3.110121768357240191e-01,5.961869812059499285e-01,-7.401570842060762878e-01
1.594072030781284184e+03,1.562259927014095410e+03,1.458739653966677906e+03,-2.551515035000091747e-02,3.543647981337948866e-02,9.990461615966765851e-01
2.917491895185089106e+03,3.301483657935829683e+02,1.205836084669170532e+03,-6.995302485453092078e-02,9.545186929066311610e-01,-2.898286376559736643e-01
2.066490399209627412e+03,1.334809067780185842e+03,9.134241690546622294e+02,-4.175946024709360493e-01,4.352478916975740519e-01,-7.976051784936941669e-01
2.049105945187397538e+03,1.210348057901923795e+02,1.784726813514020705e+03,-7.451735138274837023e-02,7.403272497892872117e-01,-6.681038299264048241e-01
6.146633049461130440e+02,2.719642066259117200e+03,4.388668695885756961e+02,-3.129674920982151720e-01,-5.214556636999014838e-01,7.938106447289863254e-01
8.254781964397311356e+01,2.755139232948031349e+03,1.194105555329606432e+03,3.248697993239780812e-01,3.027901974902315052e-01,-8.959786324411005420e-01
1.118990646382967725e+03,2.474633869283189597e+03,5.421064799618673078e+02,-7.651869363602292751e-01,-3.587292793243059830e-01,5.346047667007005622e-01
2.061818599816981987e+03,1.500751770554874838e+03,0.000000000000000000e+00,-3.506883324218916520e-02,9.991550102682239531e-01,2.143460731939819675e-02
2.020688454971617375e+03,1.405115487180802575e+03,1.600397752143657499e+03,-9.843455169484068359e-03,-9.569278868598127819e-01,2.901587940082803740e-01
1.332241104431883969e+03,1.025036525670967876e+03,2.067957179674399413e+03,-1.906718669317543913e-01,9.797358769503983211e-01,6.133392680232771510e-02
2.195827645685903917e+03,2.275922751378586781e+03,2.312543106396934945e+03,-1.850081949009348414e-01,-8.164065988320375888e-01,5.470395170396762374e-01
7.150788960197385791e+01,2.852994232420207936e+03,1.040032871158215812e+03,-5.732920973706462364e-02,2.192235970889978847e-01,9.739888994184093818e-01
2.055813439378268868e+03,1.964559890224610967e+02,1.765292508153718472e+03,3.890146424670024028e-02,-5.520514006122061446e-01,8.329021113921876163e-01
1.475781063419125758e+03,1.337478084856632449e+03,1.678404842100294672e+03,-2.974530297943333013e-01,-1.823069934053573593e-01,9.371690643750840710e-01
1.453992808329565833e+03,1.356305704029975459e+03,1.600292600496657769e+03,-4.525420069311229809e-02,9.008162077505761367e-01,-4.318358683267273790e-01
2.057149266894511584e+03,7.957267266462184807e+02,1.120305552116980834e+03,2.711239132616785879e-03,9.335212847355548460e-01,-3.585117294148754130e-01
1.490730428228927849e+03,1.516841013958376834e+03,1.449136006980333832e+03,-5.273707778521023737e-02,8.423285842129900614e-01,5.363779980987440910e-01
1.722723820292527307e+03,8.280749783631536047e+02,3.330162916558886081e+02,-7.258625253346511299e-05,5.950520892032769016e-01,-8.036871318280836007e-01
9.315473104120711696e+02,2.931195444602232783e+03,3.793252522785244309e+02,-2.367326185867672274e-03,-4.786498694383153896e-01,-8.780026755388694593e-01
6.468405413827273378e+02,1.739064896637956053e+03,9.406246564033151571e+02,4.372909471115189045e-02,-2.669330197777786129e-01,9.627224570082798527e-01
1.493497658436725260e+03,1.422956365177721409e+03,1.455042151787491548e+03,1.256847896839083205e-03,-9.989668621547446170e-01,-4.542717964025246719e-02
1.081364839134423164e+03,8.476970494405227328e+02,7.599978691022279236e+02,-1.119286484513584007e-01,4.367396403432251967e-02,9.927560438100495599e-01
3.318563955637006302e+01,1.318059064667919529e+02,1.311681423023067055e+03,-8.285117795684899308e-04,-2.140077591231392684e-01,-9.768316091340019103e-01
4.992736410044856825e+02,1.800865493174247263e+02,1.591922953013298184e+03,1.626353052530045695e-01,6.980387166567895152e-01,-6.973461891581571592e-01
1.459015080379573419e+03,1.363495217057308309e+03,1.523912213286464066e+03,8.230416227950050276e-03,-3.178465889913719145e-01,-9.481064318499610177e-01
1.550691870863050326e+03,1.447359087107579171e+03,1.575224433320271373e+03,-2.139635222316132488e-06,9.624153982118812678e-01,2.715816659498354046e-01
1.339645908964832643e+03,1.665368702325319418e+03,1.515125880308655951e+03,-3.717239110743772554e-04,9.341516524559291268e-01,3.568761017989168782e-01
1.450779335534050915e+03,1.404292721979463295e+03,1.575322025752082709e+03,9.816818293422881203e-02,-3.125503123947816903e-02,9.946789084330737163e-01
1.097364634951150492e+03,1.111793347562613008e+03,1.934149953230640449e+03,4.205696689112105036e-01,8.687007637278648664e-02,-9.030917691037279038e-01
3.434328472761285411e+02,1.230100548750469216e+03,2.855281789815076081e+03,-9.249698725509625241e-01,3.800127575701073845e-01,-4.586824284728008294e-03
1.444837336055681590e+03,1.211574584510626437e+03,8.861204682829037438e+02,-6.435510013240920051e-04,3.583017503212959642e-01,9.336056135000497802e-01
1.494709704257955309e+03,2.610169776745704439e+03,6.751895996060070502e+02,-1.203946663540752804e-01,9.388681940434784323e-01,-3.225393596555746756e-01
1.488164508523702580e+03,1.458737391595497456e+03,1.548176338990407430e+03,5.529593675774386908e-05,-3.169089814389152715e-01,9.484559528126272898e-01
1.445120395332419321e+03,2.491794308127633030e+03,2.209290702770223561e+03,5.844861560959198066e-01,-7.453073377984313908e-01,3.207692403520497337e-01
2.575749449661981089e+03,1.896168494692813738e+03,1.356095851467765669e+03,8.125206088851427699e-02,9.937355648014022380e-01,7.673154403638296484e-02
2.167946425664054004e+03,1.499815125691993671e+03,6.869221047477623188e+02,1.944012518553122140e-02,-9.553815198627285676e-01,2.947341735149719422e-01
1.791820966843814631e+03,1.036555691608803500e+03,1.072640364857865734e+03,8.360080101853450962e-02,2.640568019222639951e-01,-9.608771573034950997e-01
1.584060996362426863e+02,1.418256247316839165e+02,3.486046058141854473e+02,1.374258832467259439e-01,-8.714450700759555080e-01,4.708477635650085147e-01
1.485036304024643641e+03,1.426005342611377273e+03,1.593833289690669744e+03,-2.695875989518047716e-03,-5.485804468682826951e-02,-9.984905243345011394e-01
1.357866123156563617e+03,1.437408216731361108e+03,1.432556325042041180e+03,5.456583454266955568e-01,7.156835852248479846e-01,-4.359518045677857057e-01
1.561270224607197861e+03,1.379506627282141153e+03,1.502585467616665710e+03,-8.469107974323269658e-03,-1.114063626514575911e-01,-9.937388472686832230e-01
3.178921108286649542e+02,8.346142632173848597e+02,2.041673672207877416e+03,4.728717915228566882e-03,-3.911229313611167546e-01,-9.203262963701326349e-01
1.377000093124013802e+03,1.477804031298871905e+03,1.579414866893467206e+03,3.022323695884508157e-04,1.518279583421731083e-01,9.884068897580804425e-01
1.338610465509830192e+03,1.269197099346988807e+03,8.812547714912413994e+02,7.350033369112791077e-06,3.177862852398959936e-01,9.481623684050134448e-01
1.409507102993020453e+03,1.596487525898922740e+03,1.437687225493482174e+03,2.557161426062540651e-05,-3.627858064166115115e-01,9.318725545957137202e-01
2.306048332564194425e+03,1.915355308527116676e+03,5.047765661395599182e+02,-5.138412037859088066e-01,7.931749889446910728e-01,-3.268648867719464168e-01
2.086135048665333215e+03,4.366442477616039355e+02,7.504285013586338664e+02,1.834235570491761780e-01,6.290662964897268949e-01,7.554014782485711788e-01
2.443106366593347332e+02,1.689506261294430715e+03,6.523715772596664237e+02,-1.642885155080964221e-01,-1.243864773728726864e-01,9.785383425900662235e-01
3.297973360307973678e+01,2.863894595440209741e+03,1.280426853424863111e+03,6.927918700980812382e-03,-2.152057362515696903e-02,-9.997444017614286471e-01
2.082404458795676874e+03,7.077670106676735031e+02,1.196149333383554222e+03,-1.031521132278067146e-02,4.183406516098182593e-01,9.082316310424554118e-01
1.385167061463724849e+03,1.374945754407312506e+03,1.537524644812739552e+03,3.530588460517082995e-04,-9.847608245637556879e-01,-1.739137537803248368e-01
5.106601572988549833e+02,1.600242856048462272e+03,1.450625672791442639e+03,-6.199762127637452325e-02,2.192785338607345855e-02,-9.978353893313015588e-01
2.055526461842280241e+03,6.748006346641311666e+02,1.231269645560388653e+03,5.191972408096189734e-02,-4.177986477277061961e-01,-9.070549223769511782e-01
2.854322334510833116e+03,2.196073812251047002e+03,2.090691999282856159e+03,-5.333061379973546602e-03,-5.865901399265721627e-01,-8.098663878673085792e-01
8.633165888388785447e+01,1.536171606006651018e+02,1.351633916417329374e+03,-3.996942812391904363e-05,4.133651546671160415e-01,9.105653448871618982e-01
1.516959035889616416e+03,1.422428415995727164e+03,1.492515259527722492e+03,-9.387121925422989843e-01,8.621534057840356258e-02,3.337459132654356786e-01
2.420364825347067139e+01,5.999335734575192447e+01,1.276987641065268917e+03,-1.972143586549730647e-03,-3.923806595668464237e-01,-9.198008092231495514e-01
7.916329206694183540e+02,1.502069034985179542e+03,3.934970103620123609e+02,-1.370396132169331149e-01,-9.777795038232626190e-01,-1.586423219462194112e-01
4.649600303573937481e+02,1.311327392393688115e+03,2.430360733089218229e+03,-7.471834970436390666e-01,4.144205188479762048e-01,5.195887366979892175e-01
1.457616692322885910e+03,1.506498924187759258e+03,1.518682393465550149e+03,-2.425201075570533604e-01,3.027751040272537442e-02,-9.696737955592737990e-01
1.294685368222218926e+02,1.581175485850016855e+02,1.495037132808138267e+03,-1.581503606481220441e-03,7.195003473113561476e-01,-6.944902800365031492e-01
1.427783494059833856e+03,1.333293202786977190e+03,1.411567060861444816e+03,2.032363935125647970e-06,1.334204484434516891e-01,-9.910595259281945735e-01
1.474641265306082005e+03,1.323153335632961671e+03,1.451992962700117687e+03,-1.874163595884260555e-02,-4.558449746761581434e-01,8.898618489091882910e-01
1.743019297196556408e+03,7.131379248991045188e+02,2.038091430219990912e+02,-1.573988524755401686e-01,8.627779410855468400e-01,-4.804579332424097071e-01
6.567883733001443147e+01,2.848009529083709822e+03,1.180432132779820677e+03,-1.561813136908586294e-02,7.124366925808913731e-01,-7.015625653047192767e-01
