x,y,z,nx,ny,nz
2.180332564526935130e+03,6.960260563723223868e+02,8.832997473277764584e+02,2.168226736267210228e-02,6.373435627947565685e-02,9.977313321288725501e-01
2.518109068514651426e+03,1.145351833949343018e+03,4.926593123386019215e+02,1.100040905980443628e-01,-9.939203454786147418e-01,-4.631079287616947371e-03
2.683911599626828774e+03,1.899671134423896035e+02,1.316369272460254479e+03,7.703149024200980910e-02,9.308420564221768778e-01,3.572103239085178683e-01
7.523167479765581902e+02,1.134211684884502915e+02,2.565638778623026610e+03,-3.623252223489652874e-04,-9.615149424798623556e-01,-2.747524051002651624e-01
1.521637807423026743e+03,1.414719294897004602e+03,1.528353057273849345e+03,-1.127166771208498107e-04,2.107669128214154086e-01,9.775363398639871360e-01
1.559087843866070386e+02,1.507140660176342863e+03,4.021166823350526442e+02,-2.070215285070921285e-01,3.237353485511302309e-01,-9.232212686204024354e-01
2.961564225479141896e+03,1.073440084525802149e+03,1.742838856483726033e+02,9.270888486912642890e-01,3.412549633881042932e-01,1.550848690081971515e-01
9.842398730385540375e+02,2.389537637920175712e+03,0.000000000000000000e+00,6.766604426612261580e-01,-6.072539482444830883e-01,-4.163811807454803060e-01
2.552623308895753780e+03,1.314223870734637785e+03,2.513201214184938635e+03,-1.802906839645698756e-02,9.818399045683304238e-02,9.950049531086407884e-01
5.974329866011553349e+02,5.909155153700221490e+02,2.003266002767196596e+03,1.185772629059735756e-04,7.497787262341182313e-01,6.616886334418748961e-01
2.943987016494622821e+03,1.888492367084034413e+03,2.139205105324691431e+03,6.030764685258958174e-03,1.613232170976113822e-01,-9.868831995239295551e-01
8.089319161099959956e+02,8.352454969497068760e+01,2.510010104243529440e+03,9.528787405462105231e-02,9.887004338489617794e-01,1.157223969896293142e-01
4.252516418756935224e+01,8.663165800058877721e+02,6.409357368142568703e+02,-2.248867715566807146e-01,2.061673349303011216e-01,-9.523239837295658372e-01
3.373100399650626287e+02,2.460093503099527425e+03,2.680361893566149547e+02,-5.283535983100192193e-03,2.234935774884902471e-02,-9.997362604485892090e-01
1.448380006542887713e+03,1.455100019348195246e+03,1.378979349336361793e+03,1.371453442107217202e-01,9.893413039428716749e-01,4.893811269287980797e-02
1.538570021061566194e+03,1.505117884978806387e+03,1.556787228167161402e+03,-1.392077729767796784e-03,5.435978394734743147e-02,9.985204434606194113e-01
2.244028285015162965e+03,3.990999618417773718e+02,2.560944244338891167e+03,3.235881840852465260e-03,-9.680903727079115395e-01,2.505804448455009603e-01
1.507421752034940710e+03,1.741076965756873278e+03,2.035698564162044022e+03,5.788609356091442004e-01,-1.368907706837887428e-01,-8.038538014634905027e-01
2.515868746076165735e+03,7.033465141302739312e+02,1.298166336230198567e+03,4.341886492372308282e-01,-6.615775006968238614e-02,-8.983893192704744957e-01
1.586519101795396864e+03,6.895876967166750546e+02,8.099069702389798522e+02,2.162910932890256821e-01,2.539542205934764429e-01,-9.427223434323586115e-01
2.402610365690586150e+03,1.411267435040546616e+03,2.273233277359647673e+03,-2.511856629634500182e-01,-5.226293178914133142e-01,8.147173490247818783e-01
5.743408110494625873e+01,2.706553193560388081e+03,2.039025084180355634e+03,9.827074570869100134e-03,9.999498330451340733e-01,-1.939071527063739768e-03
2.853168672137341218e+03,2.010504197053263340e+02,1.987916005726148114e+02,-3.642169850039665008e-02,5.016552777989463641e-02,-9.980765900976291682e-01
5.120143277666822996e+02,1.168685807697487007e+03,2.525324155113066354e+03,-6.124714832727461145e-02,5.584340501373120658e-01,8.272848351499106911e-01
8.557295151767572179e+02,1.591038419619476940e+02,2.495642112706217176e+03,-4.833971523995635568e-04,6.410237121998657583e-01,-7.675209226625009373e-01
1.045338819930820364e+03,9.958191433382999094e+02,1.370894988573571027e+03,1.121543980202557161e-01,8.602828673610891652e-01,-4.973276376089477147e-01
1.748650501908023216e+03,2.426934039726809715e+03,6.849472413493633667e+02,-7.831407722658955128e-01,6.194894331258489206e-01,-5.406822597599612173e-02
1.519538647493349572e+03,1.344856817160432911e+03,9.314324157474956110e+02,-8.573993916295383766e-01,-4.262373778232564914e-01,-2.884232670566855838e-01
2.222999807733152466e+03,2.273191100477049986e+03,1.695804088098662305e+03,5.803258012196408355e-01,-5.808516723384212765e-01,-5.708180964023840120e-01
7.679856556065504947e+02,1.851653463291200410e+02,2.516173573232426406e+03,-1.062888804741988179e-02,3.230707582743430617e-01,-9.463151229304731515e-01
2.706034263122221546e+03,1.050784873328187132e+03,3.090334824593286953e+02,-1.310537387922254271e-01,7.390168404475325747e-01,6.608169391620687394e-01
1.495715937958233098e+03,1.501063565333704901e+03,1.497424169666101534e+03,-9.748756915409318990e-01,1.796622182642411136e-01,-1.316771558432292544e-01
1.207196924197919543e+03,2.280317408437269933e+03,7.338725518370159762e+01,-6.924649732249708034e-01,2.783132499739078836e-01,6.656079895445229377e-01
2.207326840119279041e+03,5.533749918279636404e+02,5.209573791702586050e+02,1.973912223057264215e-01,-9.694360945470950064e-01,1.457064306951734167e-01
6.656061971416355618e+02,3.865371004600808078e+02,2.407074063640340682e+03,-8.384051377905166191e-01,-1.743230494257341223e-01,-5.164187248400061714e-01
2.316831088428295061e+03,6.308649831520912130e+02,1.985566630653953098e+03,-8.935635787397743293e-03,8.171263893326946581e-01,5.763892940272127285e-01
2.515114553814036299e+03,1.162651342151466451e+03,4.831920055206652478e+02,2.284222302132770332e-04,2.796216774545798311e-01,-9.601102360254116785e-01
1.559129500874492578e+03,1.390232960764339396e+03,1.594858362604110653e+03,-7.152924992970520219e-04,9.922176216625772094e-01,-1.245137728080685097e-01
5.797593282422956236e+02,2.551089745761161794e+03,1.607375977081416522e+03,-1.378383475911843089e-03,-7.798837652370966822e-01,6.259228489028040299e-01
2.853411046961123702e+03,1.955077815438424977e+03,7.400929810028277416e+02,-2.850316652434855581e-04,9.822595077463815993e-01,-1.875264733278635410e-01
2.541510539642066760e+03,1.200314057516254252e+03,3.690318566309680932e+02,1.139645783085406174e-04,9.901349171578998076e-01,1.401172110655713454e-01
7.846281921624479310e+02,2.155381121439217793e+02,2.679334947353550888e+03,9.891297835646679637e-01,-1.220720639604213620e-01,-8.197976863687779503e-02
9.384575191741565732e+02,1.848162740846099155e+02,2.573402621942474980e+03,-7.764013383870912999e-02,-4.387632248752494357e-01,8.952423370878851427e-01
1.621390959173741976e+03,1.555642256948217664e+03,1.640279093663715003e+03,3.302406963443291183e-07,1.018973545911256995e-01,-9.947949181249476913e-01
2.197513972462687434e+03,2.936735092291512956e+03,1.553782115061893592e+03,-5.922248862635676181e-01,6.290079166785927933e-02,8.033138704750846237e-01
4.925825298563846104e+02,1.054602744327469708e+02,6.969170332262513057e+02,9.290649520196974098e-01,2.663810792711419073e-01,-2.566698960434958821e-01
1.501665864919436444e+03,1.394904597414216369e+03,1.479807740809975485e+03,3.063271232254245031e-05,8.834652281972966703e-01,-4.684967338498055023e-01
6.991972576555691603e+02,3.103289188970267531e+01,2.595257429081775172e+03,1.613382161303466081e-02,9.995026629740245694e-01,-2.709476901529991530e-02
2.481547179280205000e+03,1.164588907097400806e+03,4.093658593142802147e+02,2.073368362618953353e-01,5.868998765551009661e-02,9.765075123509824317e-01
7.674422318932666940e+02,6.050866004606049131e+01,2.537608124576308910e+03,1.913595918904778537e-02,9.833606208791465519e-01,-1.806535479034236391e-01
2.023217672725681950e+03,9.680449940258404240e+02,1.078575830704946156e+03,3.171417800729601777e-01,6.365191523492347292e-01,7.030394441457507027e-01
5.199111494008080854e+02,1.039508958974680809e+03,1.833054821225721980e+03,5.942730574638896979e-01,-6.353487644515032340e-01,-4.931242041133945264e-01
2.649415824468209735e+02,2.009880916825390614e+03,1.217163085036771236e+03,4.677277897127222195e-01,-7.779296241289144209e-01,-4.195905321061209059e-01
2.827672393432188528e+03,2.111348323718408210e+03,7.633883273711815036e+02,-2.087015127402017667e-01,-9.779785283145008279e-01,-1.294888317439535710e-03
6.193162803474494922e+02,2.541078842788046586e+03,1.579453000185799965e+03,1.207537695227778318e-01,7.741776939012620096e-01,-6.213432428310166067e-01
1.403240621224904089e+03,1.426757966351963432e+03,1.516653503452068890e+03,1.051551516017053484e-03,-8.742747124615078691e-02,9.961703325791793073e-01
2.127201291833541745e+03,2.567685388294675249e+03,2.297562986052066208e+03,-9.710836813707843795e-01,2.346366135212099302e-01,-4.406975573636986304e-02
1.596087320945838883e+03,1.552374975740136506e+03,1.561358229814804190e+03,1.132527675394398858e-01,-9.897269416484939519e-01,-8.726048143218140263e-02
1.975337124836249814e+03,3.916148232522177182e+02,2.081456882236018828e+03,-6.482227423540802835e-01,7.609892595659928372e-01,-2.650703906809993501e-02
7.098715667002311420e+02,0.000000000000000000e+00,2.625474836254755701e+03,6.234826570703585480e-01,7.125606094464649320e-01,3.217557368529245232e-01
2.198260452703747887e+03,6.975938435852261819e+02,9.386150569954938874e+02,4.238856744064978081e-03,9.911691252200429680e-01,1.325360226656814300e-01
1.650689988424780722e+03,8.440901646460793017e+02,2.260910395086919380e+03,3.605519465281634695e-01,4.321725857061474718e-01,-8.265767659563236780e-01
9.562976869741437440e+02,1.075376279186328702e+03,1.722993227992327093e+03,3.715335901704259203e-01,-5.439575893460210088e-01,7.523781844045850375e-01
8.856466399406258461e+02,1.639251313729000685e+02,2.597741862502549338e+03,3.341693307713516507e-07,-9.986098993511278721e-01,-5.270928682707244628e-02
2.243579799147559243e+03,5.305348761816438810e+02,5.694953005368361119e+02,8.675377479509037426e-02,3.538847460726120275e-02,9.956010438040800992e-01
2.410849954500635704e+03,1.230879655751857854e+03,3.961354116670242433e+02,5.055313863727688428e-01,-2.277330510172544467e-02,-8.625076196572236675e-01
2.171378035085707324e+03,8.643903966564922712e+02,7.610527589653436280e+02,-5.003449931226182645e-01,3.563762207731387410e-01,-7.890823006027838371e-01
2.569515641431632957e+03,1.292015870163262662e+03,2.510110177761386694e+03,-3.769890536050912039e-02,-2.136205602542862354e-03,9.992868602960028879e-01
2.495793581356281265e+03,1.414770792209203307e+02,2.361901978229783253e+03,6.914106426400542516e-01,1.789340783221085862e-01,6.999527975935839752e-01
1.384325533560693202e+03,1.467587804297704679e+03,1.524926299431944472e+03,1.178006761929794276e-02,-9.971083901767533453e-01,-7.507388524652344741e-02
1.006219809905311422e+02,2.444823927558146806e+03,9.911209054869337365e+01,-9.351747341134067706e-04,-5.598954713492960700e-01,8.285627234016542664e-01
2.932133720659129722e+03,2.083635549941083809e+03,7.965028153276043668e+02,-1.626143608403880780e-02,-6.663254826047640411e-02,-9.976450617372895069e-01
1.607641141926840874e+03,1.502767077248171972e+03,1.504408494760853046e+03,-7.471051599906923003e-03,5.650178261215541564e-01,8.250448712360223258e-01
1.692501528846829046e+02,1.634163571811299335e+03,2.138744501536693861e+03,9.815553282360034437e-01,-1.612099928468282706e-01,-1.027641757512664372e-01
9.419220499746546693e+02,1.919227181705804810e+02,2.645897566570131858e+03,-8.735219231217857590e-04,7.046300490983916642e-01,-7.095743307554521762e-01
1.450827731447795486e+03,9.063390423055959673e+02,1.731901746890947152e+03,-7.703923586140366819e-03,-4.779792868816152285e-01,-8.783373218038280639e-01
8.636144319812706271e+02,3.000000000000000000e+03,6.526249559537043865e+01,1.096557779420562484e-01,1.777527310342447500e-02,-9.938106711190121123e-01
8.068321345360770920e+02,8.421745042136922166e+01,2.562820664250953087e+03,-1.823224203322355505e-04,-9.564628049533221432e-01,2.918541921908237025e-01
1.426953571577270623e+03,1.406036324559203422e+03,1.453507786116914986e+03,-1.799722461456577244e-02,9.983901061060646009e-01,-5.378936638122738118e-02
1.595927427011337159e+03,1.562883223346198065e+03,1.647451235495079573e+03,2.400893226414702834e-07,1.347263508024680312e-01,-9.908828439323150716e-01
2.365420412909227252e+03,1.346930624423849849e+03,2.319409499374546613e+03,-6.965044168901053379e-01,-3.874355772352552352e-01,6.039662827881693286e-01
1.670648753139445262e+03,1.240477431105930918e+03,3.270149982320062918e+02,8.418991763757453783e-03,7.822669250283711406e-01,6.228864893255741109e-01
1.527072075613487868e+03,1.028904585041837208e+03,4.451593051036194311e+02,-2.391801812732679555e-01,8.333706156547802113e-01,4.982833108275445122e-01
3.061252590378570062e+02,2.100747860183530975e+03,1.648040808159114931e+03,-2.172123874971436663e-01,-8.574605996445118228e-01,-4.664548196503761623e-01
2.508757061526609050e+03,4.659337652264394478e+02,1.071216221187250540e+03,2.543293118907105632e-02,-5.473694911520498030e-01,8.365045165252116277e-01
2.269934614528011025e+03,3.758520592529728219e+02,1.961536135930385171e+03,1.647922112695718658e-02,-6.127959369734946593e-01,-7.900693481586446021e-01
2.658012253126346423e+02,1.627953913156506815e+03,3.646429965760466416e+02,-2.407796962246419592e-02,9.551862792792760182e-01,2.950244451828908931e-01
1.992478823826143980e+03,3.645938842039997212e+02,2.064049953618639393e+03,2.588581389160488633e-01,9.211275098970920228e-01,-2.907173445594575245e-01
7.687832931689009683e+02,2.103700029534693385e+02,2.657780546287945072e+03,4.219062191937576062e-03,2.749995310765571688e-01,9.614351030734702430e-01
1.550288567367313590e+03,8.453797716715505430e+02,6.493926365017882745e+02,-1.546890086633074257e-01,-3.812019110675315403e-01,9.114583992685705294e-01
1.511766782287995056e+03,1.407724265527567695e+03,1.579533195593346818e+03,-6.167423366352551379e-04,7.632973698765838089e-01,6.460470143637998541e-01
2.089307581458110235e+03,2.581929526457546672e+03,2.263969410903129756e+03,1.554698282228328121e-01,-2.668212589459136377e-02,-9.874802259640990121e-01
7.443066890903344301e+02,2.184091798102848827e+02,2.511238788173488501e+03,1.666391637432901687e-04,-2.583055272712552197e-01,9.660632623242164652e-01
1.632176270585503971e+03,1.466545398288635624e+03,1.514611345433653696e+03,5.161202451788503287e-02,-7.832194337784530169e-02,-9.955912173732163195e-01
9.469204354790774687e+02,1.094956852579301540e+03,1.636101944476547715e+03,-7.620695123016468786e-01,-5.345587757362590953e-01,3.653723767660630450e-01
2.084924413488146001e+03,2.507562263871357118e+03,2.372907929518893525e+03,1.159718871660650602e-01,-4.381393783524600849e-02,9.922856747119302989e-01
2.483292069239384546e+03,1.145776964342648398e+03,4.692638258723964668e+02,-3.820864676978437922e-04,1.752608014653214696e-01,-9.845219680025756315e-01
2.763266413414833096e+03,2.033565946034415674e+03,7.134876613723664605e+02,1.310732171264259718e-03,-9.921999573240906090e-01,-1.246496155920594068e-01
2.247854852829809261e+03,4.440080645894508962e+02,2.581450120393876205e+03,3.484149767573486837e-04,1.448884254770853031e-01,9.894479383826998431e-01
9.578867256095585390e+02,1.117447152296521153e+03,1.770288687111793934e+03,4.629565586285855905e-01,-5.193273616069132848e-01,7.183107379882187615e-01
2.636585923809879205e+03,4.176791986638264120e+02,7.323796226059911305e+02,1.092161131133191354e-01,9.632667844364072307e-01,2.453343486712838140e-01
2.336225145916011115e+03,2.719086655161414456e+03,2.758362978267040035e+03,-8.282870009099511099e-01,2.917738805614113543e-02,5.595438536431438514e-01
7.882715366239373225e+02,6.688669417631959959e+02,2.273376290272029564e+03,-5.403892916755773657e-01,1.150852843878499565e-01,-8.335075229173012357e-01
2.342037830614461654e+03,4.645928493437819498e+02,1.904502832879203879e+03,4.806761731112595484e-03,-6.206701747868264007e-01,-7.840570318361738122e-01
7.717795433246893708e+02,1.495940732116503682e+02,2.603597366777229126e+03,2.489527445716395167e-04,4.814788702723158398e-01,-8.764576632694960345e-01
1.521808867643914255e+03,1.455114041154348342e+03,1.534261961406758246e+03,6.648333420962662665e-02,9.974536990949168791e-01,2.580861162941808229e-02
2.246503307830944777e+03,6.122066186891876214e+02,5.570352172620248439e+02,8.552277451071250503e-04,1.475292121517144395e-01,9.890573290499385939e-01
5.206734582530869915e+01,2.903161403431498911e+03,4.467188681292024057e+02,-1.025353590870291126e-01,9.106648487094173294e-01,4.002199813376988713e-01
1.919229934338860176e+03,1.546033241110251083e+03,2.199576253427013626e+02,-6.902400638545438394e-01,6.629612981271212346e-01,2.899154556688512407e-01
1.005668378072323776e+03,6.464263808782446574e+01,2.570038249189570251e+03,1.145850093017021509e-03,-9.495199937164175985e-01,-3.137044286591097464e-01
1.507881154707208452e+03,1.412635272246011255e+03,1.576154464682486832e+03,-2.822302571805157534e-01,-5.397262461178170545e-01,7.931214668532112766e-01
2.217844885506185619e+03,2.862302147286826312e+03,2.860776348562057478e+02,-2.464996461374810779e-02,1.483853144553807235e-01,9.886223635435923418e-01
2.473095670105437875e+03,1.061426291934435994e+03,1.382382085169583206e+03,6.846874431742051847e-02,-9.811224313852581203e-01,1.808612885176791030e-01
9.172797836686648907e+02,8.399394902838773760e+02,1.462522384337222320e+03,2.492789183982928314e-01,-2.720650908587547989e-01,-9.294302594483325741e-01
2.499847058737467705e+03,1.148948212088130958e+03,5.509973541584452050e+02,6.055645010996156818e-01,7.234518387552663077e-01,3.315253715925792211e-01
2.738675864771706074e+03,2.030227931644318915e+03,6.538642522471393477e+02,-1.428067603559502741e-01,5.008095843867690217e-02,-9.884827397575041141e-01
1.550086680310625979e+03,2.584273054791446611e+03,2.204201622513101029e+03,-2.339521756807221853e-01,-9.711978488059945791e-01,-4.517873359076096662e-02
9.560977857388182883e+02,2.307580204900368244e+03,8.451763039313798345e+02,9.208064762252396798e-03,-8.828126160581252213e-01,-4.696350673362703620e-01
1.595234350066296884e+03,1.542463474653758567e+03,1.620622259444131032e+03,8.985082854060210122e-01,-3.282024413684931363e-01,2.914893111873799736e-01
1.792271566011042296e+03,9.763770370805533503e+02,3.001585018482585383e+02,-1.698465552715266210e-04,9.827612079628453845e-01,-1.848793641149727440e-01
2.702483461243125930e+03,1.090968521191423179e+03,3.280021099241823777e+02,8.285079886414964401e-01,3.966959550520448019e-01,-3.952301000715507384e-01
6.513400982116633031e+02,1.814496135979833298e+03,1.516613839676315365e+03,-8.252480760122338221e-01,5.466466945758148288e-01,-1.419260523915263361e-01
1.748967842091895136e+03,1.717015839461307223e+03,1.140139148743047492e+01,-4.261234164911489875e-02,1.269309924907534477e-02,9.990110477720615112e-01
1.980483576289840812e+03,1.670412704938174329e+03,4.129975419169057886e+02,1.848711118602507780e-02,-9.850883541620819583e-01,-1.710530947227683618e-01
1.351389920731541679e+03,8.814149405516734532e+02,1.620984484437101628e+03,-4.733079477545165149e-03,-8.766415532521226739e-01,-4.811207593425635420e-01
9.564168417719249646e+02,2.574730857382870909e+03,2.105268975480109020e+03,6.388373863817614629e-01,-6.150571720708475354e-01,4.621595707600698599e-01
1.014764784013762210e+03,2.407485094811389445e+03,3.644076146699256213e+01,-1.136838806469461782e-02,3.096760426655627008e-01,-9.507741626442144378e-01
1.580669788527766059e+03,1.165336681094353935e+03,2.660003434328860294e+03,8.397992961688970359e-01,1.231210468784506296e-01,-5.287516902760496240e-01
2.188309180154593378e+03,1.231425723889693472e+03,1.899616242269748227e+03,6.033644111721100586e-03,-9.877274052176719943e-01,1.560710354956930945e-01
2.708719335516109822e+03,1.162904606774551212e+03,3.026789494351848475e+02,-3.585782178345344601e-02,-7.266474222814385264e-01,6.860741507364104264e-01
1.439167570074808509e+03,1.452105643825624838e+03,1.607737094254476460e+03,4.365683831486044664e-02,8.867070119179035759e-01,4.602659616829958278e-01
7.711694084830990050e+02,5.031345492320418344e+01,2.531549315205594212e+03,8.098808581070876533e-02,-9.641669683669573665e-01,-2.526321180427936186e-01
2.247476156106478811e+03,1.264835721557599072e+03,1.787611176937128448e+03,2.437877464714133802e-01,-1.819221435651040275e-01,-9.526131787620133462e-01
7.571863171245546482e+02,1.884243032051002729e+02,2.482565650663482756e+03,2.739291181710745196e-06,-8.922349247890734025e-01,-4.515715214438713043e-01
1.971362205198583752e+03,4.030128814076276740e+02,2.113999508081103158e+03,-2.447356420442368258e-02,1.149589006133477746e-02,9.996343777435976463e-01
2.816368359409956611e+03,2.034725859571849924e+03,8.110940136733814825e+02,1.755276534335169503e-01,9.768453847335821782e-01,1.223239028351483515e-01
1.968726088462586176e+03,4.580578987736328145e+02,2.064078805302279306e+03,-3.941707593436009072e-01,-5.053484199213854888e-02,9.176467960077661079e-01
2.296414051121148532e+03,1.365124958815962145e+03,2.225365610489930987e+03,-4.769180619963776513e-01,-7.875853490890618591e-01,-3.902031266428808154e-01
1.469543268306669461e+03,1.397947175691277380e+03,1.612175472139476142e+03,1.452346183608077546e-01,-8.781427072502113740e-01,-4.558204595373709922e-01
1.433220440808002195e+03,1.609143363408860239e+01,8.326628381190071195e+02,1.744165740347567994e-01,-2.430313919356781316e-01,-9.542088876319403390e-01
1.484852272068979119e+03,1.562724065711675848e+03,1.482447207996994621e+03,-1.398433155746728850e-02,-6.027364640671203366e-01,7.978177695155428406e-01
9.913172958968831381e+02,4.982761301721488962e+02,9.509758051498321265e+02,-1.120404917653309435e-02,9.858723660704231673e-01,1.671231495058523309e-01
1.476429854293970038e+03,1.523168212302208758e+03,1.545517346812795495e+03,2.334262412156714716e-04,-5.316787484137962538e-01,-8.469460750232739032e-01
5.321287493032840530e+02,1.487802925996505110e+03,2.139496413837021919e+03,-3.163697645273779585e-02,-9.334697228202449848e-01,3.572581395837246543e-01
2.490396011795346567e+03,1.227224515175274064e+03,4.533346064406876508e+02,-1.005335333484193815e-03,8.530957292640943823e-01,-5.217534532825156557e-01
8.448124238864419056e+01,2.425556927823492970e+03,2.200139380855354375e+03,-6.668642783851105316e-01,6.251271450890213410e-01,4.055959648304648391e-01
2.066786460630792590e+03,2.460621998839041680e+03,6.113797463035815554e+02,-5.722630870639442424e-01,-8.076435922503445441e-01,1.422209094367070936e-01
9.030197378331885716e+01,2.285078588020207008e+03,9.910733473084816296e+02,-4.982280004460493128e-02,-9.686874868999488797e-01,-2.432328952242622244e-01
2.524570466809005211e+03,1.160177710468612986e+03,4.706375616284916532e+02,1.699335974841188898e-04,-9.335544126384598407e-01,-3.584356703312782666e-01
1.625618526016772421e+03,1.511510368362634381e+03,1.516215652812002190e+03,-6.041400446145678716e-04,-9.999774555999956238e-01,-6.687548621539820236e-03
2.167579034174109438e+03,5.779239954538297752e+02,1.284954211724715606e+03,-8.015857813698630541e-02,6.636124933167485418e-01,-7.437694945781152533e-01
1.930898591793314608e+03,1.497971569248591663e+02,1.608165678362650851e+03,-7.684409563212324379e-01,-5.345308608871453954e-02,6.376842982508681423e-01
1.489215262589679014e+03,1.552332361101238121e+03,1.534884555741432450e+03,-1.680080849097831137e-03,7.197036789580536498e-01,6.942793327059241237e-01
4.832303969542531945e+02,2.099961515916331791e+02,2.568516755323000325e+03,3.023498363239437558e-03,9.586822990899910302e-01,2.844628409286114046e-01
5.291792903289106107e+02,1.413195141279600421e+03,1.753289404516841842e+03,-1.146618574641181804e-01,-8.178994407759199170e-01,-5.638201514856627794e-01
2.953129816222060526e+03,2.543198634220597796e+03,2.540827395256896125e+03,8.985259815516155602e-01,-5.538603726784117713e-03,4.388853886215209332e-01
1.594732353975088017e+03,1.531071964412813713e+03,1.458122067570422814e+03,1.214849383368167774e-03,2.190159464257652178e-01,9.757205231787440258e-01
2.817949922398384388e+03,2.297343192078181801e+03,1.264458007872154440e+03,3.381123349480709139e-01,-9.210795858970181882e-02,9.365875148219739987e-01
1.843658575796087575e+02,9.310470457371027351e+02,1.304999259823819102e+03,4.075114957443594643e-01,9.131916930687351552e-01,3.913124896033348676e-03
2.229534194549289168e+03,6.533432027067839272e+02,9.317268921956782606e+02,-1.149138088824287057e-02,2.004357375071631753e-01,9.796394557668861580e-01
9.105480276762308733e+01,3.842464930572311914e+02,6.848814953998144119e+02,-4.723500693603923696e-03,8.722628088827023563e-01,4.890146018078149748e-01
8.992364652292205847e+02,1.273366213942066167e+02,2.529743972504348676e+03,-1.031361955320925184e-03,-9.987892039089154572e-01,-4.918396534961467365e-02
1.501959989174392831e+03,1.620724731828249219e+02,4.879156914849419309e+02,-3.207260211998147481e-01,6.836377503722044224e-01,-6.555716937081463858e-01
5.321141174040561737e+02,9.221701149483479867e+02,1.686573650060263162e+03,-2.651335560137780822e-01,-3.385926201117512302e-01,-9.028063109445725321e-01
1.422026919047776573e+03,1.499162761846562717e+03,1.619071777601988515e+03,-6.254616928592428814e-03,3.289160368662999434e-01,-9.443384565182355583e-01
1.520145441275670464e+03,1.528277821152262050e+03,1.560889976585918475e+03,1.347469982107366571e-01,9.905669942855950261e-01,2.490534691984182258e-02
8.800887931067290992e+02,8.481751182581785997e+01,2.568773656463890347e+03,3.794992467674594416e-01,2.611847128302427490e-02,-9.248233059134965961e-01
2.122844205239545317e+03,3.671126862045445591e+02,2.477505026086914768e+03,-9.561952436663727665e-05,2.804541301314930069e-01,9.598674240482871767e-01
7.036889711096195299e+01,2.063734252552443650e+03,9.876956815087785344e+02,8.410655830260791443e-01,-4.970649798245401207e-01,2.133895285177584977e-01
2.695817719393950938e+03,1.990837817372295603e+03,6.675611764923671672e+02,-3.063143143111958424e-03,-9.974150325162639552e-01,-7.179045942647868661e-02
9.760607102628342773e+02,2.259837499240881016e+02,2.507262242914157923e+03,3.421089629305117119e-02,2.918151064307186182e-01,9.558627298067722267e-01
8.038962608006750088e+02,6.457762112228792262e+01,2.609003657293133074e+03,3.303107845207378657e-01,7.248044637122106303e-03,-9.438444000354259122e-01
5.854513853659061624e+02,2.992280800909206391e+03,2.563825158455143992e+03,4.680103131043046594e-02,-4.378796432204433153e-01,-8.978146142280249986e-01
4.429826650463850797e+02,9.744807870189001733e+02,2.416463621771277303e+03,-5.534196019309942788e-02,9.979027889608096391e-01,3.357515787339164504e-02
9.234137210122268016e+02,2.276907288678547161e+02,2.530667626331910469e+03,-4.598846268273826189e-04,-9.632485792763150201e-01,-2.686111744293056547e-01
1.706879872812398844e+03,1.606545685794679912e+03,1.259547856062226856e+03,5.193379968699880084e-02,1.523138471014540141e-01,9.869667534578991930e-01
1.466122130152087948e+03,1.409701634875952095e+03,1.590725898216519681e+03,8.735039338920734032e-05,-3.240640844430599937e-02,9.994747705978623831e-01
1.819039019045333816e+03,1.660938630283561452e+03,2.643735246165637065e+01,-9.976209335997354710e-01,9.526181414533535854e-03,6.827682411514007788e-02
2.122541594294802053e+03,5.534545184593973772e+02,1.157413450211942518e+03,-1.021618031864734294e-01,-9.240260764051412279e-01,3.684274366724178962e-01
1.662744399592934315e+03,6.424416056544139337e+02,1.967036328861704078e+03,-4.127805853785762036e-01,7.826683850378446383e-01,-4.658780821167403108e-01
4.906100264139673186e+02,1.740128568065632635e+03,1.505396773947976953e+03,-5.934864661922300000e-01,-8.009661004359897030e-01,-7.891210552901983810e-02
1.782374596312721451e+03,2.169621724621551039e+03,1.754050741428360197e+03,-6.672453848360455908e-02,9.780089705384968912e-01,-1.976013398496569984e-01
2.956912337252182169e+03,1.381077768176306790e+03,1.594241276842023325e+01,-4.571639157550344001e-01,7.741258086853157749e-01,4.378702849689959931e-01
2.828885067447577057e+03,2.030309089613047490e+03,8.059336498496159038e+02,-2.052603051076321294e-01,8.282230461757694728e-01,5.214544974688117840e-01
1.624071767361526099e+03,1.425270430337419384e+03,1.608370552911482719e+03,6.666222174839842550e-03,9.880128688569641549e-01,-1.542275346847868933e-01
1.572531092477447146e+03,1.707281864323715865e+02,4.219830607621411218e+02,-1.741706626562455895e-01,8.230741455523774563e-01,5.405677859372569616e-01
2.823823800989516258e+03,2.003412949911214582e+03,8.292901118384759229e+02,4.399852241724705459e-03,-7.018547457106627530e-02,9.975242555745125195e-01
9.377331601990302943e+02,1.432699181852297272e+02,2.379974931062634823e+03,-7.558171191081314300e-02,-8.098473973472885001e-01,5.817513195811883087e-01
2.820679837629800204e+03,1.088301490136115490e+03,1.383996742000063932e+03,-5.697762291248651412e-01,-4.689061865856877787e-01,6.748940931034419499e-01
4.019936015449768547e+02,6.547755510459645620e+02,1.949316262806052237e+03,-8.313819425738360192e-01,-4.422464927186557926e-01,3.364849257250652759e-01
2.159402149190893397e+03,8.288560581385050909e+02,7.751385498491117687e+02,-1.849469409370035552e-02,-3.093403474846595849e-02,-9.993503048403803435e-01
5.399940286361147628e+02,1.164665309002798494e+03,0.000000000000000000e+00,1.001351576166442242e-01,1.746607305185692849e-01,-9.795236492417167540e-01
1.378260307055846624e+03,2.254315488231422933e+03,1.961641883072337350e+03,8.046244778006756970e-01,-5.927950747142569643e-01,3.425564360084987214e-02
4.544257080869011816e+02,5.069310510317329772e+02,2.441471276516021589e+03,4.333913995599756874e-01,7.714784701587252824e-01,4.658249294198396062e-01
2.169387283731882690e+03,8.222007956904647017e+02,2.202422337910428269e+03,3.134707028909664711e-02,8.007388942536467491e-01,5.981927652636209736e-01
2.313999021204620021e+03,1.112943203828547666e+03,2.448052899390557741e+03,-2.346616224318137656e-01,9.452392490845539230e-01,-2.268406598203629720e-01
2.572340109171861968e+03,1.163797333186650349e+03,4.891726976525912391e+02,1.686010742187279889e-03,9.602654042842371229e-01,2.790833400663821351e-01
8.408727667424760739e+02,2.944099657760922582e+03,1.503675415602245948e+02,1.777392526324855504e-01,4.822357437022624024e-03,-9.840658021404844469e-01
2.535157570230430338e+03,1.128867883464098441e+03,4.853127553687554041e+02,1.853013069693552617e-01,-9.710976565805045091e-01,1.504419057952316452e-01
1.560656864711481546e+02,4.095121916092786591e+02,2.167697843169043153e+03,-2.449968781041254595e-01,8.444711014315733344e-01,4.762825721839692439e-01
1.470862471237448972e+03,1.413761470882248659e+03,1.426610544352516172e+03,4.733171483869182128e-02,-9.537407706428794318e-01,2.968808703570428031e-01
2.151808651188740896e+03,7.169317468298734184e+02,1.312344675572777987e+03,-1.525401225849652145e-03,-4.745766826058376298e-01,-8.802128410094562927e-01
2.904716411884871832e+03,2.151309080297487526e+03,7.322838126055297607e+02,9.363619703518186732e-01,3.467554648582013010e-01,-5.465261265330934037e-02
1.424929983824914416e+03,1.517212044580482143e+03,1.549657556562999389e+03,-2.812957252573718481e-05,3.133051357283946764e-02,9.995090785620656115e-01
2.936127444835192364e+03,1.373595830556742158e+03,0.000000000000000000e+00,-4.178935090379486406e-01,7.907624099788268524e-01,4.472804780765952670e-01
2.022319374015046606e+03,4.585642805378490152e+02,9.252041248079278546e+01,4.280191792912981658e-02,2.201972277370314868e-01,-9.745158678638916605e-01
1.592515525978458982e+03,1.948650609799054109e+03,1.792871037306023027e+03,1.391494499774053595e-01,7.072729539821474010e-01,-6.931106687509238640e-01
2.123747346841806575e+03,1.047664208951855471e+03,2.320812583246836311e+03,6.332038901253860093e-06,-7.017094360789633001e-01,-7.124632392465232167e-01
7.824599838665758398e+02,2.158362924199916961e+03,1.028741668543449350e+03,8.692923561365938356e-01,-3.580644889232053596e-01,3.407647595257661810e-01
9.183905483444469553e+01,2.839755112582563470e+03,3.920335981253527393e+02,-1.323179169697284163e-01,9.170523594804720346e-01,3.761740804735105304e-01
9.837948886619470841e+02,8.600746029437534901e+01,2.544595046274765082e+03,-2.630454157047532266e-04,-5.827346828752919677e-02,-9.983006229091774264e-01
2.184165789579676584e+03,7.168219012534273133e+02,8.908933412218193553e+02,4.002862989194191923e-01,-9.055393447802502216e-01,1.406036057587016219e-01
9.038624833399695717e+02,1.107764520203604661e+03,1.748892158034266458e+03,-1.952031347319460250e-02,8.315624784547085424e-01,5.550881027261984624e-01
1.932706614708817597e+03,4.937500510162886940e+02,2.146867780581781972e+03,-1.562989603207867034e-02,-9.793739122680712450e-01,-2.014508533582290983e-01
1.218247151871051415e+02,2.481522372258828455e+03,2.358988724663056928e+03,5.682501741111448679e-01,7.912631685160846917e-01,-2.258192590824350809e-01
2.551846186028061311e+03,1.347631825321521774e+03,2.514210155570681763e+03,4.908822178988872520e-03,9.917621639181720683e-01,-1.279988815777703126e-01
1.180982089815547624e+03,2.944708881277033015e+03,7.694715115547480764e+02,1.246800697350787957e-03,3.253536012869184813e-02,9.994698073625423174e-01
7.458880290314856438e+02,5.664882503755735570e+02,2.141603051963855705e+03,-3.763252991083976956e-02,-7.409462231899078821e-01,-6.705091252422452630e-01
1.687262607485150966e+03,2.686952983662288261e+02,4.442075841995134624e+02,6.417383137068407573e-01,4.839959413490166340e-01,-5.949116451023460650e-01
1.207124636427044607e+03,2.911943771747241499e+03,7.986422220460890458e+02,2.128828720433660893e-01,9.620307257267561862e-01,-1.708150038732510201e-01
7.363836302847512343e+02,1.466268026925767742e+02,2.522973412854632898e+03,2.332540732586770894e-03,-9.941978644117381858e-01,-1.075414601577925344e-01
2.900685545145873675e+03,1.787743985016440774e+03,1.154013218814337506e+03,-9.105796038807332238e-01,-2.033023453874389930e-01,-3.598790649042724610e-01
1.686257247328204812e+03,1.507818529295838744e+03,1.521141757544731263e+03,1.313561852074706781e-03,-7.842640162961893313e-02,-9.969190408868167097e-01
8.172835444145475776e+02,6.775369227411574968e+01,2.526792040556159009e+03,1.506409081149512027e-03,-9.978497536044987903e-01,6.552556724761268714e-02
2.609042795753762221e+03,1.215041044247099990e+03,3.369796791867240131e+02,-5.548372383776826178e-06,9.994074054430871490e-01,3.442147461589056823e-02
2.244944659887177295e+03,1.123306056363052903e+03,3.686751159973265999e+02,-2.584143621070554842e-01,-5.498379610849122301e-01,7.942922849976512545e-01
1.738702465944625601e+03,2.190916547955210262e+03,1.723748015957192820e+03,1.355313461062676757e-02,-3.925680966209747491e-01,-9.196230760793312475e-01
2.667722470878468357e+02,1.841290035062998186e+03,2.541183407279545918e+03,-6.914275068848959593e-01,-7.075480508321718709e-01,-1.459580709879777505e-01
8.545599960662276544e+02,1.812283902616714499e+02,2.530636885195007835e+03,1.508855697603851409e-01,-9.578546089500576954e-01,-2.444342303181288589e-01
1.529275131586851444e+02,1.347808368916238123e+03,2.137891129152702888e+03,3.575193334533773026e-02,-1.897037222420920877e-01,-9.811902450746061710e-01
1.391101765638569759e+03,1.526788998626135935e+03,1.451512649700113798e+03,-5.379787244493354492e-02,-9.619908010473416926e-01,2.677302515979333442e-01
9.032635342878226083e+02,1.751723651200004952e+03,1.088752089378388632e+02,-8.313505656929199850e-01,4.577186488923961627e-01,3.151981525614980240e-01
1.470819763376484843e+03,9.651213373095906718e+02,1.607070961207448590e+03,1.373264647339608457e-01,-9.838177159655115966e-01,1.150832039703277021e-01
1.503348755436032661e+03,2.471429868466799235e+03,1.159455270061031342e+03,-4.532444092480984454e-01,4.651017206059975817e-01,7.604274422814334411e-01
7.150384818831032590e+02,2.124375614661200018e+02,2.502040739798987943e+03,2.610387456893419333e-01,-3.118869715822611965e-01,9.135563968393964895e-01
2.240964963858667488e+03,5.657947813949518832e+02,5.226414567474502064e+02,-7.129900111765381451e-03,9.930796485671048446e-01,-1.172261750900024518e-01
2.484108245949598313e+03,1.190253772548936240e+03,4.526847140052667555e+02,-1.982627817106233092e-01,-8.275295354569532635e-02,9.766492809948870146e-01
1.383817627583633794e+03,1.777732573563742562e+03,1.661963973468871473e+03,-2.297481898980835088e-02,4.501995439790209552e-01,8.926323589773491607e-01
2.753830636459776542e+03,1.970213057894792655e+03,9.601933461121017217e+02,-2.104200535014786599e-01,6.724520338225732363e-01,-7.095996500085943737e-01
1.534985048249529200e+03,1.425787792220073243e+03,1.437516824622576678e+03,-5.650560389758334766e-03,7.192279291808510999e-01,6.947512195408558355e-01
1.511867119540491103e+03,1.377717132120124234e+03,1.518478949153525946e+03,-3.512355890084075671e-01,-4.378351882442058640e-01,-8.276073398351888599e-01
6.874393222641285206e+01,2.496526833312889721e+03,2.332016422364270056e+03,-6.636247913946484722e-01,-7.193444130041105611e-01,2.052943051479532433e-01
2.689549940441314448e+03,1.009792943228122795e+03,3.089540349997923272e+02,1.191804311357886996e-02,5.965976028829304001e-01,-8.024520300196668066e-01
1.055647392860800892e+03,2.392537640881664629e+01,2.480473656999742161e+03,-5.096971807671217825e-01,-4.690608149275430350e-01,7.212424944618538447e-01
2.234698114221396281e+03,3.689860723144464600e+02,2.758103727122076180e+03,6.537045889204469162e-01,-6.999645031721289934e-01,2.876108564073063256e-01
2.251266125679886045e+03,2.476573875816488453e+03,2.456205473593405259e+03,4.719446576738692833e-01,-4.756664313169791658e-01,-7.423002668807709981e-01
1.477671208051590838e+03,1.341789442175177783e+03,1.471740466738918258e+03,1.480903317325390871e-02,-2.293274914629404859e-01,-9.732366588840499766e-01
2.830404477208307526e+03,2.084172426351269223e+03,6.296303184022253845e+02,4.169806826494180477e-06,-1.884752405084633986e-01,-9.820779417632237163e-01
1.632566345939949315e+03,1.516311561277666897e+03,1.517022058328741650e+03,2.498640097040638330e-01,7.593885531936375721e-02,9.652985377112057730e-01
1.525750116091468271e+03,9.845496539821583610e+02,1.634525488930469464e+03,1.782403933109465025e-03,1.034048788661748319e-01,9.946377501698249191e-01
1.308665377128237878e+03,1.769289987250271281e+02,2.942291766630276470e+03,-5.869877432839788467e-01,8.090476238872479353e-01,-2.978811032576654180e-02
9.268077997561538268e+02,6.761086026732961329e+01,2.533322806205546840e+03,-2.854955337289851312e-05,-9.987280509270618500e-01,-5.042102216690430572e-02
1.991481232589423826e+03,4.241918711997499258e+02,2.084731081624505350e+03,-4.702518060474660672e-02,-9.784099520396143390e-01,-2.012525729995290613e-01
8.569399812110318635e+02,1.201016169144228343e+02,2.553865849710582097e+03,-1.605272198143634088e-01,-9.189127175232498779e-01,3.603198985245015251e-01
6.888997976460882455e+02,2.306324349581217064e+02,2.551700510419655529e+03,7.740046079019257709e-03,9.367047324554048648e-01,3.500347638197426337e-01
1.788374155380976845e+03,8.875554373230626197e+02,2.536491129122886832e+03,-3.151190506554004539e-02,5.097041483477976476e-01,-8.597724588495415654e-01
6.601321528288572438e+01,7.746027551025866842e+02,2.996648361075189314e+03,-1.984986010707811555e-01,9.416430911770430345e-01,2.718576727103465540e-01
1.744193914392181114e+03,1.493198234659039372e+03,1.570436788139225882e+03,-3.688302209342610438e-01,-9.180046089177931190e-01,-1.457113795531215228e-01
7.536372725538728901e+02,1.801518475902945283e+03,2.798051091521997023e+03,1.615495350164533606e-01,8.567898548330330488e-01,4.897069454185409842e-01
1.902482015203105220e+03,7.842102433673240967e+02,2.446491400366409835e+03,4.953817822679700521e-03,-1.090539679422416752e-01,-9.940234865258628094e-01
9.697233320648812196e+02,7.897160700157729707e+01,2.568001313287450103e+03,-3.510319865855406063e-02,-6.298341478235974789e-01,-7.759360229292494582e-01
7.556132548836988008e+02,2.823785795766303181e+03,1.587894703942821025e+03,3.655843131653171291e-02,9.914430378744745198e-01,1.253163347289882323e-01
1.429808714168016877e+03,1.403974175919883010e+03,1.455475636104892146e+03,-5.595299236989305543e-03,-9.999269270478819971e-01,1.071602496395513034e-02
1.917553457632548316e+03,1.311663457446885559e+03,2.849111281117147428e+03,-2.653383735582676151e-01,-2.559756491988267046e-01,9.295547399344981088e-01
1.882210589148308770e+02,2.377300693628633326e+03,2.673382837608186037e+03,6.064554218775305428e-01,7.432716674842874127e-01,2.824164470962580720e-01
3.580697714254497441e+02,2.152953701716570777e+03,1.722485586622643041e+03,5.876882705424649189e-02,5.895127798447404865e-01,-8.056183385241393324e-01
2.153377074879446354e+03,6.044410782642277127e+02,1.232010628600874497e+03,2.167488111588068145e-01,5.289738243081019142e-01,8.204917099264958935e-01
8.160458198237289480e+02,2.107009229113249944e+02,2.574043547301030230e+03,-5.687525506514987637e-03,-9.977464672784148725e-01,-6.685535944900677929e-02
1.095212167811925354e+02,3.242824884188917167e+02,1.210889483335287196e+03,-3.431118567381920004e-01,5.301516254011063856e-01,-7.753795895238895231e-01
3.247641534184477905e+02,2.515885555733265846e+03,2.293833072920035193e+03,1.246586972568874685e-01,-6.541685186536774221e-01,-7.460051999823251734e-01
2.913024905271611715e+03,2.055145980715731639e+03,7.936043558666237914e+02,6.128205319936291112e-02,-4.674441448769575680e-02,-9.970253104459649851e-01
7.962602002894863062e+02,1.759582200664351603e+03,1.752623595224236624e+03,-9.699368242517547589e-03,1.403714633836547210e-01,-9.900513999400371024e-01
5.018634572147595918e+01,1.311563579358613651e+03,2.770061360566265193e+03,-9.813310445940957027e-01,9.417144697984816334e-03,-1.920955447208452238e-01
1.614734459306473582e+03,8.126951735492656326e+02,9.218617199397660897e+02,5.654340771364310125e-01,7.529817498464814740e-01,-3.366047961794416121e-01
1.274012694289480805e+03,1.785501500705454873e+03,1.746817447106452391e+03,5.560706269887889797e-02,9.984188153338072746e-01,8.229445026239966959e-03
2.526305594661442228e+03,1.106826604161705291e+03,5.783959323419568364e+02,5.624471856548894794e-06,-9.883565749394210842e-01,-1.521554492694290328e-01
2.394617002787227193e+03,1.189622979151205982e+03,5.929182465508080213e+02,-7.633432471333871454e-05,-9.906413643964792626e-02,-9.950810474752987966e-01
1.459295068839492387e+03,1.442423032712760687e+03,1.656908753936181256e+03,3.995182849176276939e-03,5.399175323096234713e-01,-8.417084393177297619e-01
1.586330224239237168e+03,1.363168256179948685e+03,1.593696242623685976e+03,-5.807660000971201497e-04,9.981058495061587710e-01,6.151728125041341227e-02
2.994121354621370756e+03,1.364278109904577832e+03,6.651211375606249643e-01,-1.769034028671866501e-02,5.253640590312960157e-01,-8.506936330658064760e-01
7.152298748078643484e+02,2.497319842968048306e+03,2.911425140913684118e+03,7.301837413512627384e-01,1.262977286840638591e-01,-6.714764237078758580e-01
8.411608561645670079e+02,2.368692475415465708e+02,2.526308244499296961e+03,-8.053128935850285193e-06,-2.070148878907512591e-01,9.783377924452917318e-01
1.223159908234172917e+03,1.513585870168224119e+03,1.148799868754047566e+03,-4.425760181037701746e-01,8.963599948652498650e-01,-2.579201047961365845e-02
9.074662721905953049e+02,1.137433618684292696e+03,2.216099448466024114e+03,-6.997723244010944921e-01,6.529436592516643101e-01,-2.897986746783633993e-01
9.749687886161264032e+02,1.168325401105543904e+02,2.583545702222893851e+03,1.294360736263085732e-01,7.085171120625048946e-01,6.937217055554862899e-01
1.496860677130059003e+03,1.418385409061836299e+03,1.530666991378912826e+03,3.621444999151366556e-02,-9.992804164534201394e-01,-1.127665307135143104e-02
1.854942939934193646e+03,8.362820282177976878e+02,2.326505495578473415e+02,6.094838317611419795e-03,-1.816276912533024319e-03,9.999797768375414675e-01
2.054059564329417299e+03,2.648284293659608920e+03,2.317345925289441311e+03,-1.606857869890255808e-01,2.183236366739759252e-02,9.867641185999884712e-01
2.848752137800904165e+03,1.923822579135074193e+03,6.920592379553172577e+02,-1.840195443065838625e-05,4.323471601874060571e-02,9.990649423296500409e-01
2.257535596276767592e+03,4.826772131679444442e+02,2.615162297541526641e+03,-2.184102835366669992e-01,-9.728772770916355173e-01,-7.620204566937638369e-02
2.287980658283499906e+03,2.500545048616450003e+03,2.232213679155790089e+02,2.006332804785877777e-01,-9.772723507009436483e-01,-6.844734706219224307e-02
1.543738523294083961e+03,1.967237547016110284e+02,4.327537341404394056e+02,-6.723135370186410220e-02,8.110471449364987651e-01,-5.811045291251555334e-01
1.624687230306095898e+03,8.750784983898580549e+02,2.263095327094737968e+03,1.334767507466039292e-04,-7.726411730642578357e-01,-6.348429726080651037e-01
1.429414530976899869e+03,3.082313570970083560e+02,5.699461044454822058e+02,-8.605225886373539801e-01,-1.516546882007224206e-01,4.863144353107451412e-01
4.634586730627818838e+02,2.749723081803546393e+03,1.371703757428668382e+02,-7.440345316346917981e-01,-6.601809624642988039e-01,1.028285589457380717e-01
2.502432110199497856e+03,1.120987655176305907e+03,4.481091528015351173e+02,-2.700765847010238585e-01,2.692306195390030688e-01,-9.244314533262459888e-01
8.219242276905899871e+02,3.550369415592778637e+02,4.737577564043610892e+02,-4.714587270830220556e-01,7.929769046553268863e-01,3.858941530271133291e-01
1.021335857848090882e+03,1.955696095384478895e+03,2.872030542515656748e+02,-7.252346619521351512e-01,-4.023461736201298655e-01,5.587058632916004353e-01
2.086094570780147478e+03,1.141189996659082908e+03,2.370360698602933553e+03,-8.979958303398906383e-03,6.099303618494202883e-01,7.924041355540142328e-01
2.278752384869959769e+03,7.787779541927858418e+02,2.436547995541951423e+03,3.935287430219765875e-02,1.058441145043085702e-01,-9.936037312273712230e-01
1.351655723292344646e+03,1.310574238902079287e+03,1.221362550204908530e+03,-7.875965593670336551e-02,-7.950563203371262544e-01,-6.014003359566079121e-01
2.259766047021790655e+03,1.520164968204215484e+03,2.000580738486627297e+03,-7.250594363797718822e-01,-3.726579307671422647e-01,-5.791501362798764374e-01
2.950434036489842583e+03,2.575824200036935054e+03,2.501425110555734591e+03,-1.533238496462493994e-01,9.862002137306301597e-01,-6.245747006814928587e-02
3.801634395305075742e+01,1.474836332537580574e+03,2.665105343998370245e+03,-5.310835362771564733e-02,-9.125215655501970335e-01,4.055661415611155896e-01
1.582794470572675436e+03,1.825634089824965258e+02,4.949168077257174900e+02,2.216492727293960382e-04,-7.975810110941068398e-01,-6.032118049356314238e-01
1.498650649577215972e+03,1.349572024259264481e+03,1.440594433738609268e+03,-7.952740493315649722e-06,-6.817945508832871093e-01,-7.315437036313079400e-01
1.478000505180531036e+03,1.342289514474975249e+03,1.489275067271670196e+03,3.137686022941573633e-06,-3.755398890327646400e-01,-9.268062320331115211e-01
2.893731536905321718e+03,2.310951872713905686e+03,1.151139949442326497e+03,-8.097600919986975426e-03,6.021729459054914191e-02,9.981524464186498635e-01
1.369459039040740663e+03,1.652664512770088322e+03,8.563419459332977794e+02,-8.963744717318341063e-03,-2.572831922678169847e-01,-9.662944738831554803e-01
1.944074511662702889e+03,2.557450100467880475e+03,2.483954518741337779e+03,-9.761659714415739098e-01,-1.629720078272788586e-01,1.433182502833245664e-01
2.342950997352905063e+02,1.273958001799578142e+03,1.779799583570678124e+03,-6.772588776423145163e-01,-9.945993620724191686e-02,-7.289911753542177575e-01
6.945998423866127496e+02,7.903624919330998466e+01,2.009695571294543015e+03,4.242752493727395824e-01,2.076833057824113427e-01,8.813955736608785063e-01
2.146630595479831300e+03,7.618253989834510094e+02,1.472951028940967035e+03,1.232942644739611201e-03,9.864239569628492355e-01,-1.642140584182426033e-01
7.533593451393622900e+02,6.297256473411836453e+01,2.507989372359014396e+03,-4.381784025289328643e-01,-8.927934095465607234e-01,-1.044969637234475501e-01
9.767739735394620766e+02,1.275743841152468292e+02,1.691446727676755472e+03,6.103713544536760738e-01,7.193760437323761803e-01,3.315794284426274996e-01
2.855187274665943278e+03,1.748541318466665189e+03,1.148080922290442686e+03,3.496562632493365741e-01,-3.980484444222557455e-03,-9.368696031540888480e-01
