x,y,z,nx,ny,nz
1.527519450067577964e+03,1.499379861015541792e+03,1.530087475727521223e+03,-6.173942340687955466e-04,9.707435533290943441e-01,-2.401178304382318440e-01
2.910698543561780411e+02,2.822644468006420539e+03,1.552210857778237823e+03,-7.459507545446297794e-01,5.078530599760429087e-01,-4.308627870532186765e-01
2.001639296453324050e+03,3.928886563953064410e+02,1.813668888368690659e+03,-1.051938223252219529e-01,8.590288563974753933e-01,5.010026782573676618e-01
1.900489630163867332e+03,2.276110476642447338e+03,1.328598288302240462e+03,-2.876567162704417036e-01,-3.771608118368443563e-01,-8.803427375738831495e-01
2.887158400246483779e+03,2.306424742134963708e+03,1.679041184417283603e+03,2.097519416733387848e-02,9.927673942239571003e-01,1.182072002689206341e-01
1.935990310746368550e+03,2.234491060540682156e+03,5.024368607476771444e+02,-9.224511081112637401e-01,-3.435627826965004794e-01,1.762060370422615929e-01
2.472839700386815366e+03,2.383714504502785985e+03,1.851467570875179490e+03,1.039858879343804748e-01,-2.078408677434392948e-01,-9.726197143828375635e-01
1.388403974995629596e+03,1.516299014440972769e+03,1.058821612159120917e+02,-1.233988567934079100e-01,2.398135467268478482e-01,-9.629445388745760948e-01
1.873508949986606467e+03,2.314323235800712609e+03,1.300285738290621111e+03,8.335906652504712633e-02,-7.704561816254911211e-01,6.320194128530713940e-01
1.667752961446448580e+03,1.443389651156820037e+03,1.468909665937542741e+03,-4.180608779546493483e-05,-9.995245186623421541e-01,3.083398847156041192e-02
2.634063748517058684e+03,1.067451138907197219e+02,2.460876815041825921e+03,-6.077673735537101329e-01,-7.766156055704440675e-01,-1.657921012234227220e-01
1.506029815398350138e+03,1.543144882228108145e+03,1.414526856303774821e+03,-1.896428690397346517e-01,1.299143274439050477e-01,9.732203500478070479e-01
2.753116062221006814e+03,2.371405222426783894e+03,5.790135706156656852e+02,-8.727874938697052221e-01,-4.133167061019523691e-01,-2.596368444610120396e-01
5.457769464303881932e+02,2.322336121589901268e+03,2.386995848700559691e+03,8.749877403626640238e-01,4.389131895637327641e-01,-2.043322447437752043e-01
1.095357269892592512e+03,2.945925215000316257e+03,2.608444888254211492e+03,8.162100699158859607e-01,-1.401825796736670404e-01,-5.604908260836574119e-01
1.528236632737384525e+03,1.325914301454924498e+03,1.453972882521769179e+03,7.959910116576312568e-05,7.633827888626438796e-01,6.459463687739681603e-01
7.740976999947880586e+02,2.458232266723413431e+03,2.961020896080449802e+03,3.417296531084372535e-02,8.915660699483597407e-01,-4.515995475625505517e-01
1.970463319560548371e+03,1.921712722287871884e+03,2.710803920985091736e+03,-3.770820519147807803e-02,-7.531432054552635869e-01,-6.567750020652491916e-01
1.565818875537875329e+03,1.421866879355057563e+03,1.441018818487295903e+03,-8.889129077385215594e-04,9.113657715046631358e-01,-4.115964532932137043e-01
2.582595687399457802e+03,5.712006406119008943e+02,2.091547657063042152e+03,6.600039791784017007e-01,6.033162181940929791e-01,-4.476653754007045571e-01
1.656151380660454834e+03,7.477651227611523836e+02,1.258380394329655246e+03,-2.522922482748404804e-01,-8.640194991322425189e-01,-4.356821393856937230e-01
1.880390869424112225e+03,2.949708252221039857e+03,2.569810057179422529e+03,7.365740729738969039e-02,4.991377647788203253e-01,-8.633864013996453979e-01
2.270175308678650254e+03,1.967856095063709176e+02,2.628252836035483142e+03,-7.132529608312567770e-01,-3.180390608801279551e-01,6.245969657466582392e-01
1.498937522043343506e+03,1.470187898559861196e+03,1.497058060968155360e+03,1.118919064402502548e-03,9.961549803344886822e-01,-8.760138797371827546e-02
2.351858798549527364e+03,1.189960878618218771e+02,2.496177193755073858e+03,1.653105863623788585e-01,-4.288544735215267176e-03,9.862322335132738260e-01
1.429556774465689614e+03,2.688281515595732344e+03,2.820239650273021653e+03,1.275561245550403330e-02,-5.279084553956081560e-01,-8.492054857763863263e-01
1.636187448216309576e+03,7.646438706091978474e+02,1.378832933004466213e+03,4.942895549107676964e-03,-7.822714232335808981e-01,6.229181231716560685e-01
1.366868373820497936e+03,1.434223506320279284e+03,1.521448672552038033e+03,4.825581864410563755e-03,7.011195422362731522e-01,-7.130274197070324282e-01
1.377057386310330912e+03,1.169696116907321652e+02,1.376232983613495435e+03,-9.801199703093050886e-01,2.121383123378056679e-02,-1.972683886619230886e-01
2.729610059326412738e+03,4.070764030294843394e+01,5.681804749739394538e+02,2.354382562261181644e-01,-3.705954331451394301e-01,8.984585980651369486e-01
2.883675356282041776e+03,2.384841748676547013e+03,1.708623386443389563e+03,3.840486242488788116e-01,-7.617064377400087904e-01,5.218332654382715763e-01
1.458844666826614912e+03,1.478205651821189349e+03,1.465928900071583712e+03,1.605458554329223944e-03,1.111351331363459316e-01,9.938040071792813013e-01
2.987674688697057377e+02,1.321409203979798804e+03,2.070829145943111598e+03,-7.896401445244631834e-01,-3.522504804392080358e-01,5.023823655202597216e-01
2.458075703425085067e+03,2.390852365365944934e+03,1.798081605310074110e+03,2.245394237306689439e-02,-9.997300139968295918e-01,-5.976586467705946766e-03
1.966312463806380720e+03,1.943230115165907364e+03,2.659183433834585230e+03,1.221435134225001308e-02,-8.675519044617601150e-01,4.971966438805286992e-01
1.965483580731420489e+03,2.969648627719484921e+03,2.562305585991728549e+03,-3.082566339802647951e-04,8.712844792997340715e-01,4.907782198806697749e-01
8.526711486543964611e+02,1.813835961281241907e+03,1.186219561004155139e+03,7.966947652660606449e-01,3.064846722097416820e-01,-5.209074742198884778e-01
2.246093630073965414e+03,1.204178761053297819e+02,2.515938188471868671e+03,5.751374559880693266e-02,3.081911181891708318e-02,9.978689049238326225e-01
1.720265783935375566e+03,7.986007905231347195e+02,1.211881074906262711e+03,-2.334104869466058219e-02,-5.174870305390015801e-01,8.553726490072965927e-01
1.779937405408750237e+02,2.671882498270404994e+03,1.536092362753649354e+00,-6.173881480043317271e-01,-3.475430834199162433e-01,7.057235151748585400e-01
1.124498751917667960e+03,1.597963625839311362e+03,1.979614773863903338e+03,4.220636991296486396e-01,8.860022336789865616e-01,-1.919955098246934888e-01
1.454820003096025630e+03,1.715935616775077506e+03,2.779198299641355334e+03,-1.507118810430601585e-01,6.522995488268422681e-01,-7.428265123922009883e-01
1.566079492018449855e+03,1.411029277125922818e+03,1.452000573150960008e+03,-2.611698667079717756e-05,-3.020612742093326530e-01,-9.532885113862106241e-01
2.227051834473075814e+03,2.275454031410755533e+02,2.504688332997510315e+03,9.827159832549691165e-01,-1.065492705918010541e-01,-1.513821296969177221e-01
1.407895498950269257e+03,1.375090771398799461e+03,1.524189656977016966e+03,5.279661268574975086e-05,9.969221294357401009e-01,7.839811894316857377e-02
6.979367564028272000e+02,7.289819250470865200e+02,1.395516495644016004e+03,-7.565003575174962247e-01,6.365595782603482577e-01,-1.499970413071807229e-01
2.884104687786439172e+03,2.393628424872747019e+03,1.892714710842953309e+03,1.690004464365689810e-02,-5.376630012740644116e-01,8.429904421474823106e-01
3.104077076787518195e+02,2.937927746648742868e+03,2.475000794676665521e+02,-7.393435977995387320e-01,3.239879425106559907e-01,5.902566030977930422e-01
2.929334003369804122e+03,2.300821604084192586e+03,1.634464377875330456e+03,1.702106061107541224e-03,1.984048906177325322e-01,-9.801186674142690070e-01
1.629438201421218764e+03,2.898621867462849877e+03,2.677967810215359350e+03,-9.789064090369641036e-02,3.643887711093651283e-01,9.260876016408330358e-01
9.697883654387853767e+02,1.034839263815626509e+03,2.198205562665365960e+03,-6.012925232565358158e-01,7.987657112314796581e-01,-2.050951088292429780e-02
1.430756055355519948e+03,1.500894199048269229e+03,1.389683394981280799e+03,4.767380974503277434e-03,-9.233647210702964347e-01,-3.838943395798089520e-01
2.481507950542508752e+03,2.374029378150094999e+03,1.845965678434678239e+03,6.373270924372618704e-03,-2.894930993494676530e-01,9.571588827602049987e-01
1.925003997185998742e+03,1.890930571521036654e+03,2.708186453179966520e+03,-2.064830626640510591e-01,-7.362686945543774897e-01,-6.444169102778622982e-01
5.829614589632366233e+02,2.348966562542681913e+03,2.375470440644409337e+03,4.846607207655980604e-02,-3.970879579550238847e-01,-9.164999691787113489e-01
2.309893488991387585e+03,2.356276147298039177e+03,2.469210000960806155e+03,-2.997054697889378061e-01,1.309382305152860526e-01,-9.450036037857834081e-01
1.936092115152022870e+03,1.934062703672198950e+03,2.663783157131865664e+03,-5.043159319976150143e-04,5.785239324174445974e-01,-8.156652532048283000e-01
1.944619794960356103e+03,1.864368517511784376e+03,2.687693712611212050e+03,1.002022147392556684e-01,9.678725344248637619e-01,2.306128211252336524e-01
7.810595667629924037e+02,9.345258895477049919e+02,1.207597817181369010e+03,5.609147739743803457e-02,6.953694606527467403e-01,-7.164600891570169772e-01
1.478966110819651931e+03,5.355682258900601482e+02,6.478963336033190217e+02,-8.234436245178636815e-01,4.128650933203777407e-01,-3.892081858831331065e-01
6.636180571053126869e+02,7.632356231224559906e+02,1.469276939209423290e+03,5.854621107202316425e-03,-9.928350413990831846e-01,-1.193495034835587304e-01
7.497745109327142927e+02,2.524162338042006468e+03,2.862653419605486306e+03,-8.419148100324662654e-01,3.955322485512657860e-01,3.670608846008738269e-01
4.564410453954745890e+02,2.328803724740150471e+01,1.284099134449035319e+03,-7.726964226315088946e-02,-9.969385569150841508e-01,-1.195475305450467880e-02
1.891929901348179555e+03,2.295391589973813552e+03,1.286759112963888356e+03,-2.752153754591663004e-02,-9.510619212240934983e-01,3.077722972729108331e-01
1.378461654037285143e+03,1.997489777265082921e+03,7.555821469261278480e+02,1.403922295355027050e-01,7.031501048263050224e-01,6.970437231399526645e-01
6.913408196408241793e+02,6.570361492181149288e+02,1.381048695591420028e+03,-2.588583121606494609e-03,9.991946447714202817e-01,-4.004199167795980535e-02
1.047998991657288798e+03,2.819899187219745613e+02,2.430549884736375589e+03,1.801775782047847496e-01,-8.075858189938335263e-01,5.615524777545888302e-01
2.395047734780990822e+02,1.960629510037582577e+03,2.716733162238245313e+03,2.979494897738875769e-01,-7.973225028663651764e-03,9.545483378153892806e-01
1.266279415933301379e+03,9.881623906217967033e+02,2.525138745213095262e+03,5.195967142516424442e-01,8.540935740099636631e-01,-2.331140008201493252e-02
2.000873646633978069e+03,1.907154259567106010e+03,2.660999288323879227e+03,-8.889737914110535516e-03,-8.162711888600544530e-01,5.776004837227992628e-01
1.950420978816607885e+03,2.261943659670723719e+03,5.495207371236848530e+02,7.956345853332191798e-01,5.864019037079619689e-01,-1.519816237224570488e-01
7.256742764803068440e+02,2.510689716336149104e+03,2.894738160512976719e+03,-3.603456858870505986e-02,6.965387971725087723e-01,-7.166137131677713379e-01
1.327002188796185010e+03,2.023032223628074689e+03,7.787778221433112549e+02,-1.531658790779844362e-02,6.231013552978450498e-01,-7.819911145024931454e-01
1.560781624784350015e+03,1.575826846635065067e+03,1.482919812395440886e+03,3.619545901672199806e-01,-4.840343761142109069e-01,7.966803608704098316e-01
1.767264595457007090e+03,7.684341094432520549e+02,1.341654497042494313e+03,1.184714161546562058e-03,4.230854529813669607e-01,9.060890110402548547e-01
1.233824705387044787e+03,2.772728358327224669e+03,1.858080533143654520e+03,4.159022380469089564e-01,-8.889198438574811290e-01,-1.919553062146595046e-01
1.142872702543905689e+03,1.547956794745810612e+03,1.987842792345919406e+03,5.364395795045378001e-01,8.247953842526508650e-01,-1.787320666710836281e-01
1.425233903538965023e+03,2.716884693773490199e+03,2.894671396013012327e+03,-6.143639923646907475e-01,3.437912206579424312e-01,7.101862301426578039e-01
1.524103753523301748e+03,1.445363454523925839e+03,1.531046965426236966e+03,-1.693256808401949823e-02,4.204777282199805011e-02,9.989721081886069332e-01
1.530508511158432611e+03,1.379275615603480674e+03,1.479182669566819413e+03,3.366588830310675523e-05,-5.522251788333800704e-01,-8.336949986230273169e-01
6.565669596067967859e+02,2.186904342963605814e+03,6.058543951388076039e+02,8.904719956011939927e-03,-6.760765033187865480e-01,-7.367776242685086796e-01
1.056749149667263964e+03,9.828662553997301075e+02,2.045058608355481056e+03,-3.261408316084107306e-01,-4.748431086131507106e-01,8.174082090121029820e-01
1.913594001900994726e+03,1.916042855136987782e+03,2.706048939509717457e+03,7.274292278580528626e-01,-6.806538599626795749e-01,8.693124510636131286e-02
6.375044593904566455e+02,2.628937401660373780e+03,2.938678416937759266e+03,-6.936247203438618281e-02,-9.840606488729951584e-01,-1.637482421674767430e-01
1.895170470895767494e+03,1.875683569143832756e+03,2.674013496987012786e+03,-1.865707223422182967e-02,1.441038924131422816e-01,9.893866695316996251e-01
8.291021171193227701e+02,2.719190408368795488e+03,2.784702764155408659e+03,8.995391646143862108e-01,4.237895945652277452e-01,1.059795775755500991e-01
1.472929258150574242e+03,1.426967103858318296e+03,1.548548032490842161e+03,-5.741827535207501276e-02,-2.607387527633799329e-01,-9.637003914407166194e-01
1.922543795270558576e+03,1.863525314101503909e+03,2.612627710764056701e+03,-1.751420205579253819e-01,-7.280511547967011277e-01,-6.627720487724850784e-01
1.237068009515945050e+03,2.800528366908613862e+03,1.811712715965605639e+03,1.176593554539182296e-01,-4.539309292619928549e-01,8.832343899178247693e-01
1.728636550730298950e+03,7.039586469311661858e+02,1.290874747182540659e+03,-2.788465573187660085e-01,3.564879298957094322e-01,-8.917179785729028030e-01
2.699604042610830220e+03,2.363923182351612013e+03,5.552095291029257851e+02,-1.381352610551940530e-01,-5.906440594532230692e-01,7.950209083324984993e-01
1.655960803503094439e+03,8.012291154162071507e+02,1.280524194129157195e+03,1.169463884660594810e-01,3.686646271529461227e-01,-9.221767373507774312e-01
8.152777101463258305e+02,7.469491312358150026e+01,9.623472510957024895e+01,-5.382299236267882453e-02,-8.852708606805113067e-01,4.619508509821297904e-01
4.400341873565614037e+02,4.441843554534497684e+01,5.922225555536408592e+02,-2.406812870388347347e-01,-9.702464579559488822e-01,-2.635012131405054317e-02
8.425679948105992025e+02,4.207557768584658930e+01,8.697379861206192686e+01,8.433396824798045088e-02,-7.483863383735808172e-01,6.578796777035545995e-01
2.257417984904222976e+03,2.302657250750389153e+02,2.516384883877427910e+03,-9.053999177557420230e-02,-5.378633692625395257e-01,-8.381560152470589609e-01
1.450010869074117181e+03,1.445039639400112037e+03,1.349801827382289957e+03,1.930502453362621107e-01,-6.331803045470372204e-01,-7.495427304092343590e-01
2.468659147718621625e+03,2.292379507778420248e+03,1.837044646098298017e+03,-6.404008852748732661e-02,-8.689385106157908323e-02,-9.941570930738661271e-01
1.317546477819648317e+03,1.940403475443575189e+03,8.653218876598001543e+02,-8.548621742513315969e-01,-4.256491579452655327e-01,2.967043265184594603e-01
1.523451121452562802e+03,1.489281288231126609e+03,1.446973976913870956e+03,-1.151680442085141041e-07,2.591350459140380202e-01,9.658410987212732168e-01
1.557138125637532767e+03,1.446337089656390845e+03,1.495269343521311157e+03,1.193965403500952677e-01,2.999005236471445901e-01,9.464693032891222657e-01
1.494105981694952789e+03,1.494167856738033151e+03,1.498811535569202306e+03,-6.941299402056777361e-03,-2.788516823300885572e-01,-9.603090948357672074e-01
6.394671802005127574e+02,7.425958598591597593e+02,1.501698954202558070e+03,-8.281934590898728512e-04,2.229488408448026399e-02,9.997510951428130177e-01
1.673393532992319479e+03,7.877062042998496736e+02,1.218080765988541316e+03,-1.932306816546174311e-01,-8.760757289912063372e-01,-4.417614975751263384e-01
2.291536838387458829e+03,2.121799411254962706e+03,2.812187982346925423e+02,-9.530420244990334133e-01,-7.383291082980580899e-02,2.936998481735761946e-01
1.695242697400690986e+03,6.812220578318540447e+02,1.361292495837666138e+03,2.140820861740310443e-01,8.885123914971144732e-01,-4.058504534128957175e-01
2.377345117625107378e+03,9.899508734974814672e+01,2.504669862517497222e+03,1.255311455698735802e-04,1.697801688111323926e-01,-9.854819524072446768e-01
1.990142121854558582e+03,1.876646824310743796e+03,2.686107165684413303e+03,-4.917750591092641226e-03,1.839985338211945487e-01,-9.829142156265594510e-01
1.310603501969618492e+03,1.957587266826853693e+03,6.302269768899288920e+02,-9.921396415566495486e-02,-8.435044107692147852e-01,5.278796248477470865e-01
1.326042652613381506e+03,1.982950335424768582e+03,8.527018477779165551e+02,-8.141182002938664175e-02,5.287089557567727915e-01,8.448899074211300153e-01
6.840290770212174039e+02,2.460382773323364745e+03,2.864289149687146164e+03,1.247085977701504166e-02,-9.995657407380695858e-01,2.669845686882313732e-02
1.484115908601309911e+03,1.381098257334410164e+03,1.449624188786217474e+03,-7.436341876442705295e-06,-6.887202328761138359e-02,9.976255030586235195e-01
1.538107307799780074e+03,1.108788876123443742e+03,9.910714271864862894e+02,-1.150761542756818939e-01,5.610810527484404175e-02,9.917708199173771444e-01
1.858629117273660086e+03,1.864851112328467934e+03,2.658284214424474612e+03,5.176283601640450406e-03,9.107300699133874522e-01,-4.129696669776509732e-01
1.477168281858288310e+03,1.397965390450466657e+03,1.372033756587125254e+03,-1.158223354055527565e-01,7.498770304111182505e-02,-9.904352735105014238e-01
2.877623005701446800e+03,2.274605597974071770e+03,1.723816048863628339e+03,3.763596027977423319e-01,-9.199752427017929834e-01,-1.095399570828043123e-01
1.899411993326001038e+03,1.903441731601128140e+03,2.613618808110099053e+03,-1.602083255986071764e-01,2.760812060716619307e-03,9.870793637421745315e-01
1.589363798613263270e+03,1.412398232577679437e+03,1.494471194166245368e+03,-6.446667153656250315e-01,2.176494525842863903e-01,7.328257240909714643e-01
2.236728196873454635e+03,2.426099733358013850e+02,2.523295458418170711e+03,2.546085605384513367e-02,9.694405523155888993e-01,2.440015580586556432e-01
2.861792495704540329e+02,2.860887983192315914e+03,1.522628776382269280e+03,-9.387972615991123371e-02,-5.778816605067081946e-01,-8.107030180443081102e-01
1.371138334717204543e+03,1.064325785328793245e+03,1.872626981394061886e+03,2.187454899010211895e-03,5.816182893215628980e-01,-8.134588991262703406e-01
1.497592930126950023e+03,1.550665486031138698e+03,1.475882140502214270e+03,1.008650642062159167e-02,8.132752295416508792e-01,-5.817917697958624457e-01
2.044198009187464095e+03,1.921679593663130390e+03,2.538778716284001348e+03,1.847206833769850232e-01,6.428252498598996389e-01,7.434069997486555392e-01
2.430320027750130521e+03,2.338813891217065702e+03,1.908477281086208677e+03,1.484624121947080155e-01,-9.793452743940306293e-01,-1.372652384524557789e-01
2.025689751630976389e+03,2.952632394564850529e+03,2.543577213118795498e+03,-5.626367609110213830e-02,-8.244470048417076313e-01,-5.631354499232426036e-01
2.261562783121547454e+03,1.409959515644711701e+02,2.625577890876152196e+03,3.080206176381633520e-01,8.313673992055968798e-01,-4.625489667569544494e-01
1.347158453322593687e+03,2.721348325878065680e+03,2.859659187400947303e+03,-4.635029635956897792e-02,9.371314032509103775e-01,-3.458849274952002784e-01
1.498340418570430757e+03,2.895086386248477083e+03,6.440265956045959683e+02,-5.801052686720027385e-01,8.047385081088670455e-01,1.259913125008966794e-01
1.568322078567615108e+03,7.683175547473579172e+02,1.244684635170938236e+03,-2.916436656356272694e-01,-6.967392715843594431e-01,-6.553612436868011537e-01
1.498651584935524170e+03,1.311033016114096199e+03,1.468525587890224870e+03,4.635251135952423956e-06,9.870310197672820252e-01,-1.605296421090936509e-01
3.958252387776395835e+02,3.826482143870000385e+01,5.737029967428032933e+02,1.211192996151545451e-02,2.171245298948164607e-02,9.996908874936226708e-01
2.695300019473885641e+03,3.113191873797785547e+01,5.325487296774227843e+02,8.656301131749500888e-01,-3.111427539614399773e-01,3.922686500627012851e-01
2.009736258363009256e+03,1.879690463157741533e+03,2.556262467739464682e+03,-2.158395186151166462e-02,6.761309151731271783e-01,-7.364652867373923106e-01
4.092846019762089327e+02,4.622417361993923279e+00,6.314396346909319391e+02,-5.926433058277407184e-01,6.781470761040466755e-01,4.346152956685940261e-01
1.907440095001511509e+03,1.948671426022224978e+03,2.660436916198877952e+03,5.302706026557744146e-01,-9.372119741250437008e-02,-8.426324377299085899e-01
3.629650065210587684e+01,2.837156729607941998e+03,1.938304732836965286e+03,5.148650170422394146e-01,-2.808947735629351850e-01,8.099457638701013096e-01
4.457449596410280037e+02,0.000000000000000000e+00,4.808693528269868693e+02,2.476739317112529662e-02,8.699898527800160597e-01,-4.924471873158712820e-01
5.623327051639377032e+02,2.629618188800163807e+03,5.278575916720751593e+01,-5.260405567408099614e-01,-3.009468450648352111e-01,7.954321649954450013e-01
4.463012544299978117e+02,5.682714483106046544e+00,5.562778288104947251e+02,2.148957633684999910e-02,5.959012318837715594e-02,9.979915908098909716e-01
3.766027715249045968e+02,0.000000000000000000e+00,6.316373110325118887e+02,1.869705085583482293e-02,5.179199069581481574e-01,-8.552247600869361532e-01
2.840890973310272329e+03,2.308562528478031709e+03,1.697955169746134516e+03,-1.026566050278889496e-02,5.950093178695829987e-01,8.036532385692320979e-01
2.949424653030520403e+03,2.966546828460159304e+03,2.779362849226487924e+03,-2.206907808829870754e-01,-1.069257865903976701e-01,-9.694650356744600739e-01
6.661985693390503229e+02,2.559233592649703041e+03,2.919581500797772151e+03,-5.448347896733326534e-01,9.469146644356262908e-04,-8.385428762527493696e-01
1.521669904956470646e+03,1.431716009282411960e+03,1.492692489587562704e+03,9.259215537284775808e-04,9.813795471108961443e-01,-1.920763576853972143e-01
1.206683008070214782e+03,2.621771549585941557e+03,1.920769127075369170e+03,3.354682531515924548e-01,3.855384301136743908e-01,8.595470726102802939e-01
1.572044054777144311e+03,8.443370085136035641e+02,1.302867288477109923e+03,1.453592787811701093e-01,9.748105656865513335e-01,-1.691598093463215768e-01
6.659702539210543364e+02,2.460018995007455032e+03,2.813834166762110726e+03,-3.240742209261067257e-03,2.855355641653521404e-01,9.583626344900489924e-01
1.717050123374493978e+03,8.014554759932555044e+02,1.298756353753006579e+03,3.852457636623805859e-03,4.764611311844425545e-01,-8.791870955835279222e-01
1.456655368205334071e+03,1.378514675315097747e+03,1.527240248520061641e+03,5.384333277812985985e-03,-9.365889020580496771e-01,3.503886948759198927e-01
1.812856460674057644e+03,7.812149300999124080e+02,1.377326371378404701e+03,-1.404083030909565361e-04,8.495609382177217173e-01,-5.274904667765407673e-01
1.434248607746272910e+03,1.482573837415031221e+03,1.544467118909586588e+03,-5.084869404870463738e-02,-6.304045628055994221e-01,7.745995723646008635e-01
1.432913144155226291e+03,1.121595424557830938e+03,1.875677527693110960e+03,-2.669255391927161450e-02,6.951293377266583029e-01,7.183889694287936001e-01
1.516151870702983842e+03,1.586694719132693081e+03,1.378817731428244997e+03,-1.911599631322275297e-02,9.992545144512225974e-01,-3.354093072358187155e-02
2.243458153500634126e+03,2.221607657083509650e+02,2.654971518514656054e+03,-1.650448068267180426e-03,8.219842173953298969e-01,-5.695078773591820687e-01
2.130011522563036124e+03,9.333957121809023647e+02,2.216737222799027677e+03,7.543670331817888819e-01,2.936518403523353804e-01,5.871107015769618798e-01
2.961798852217398689e+03,2.336709442424910776e+03,1.675826281615900598e+03,6.003351926364127394e-05,-9.725125029424476208e-01,-2.328506560364225209e-01
6.573793879870423780e+02,2.501118743395307320e+03,2.792387941083982241e+03,-2.633883449619452187e-04,9.784038259297946905e-01,-2.067024045155735346e-01
7.531980614943437331e+02,8.956288496244526414e+02,1.190726411742539767e+03,-7.147076952877635947e-02,6.946848770209531621e-01,-7.157547420320370390e-01
2.254375601554081641e+03,2.696314535010050349e+03,1.700890555805834765e+03,1.342201467403079385e-01,4.374601300776737728e-02,9.899854739110743873e-01
1.109651532289970874e+03,1.303228042514729395e+03,1.118521459139865044e+02,8.788548756107775750e-01,4.034287468667160925e-01,2.546749964498200569e-01
4.570924007999309993e+02,9.635616793016999964e+02,2.274215723639494172e+03,1.837427865640333668e-01,9.250494587545072811e-01,-3.324486234648556526e-01
1.861205789573153879e+03,2.314467210803921262e+03,1.313171279709237524e+03,8.741400687090181143e-02,9.477803309841470458e-01,-3.067103447918812509e-01
2.512595192821775527e+03,2.493180388128662798e+03,7.761714058913828467e+02,-1.089168110132820583e-01,9.842813634030069814e-01,1.390227533039628816e-01
9.402288832970544945e+02,6.543638761283955319e+02,2.795146696438509480e+03,5.925886948642271612e-01,2.916378585233283527e-01,-7.508568426771105031e-01
1.721234423622802524e+03,7.921199085274921572e+02,1.390016906860039398e+03,-9.289989414934943235e-02,-7.775725115668813414e-01,6.218927551617012828e-01
1.536690678377109862e+03,1.446753114564827456e+03,1.517322768583648894e+03,-3.383095537963776711e-01,-2.517768397894264432e-01,-9.067276706684015419e-01
1.949728035814002396e+03,1.920547869364046392e+03,2.668366222546909739e+03,-4.004906716552729673e-01,-6.723439009986519332e-01,6.225438946026402576e-01
2.643993638021119068e+02,2.933719298622153929e+03,2.054722023683880252e+02,-1.251842213436418494e-01,9.188250494678021907e-01,-3.742852377493360860e-01
1.435774757196448491e+03,1.440117499394582637e+03,1.442810244669599342e+03,-5.526983899653853274e-05,9.893902421267213310e-01,-1.452822966836382346e-01
1.733747921868973435e+03,7.816486394126836785e+02,1.364393924834106656e+03,1.280997499669053463e-01,5.199890528013304536e-01,8.445127820377804628e-01
4.809257372850864272e+02,0.000000000000000000e+00,1.250529674650870220e+03,-5.791571265435511984e-02,-9.982497072076002009e-01,-1.197047566635036156e-02
2.524068327163312915e+03,1.786716400826071549e+02,1.993082578624346979e+03,6.479214134388298074e-01,-7.141694365647707210e-01,2.648770618309317926e-01
2.876293210820545596e+02,2.983592554797993671e+03,1.477374709794993350e+03,5.549458215125093255e-03,-9.076661002598712669e-01,4.196563522128025636e-01
3.564623951771886823e+02,1.648037925702414896e+03,1.158697335372929047e+03,-8.691334010301711155e-01,4.838862384190152632e-02,-4.922049088503839265e-01
1.976560209022392655e+03,2.860022704349837113e+03,2.940895254227537862e+03,-2.533912886375717100e-01,-3.689967928402471675e-01,8.942226913449482506e-01
1.442977905519264141e+03,1.420199903203015310e+03,1.534298123375119758e+03,-1.873858540804020090e-02,-7.743528396491608512e-02,9.968212689415181238e-01
3.086768883887031052e+02,8.314725902825725825e+02,2.278985276792962850e+03,1.941715147868967395e-03,-6.887789267514780045e-01,-7.249688405754876053e-01
1.518020942335112750e+03,1.168693559594423732e+02,1.922862104388912030e+03,9.385710200392622937e-01,-2.678597694781667538e-01,-2.175674245781340499e-01
8.317817439739347947e+02,1.610238634742554723e+03,8.466361490522875783e+02,-4.621961832112904123e-01,-6.498532374366591258e-01,-6.033783705255006957e-01
2.266190525883501323e+03,2.595010743140550176e+02,2.515892773535350443e+03,2.062575364337175254e-01,-5.880965013046447754e-03,9.784800677146208159e-01
2.759095842753381021e+03,2.311716183226466455e+03,5.634268362985305885e+02,8.341880627944649185e-02,-4.899943354289332809e-01,8.677251027868621014e-01
2.241511800120747012e+03,9.308984660230859163e+02,1.138160278473535072e+03,-3.307624457077800173e-01,7.249008999500222705e-01,6.042473746414258606e-01
2.483442693897619847e+03,2.273145096056535294e+03,2.876138584931130936e+03,9.045535240540538702e-01,3.685340531967403188e-01,-2.143958342780341031e-01
2.287659064301815306e+03,1.433243546922796554e+02,2.625642817110283886e+03,-1.587673873614142131e-03,7.887439229002306540e-01,-6.147198576421831762e-01
4.399813953929426589e+02,5.646159232646756010e+01,5.933264938864720079e+02,-1.520336428826217223e-01,-2.146162690790896430e-02,-9.881422822662256911e-01
1.483529328659028579e+03,1.462815983547212682e+03,1.514621002466515847e+03,-7.041105228998036439e-03,-9.899814861871575333e-01,1.410215580818087733e-01
2.823913928016347654e+03,1.897682788117436985e+03,3.111649451367207462e+02,4.511262489520956320e-01,8.917026641449832258e-01,-3.676229404092216935e-02
1.696925033402673080e+03,2.854998702229692299e+03,1.461081829068360207e+02,2.847200275368579336e-01,8.706493307462628284e-01,4.011287184813568385e-01
8.519633323241970402e+02,4.262694502284198848e+02,8.764732483068950160e+02,1.712443872390341792e-01,-6.027134313702214863e-01,7.793663320191994703e-01
2.783232368203033275e+03,2.120675936335117058e+03,1.473162177429369876e+03,9.717046902709974843e-01,-2.358641275818748884e-01,-1.257410932773828094e-02
7.666243217934946870e+02,2.423102488884201193e+03,2.935789147331099684e+03,-1.478694333139998485e-01,3.561609763363471903e-01,-9.226505241024558490e-01
1.524580459007484251e+03,1.324824215346043275e+03,1.500450383103460126e+03,3.240083254758264716e-05,5.633297417185412215e-01,8.262321713934333012e-01
7.248294529775233741e+02,2.468465590028052702e+03,5.643936765111672003e+02,-6.385073635281147686e-01,-4.431359884602111693e-02,7.683388911656690023e-01
1.435749368343231708e+03,1.491218817199815931e+03,1.518739258741374897e+03,2.397144620324414698e-04,9.447178061716403619e-01,-3.278844449485513457e-01
2.469164036385711825e+03,2.337421817261665183e+03,1.832965887489660645e+03,4.394068307561268399e-02,-9.741484755379204996e-01,-2.215941424722102093e-01
1.677588408985413025e+03,7.738705166332595127e+02,1.215188284301030762e+03,6.955498313634810893e-03,9.709417423191357699e-01,2.392148700760258762e-01
2.285800505353070548e+03,1.925061425351982223e+02,2.529080806708942418e+03,-8.109769569163910452e-02,-9.261450241985984544e-01,3.683457043399364084e-01
1.500839549566839878e+03,1.404154394216777519e+03,1.531376448596897490e+03,-4.978790768389866617e-02,3.049255037885198819e-02,9.982942294833987429e-01
2.025079889510028806e+03,2.001807253654587839e+03,2.628559648742982972e+03,1.765691360632603776e-02,7.185851546559517411e-01,6.952147933624404086e-01
2.081944365434196129e+02,1.048970413872146992e+03,6.977048472595374733e+02,6.367946887197656336e-01,-7.654422472257392807e-01,9.268597833711035572e-02
1.418194631007275348e+03,1.792832533939407540e+03,2.378904459567331287e+03,8.113774906402050346e-01,-5.780206206880914577e-01,-8.694095549139913004e-02
2.350114341690336460e+03,1.712042930564635128e+02,2.468520815331257381e+03,2.769234530261775393e-02,9.851414502162574305e-01,1.694976609792885891e-01
2.502791882403032105e+03,2.537513126150744938e+03,7.760702697220681330e+02,-1.599999460231859433e-02,2.829294822968822509e-01,-9.590072513906994223e-01
2.235613520528200297e+03,2.645324437395236714e+02,2.596297987730639306e+03,-2.242327693080238549e-01,5.263287360272779214e-01,8.201815206406338765e-01
1.264596819701241202e+03,2.028495637999604014e+03,4.056314099134934850e+02,5.294203947913381919e-02,5.574232503287650520e-01,8.285387501189699355e-01
2.877992115160229332e+03,2.393113095312017322e+03,1.836360302460765297e+03,6.777769039853920839e-03,6.388430268215077312e-01,7.693072526165189995e-01
1.647160410093054452e+03,2.957546210778767545e+03,7.729170940828730636e+02,6.575051547826230580e-01,-3.277197566480264390e-01,-6.784443474131369722e-01
1.570187849135984152e+03,7.862252566825260374e+02,1.334419337782999264e+03,5.689325061194003968e-02,7.272253823922153471e-01,6.840368420189829601e-01
2.850169639162522230e+02,1.324046828281259423e+03,2.126446032517429103e+03,1.199802299290109453e-01,8.628006855326931790e-01,4.911005207393862593e-01
2.549318726629550838e+03,2.523006561219793184e+03,7.914871590247580571e+02,-6.562398720156259165e-04,1.457826697961366047e-01,-9.893164218470958948e-01
2.278500951050972617e+03,2.711712540837577762e+03,1.652908704863182493e+03,-2.304579630595026962e-01,4.295716641416000292e-02,9.721336374779606659e-01
5.800550426502785513e+02,2.332643026814628683e+03,2.328462072324939527e+03,5.556340286639385728e-03,-9.570520839889130604e-01,2.898627875652504127e-01
1.062451002255737876e+03,1.507686265281573242e+03,2.080499669996050216e+03,-9.820388370688399871e-01,-1.736933873173732434e-01,-7.369077072942897821e-02
1.506000149108720052e+03,1.541533924125861859e+03,1.499820016928616724e+03,2.050500994225513685e-01,9.784725864764218795e-01,-2.336352372701755442e-02
2.258913521497861893e+03,1.606177848212468007e+03,2.981358150923400444e+03,-1.839529917842436246e-01,-5.174042461890837608e-01,-8.357356895808220054e-01
5.426200955341641929e+02,2.350147597477895033e+03,2.399248097278887599e+03,1.829838947928920934e-01,-2.867888666875350601e-01,-9.403558051027829379e-01
2.440457139408550233e+02,2.938680724551555159e+03,1.477426290536229544e+03,1.508042472595913508e-01,-8.224892281053045595e-01,5.484246061759158186e-01
6.302398214742543132e+02,6.355760682498304277e+02,1.353478311886989786e+03,-9.276354487545541375e-04,7.925148430019545165e-01,6.098519190049839223e-01
2.762383902700354383e+02,2.909477199595814454e+03,1.508266775278947762e+03,2.843162934019655697e-01,5.564905102767591094e-01,7.806936385536131784e-01
1.492397963845580762e+03,1.471585224061914005e+03,1.445700260146860046e+03,-1.325686345694153098e-05,-1.755106760960641055e-01,9.844775276259778440e-01
1.460085296017902238e+03,1.410319108491469251e+03,1.394001250157092500e+03,2.435119572495898430e-02,-9.818830848139421530e-01,1.879165427071863292e-01
1.411336116296383807e+03,1.449062591230110229e+03,1.548550910882654762e+03,6.587449401740995414e-02,9.426658273400954080e-01,-3.271722619709129809e-01
6.455727567976964565e+02,2.341323789507672700e+03,2.047650644207822552e+03,-2.498844142386431599e-01,-8.169234398570615063e-01,-5.198017631104344671e-01
2.935875044806705318e+03,2.330757598450206387e+03,1.701024384330774865e+03,3.158886229377820265e-01,-9.421412834136188019e-01,-1.121792315279929869e-01
1.261502469318932526e+03,1.972193602382744530e+03,4.154387922780544500e+02,3.604621339432766414e-01,-7.224199737720944370e-01,5.900647688925222401e-01
2.362631447173354445e+03,1.075917591747468833e+02,2.530019237274284933e+03,-1.567011026918922190e-01,4.829640668231597461e-02,-9.864645059588922349e-01
2.925386170864609085e+03,2.387264978239550146e+03,1.814213161025833642e+03,6.745075754482232448e-03,-7.625295310015302030e-01,-6.469182470016229258e-01
1.649779980401054672e+03,6.875998125914331922e+02,1.333990267679211684e+03,7.921611645439231852e-02,-8.465637833509472854e-01,-5.263597321342264879e-01
2.285719411429287447e+03,2.447471928932492119e+03,2.509865685918785402e+03,-6.681065162437885285e-02,-7.574482246731932822e-01,-6.494678773957598406e-01
1.499645214507718947e+03,1.410504945064482172e+03,1.511616997276266147e+03,-2.026311769199427848e-01,9.694684792352364910e-01,-1.380995072741273144e-01
3.882820476824634852e+02,8.096282278089768170e+02,2.256904423607364151e+03,-4.826220118328657382e-01,6.845472645224471853e-01,5.463250281007012710e-01
1.838767925271254398e+03,1.914474541193784944e+03,2.695016449536478831e+03,2.745162472785332014e-02,6.172985637573633610e-01,7.862498912450783806e-01
1.510154261916014548e+03,1.340311871727803691e+03,1.424268697200914403e+03,-6.918870503802505567e-01,6.762732670027914450e-01,2.528770014324901449e-01
5.211676464010016616e+02,1.966261172883941072e+03,2.705067873132778459e+03,3.887801202681370194e-01,-4.756738854690656382e-01,-7.890401591598841247e-01
8.528179418195327344e+02,1.142754372487265982e+03,7.472555343666559793e+02,-4.678248527057358719e-01,8.664730977219536889e-01,1.742534880998893865e-01
2.626761248193301981e+02,5.417254885303003675e+02,1.040738048463138739e+03,-7.166247499078314265e-01,6.889260092498451504e-01,-1.087654430350950691e-01
5.386134537528027977e+02,2.318923840048767033e+03,2.286282676780111615e+03,-1.865873919887096610e-01,9.023542790889993448e-01,-3.885124195706282091e-01
1.242051311364498133e+03,1.957326120985149373e+03,3.630201850840581415e+02,8.071137649913928680e-01,-4.572531953641009728e-01,3.734794314158921824e-01
1.577293255445813884e+03,2.836220807298663658e+03,2.683289273361843698e+03,1.169652272623533107e-01,6.165908185244469708e-01,7.785466576402589878e-01
5.897872031779365898e+02,6.822373646240101834e+02,1.379590313581120881e+03,-5.275457758432838817e-01,3.163632612618670903e-01,-7.884223115270542204e-01
2.892460726019789945e+02,1.369114406385859184e+03,2.084670998924790638e+03,-1.318279474453874223e-01,7.484873799873613676e-01,6.499138668100501448e-01
2.463375389898765206e+03,2.551917064512067554e+03,8.166892587912918771e+02,-3.037726684559598489e-01,-2.695940307834951977e-01,9.138059008701210351e-01
1.225364437225261867e+02,1.361013916223982051e+03,9.327932760428648180e+02,2.441084474830758078e-01,2.958800630136247389e-01,-9.235074738075788048e-01
8.865912744080492303e+02,1.176350636825309721e+03,7.684011472034851522e+02,-8.320401221935355696e-02,3.481206794900553181e-01,-9.337500119742884186e-01
1.130846234232012876e+03,8.179529282707846960e+02,2.765699609636859805e+03,6.044549865905183283e-01,-6.797075068529484509e-01,4.154899208327507698e-01
2.222719897192966982e+03,1.518015870497278286e+02,2.541828614710480906e+03,4.042428754771598687e-01,-9.833724496974598217e-02,9.093500337481259521e-01
4.914137097876327971e+02,2.359372610223855645e+03,2.420881193115140832e+03,-3.736330623759374081e-01,2.705872590838600544e-01,8.872321398152024363e-01
7.627150585242650038e+01,2.579777418337678228e+03,1.520351512478243308e+02,-7.819615893866705969e-01,6.183125729555718486e-01,7.890269227936785867e-02
2.268484100101716194e+03,2.093789535958051715e+02,2.599981711933273345e+03,-9.411153055463701289e-01,1.298533719400210562e-01,3.121539419295694673e-01
2.681619104636887187e+03,0.000000000000000000e+00,5.155283751798517642e+02,-7.797990334112249178e-01,6.158296570845374074e-01,1.125491045991062894e-01
1.546216776628804837e+03,1.407147099483643387e+03,1.506634213340541010e+03,-5.315097303034226339e-01,3.023159972256845851e-01,7.912663549110519057e-01
2.868246367946958344e+03,2.269959668425561176e+03,2.446248930643512267e+03,1.340608317402333938e-01,8.282330038364382752e-01,-5.441119229985567074e-01
2.233301475425351157e+02,2.160655347115474342e+03,1.007837644258436740e+03,-6.893506083565771325e-01,-3.188540216480288958e-01,-6.504827835056785634e-01
2.903801851577440175e+03,2.433764579676019366e+03,1.827157253091137136e+03,-1.515923060369528787e-03,9.266214797510700096e-01,3.759924670006200009e-01
1.544152641937461794e+03,1.395554963940410289e+03,1.522492271068139189e+03,2.825814692844133471e-03,-9.104204890349864021e-01,4.136744467774361445e-01
6.388914467482513828e+02,2.195964441726802079e+02,6.281661641826015057e+02,-2.646140290358792724e-01,-4.428061372241511306e-01,8.566808860211747589e-01
2.141183599410953775e+03,2.259034817326337816e+03,1.462898472197389765e+03,-4.810897878412522255e-01,-4.233258153834894566e-01,-7.676899569909474419e-01
1.642479027343032612e+03,3.684165264299502383e+02,1.106384027038546947e+03,2.025005426371392914e-01,-9.254280196346141851e-01,3.202756792309094380e-01
2.708092262491252768e+03,1.335189593533502602e+03,2.250458855543466143e+03,1.542415868546660740e-02,8.555250463649975989e-01,-5.175316322419473147e-01
1.576601089179359633e+03,1.463459975750719877e+03,1.518939502844361641e+03,-2.007503206288827722e-05,-9.735286766913111567e-01,2.285649038165260272e-01
1.501801008324539453e+03,1.439842086339289608e+03,1.528843431365015249e+03,1.498016593960587416e-02,7.543682892687454400e-01,-6.562804878816438370e-01
1.478685104329068963e+03,1.439134155830663758e+03,1.432124194971073393e+03,1.227021241896515541e-01,8.528553552585369513e-01,-5.075253015625743602e-01
1.393359902340511667e+02,1.397692086252571244e+03,2.878263888244393343e+02,9.476205979563987469e-01,-2.789129970286040039e-01,-1.556365715931806171e-01
1.890000755887358991e+03,1.914804848573224717e+03,2.541274891470295643e+03,-5.567659173889574209e-01,-8.160297891073452492e-01,1.552646016433057163e-01
1.374420212612825253e+03,1.882107036047801103e+03,7.927828548451172992e+02,-8.009189352850906371e-03,6.652304348735519346e-01,-7.465951522772267257e-01
7.360286140491650713e+02,2.547349187231838187e+03,2.806311907066572076e+03,8.264014028768131848e-01,-4.127363861036230097e-01,-3.830266268934264806e-01
2.909451928011322707e+03,2.512521804243280258e+03,1.866969273439282688e+03,-3.294957496368618455e-01,-3.102466264375957627e-01,8.917284237677598480e-01
2.317057043759636599e+03,2.752197220992063649e+02,2.597790571379484390e+03,9.595904661689955706e-01,2.596800089386252508e-01,-1.084086260184370237e-01
4.719809168646847297e+02,9.952919417529051316e+01,1.308428690758101084e+03,1.849161709751562244e-01,-9.193300353891717958e-01,-3.473302401796175554e-01
2.392844361518049027e+03,1.626538266733393129e+03,5.764463994730828063e+02,-7.221570911247715552e-01,-6.084958706022771668e-01,-3.289709883837557136e-01
1.500842668822546557e+03,1.071682683551789523e+03,9.979438953366325222e+02,7.987587300189254516e-03,9.921009807411275139e-01,-1.251872296267268203e-01
1.168333504081644776e+02,1.441853005211685741e+03,2.903572429206207062e+02,7.834239621170666079e-02,1.417287648282942146e-02,9.968257613685606033e-01
2.212143806380272054e+03,1.708131089670252322e+03,1.544929127813979903e+03,1.313857350604512864e-01,9.274810499946445352e-01,-3.500238427928255014e-01
1.971402037881781553e+03,1.927461202355484829e+03,2.582298870691896809e+03,9.604762173183398200e-02,8.386722804272758180e-01,-5.361004200731160907e-01
1.054396285719096568e+03,9.525429993847681089e+02,2.048760965263917569e+03,-1.725519915128484461e-01,-4.947743272187687946e-01,8.517183662163007041e-01
1.134214575446696927e+03,1.532015340524169460e+03,1.933435020674100997e+03,1.559388698591778200e-01,3.712398729313178686e-02,-9.870688316599313117e-01
3.521809102785265395e+02,2.976359894728695053e+03,2.705196759951816148e+02,3.214639821604778347e-02,-8.863874860145855017e-01,4.618266273380935427e-01
2.288579646404325104e+03,2.696386813181834441e+03,1.701573896526614590e+03,2.135839019198906841e-01,3.051550563126095156e-02,9.764480123164485104e-01
1.062947092036990398e+03,9.358876805876815297e+02,2.107545424719129642e+03,1.689899044433834097e-01,4.950844379341968748e-01,-8.522521994759512109e-01
1.568026755373779906e+03,1.094845065154217536e+03,8.790713051370929634e+02,-9.508292413567611149e-04,2.669687951281242144e-01,-9.637047049545786059e-01
1.419209142147075909e+03,1.402032151785463384e+03,1.363485862016279953e+03,-1.748338834727000968e-01,7.433300340007964468e-02,-9.817880208045819401e-01
2.123512451705876629e+03,2.659883260249457180e+03,1.898573199776951014e+03,4.165950658782531790e-01,-1.980756131215668792e-01,8.872511496596717784e-01
1.509897967701692096e+03,1.417051215523103338e+03,1.506122482067746660e+03,-2.757932524474463257e-03,8.554054430086032168e-01,-5.179516597902220632e-01
3.002624402812789981e+02,1.354471409116714540e+03,2.171440555413418679e+03,1.310456009870759365e-02,5.859518123485190078e-01,-8.102399299652575104e-01
1.469322710689314590e+03,1.447790664090391601e+03,1.472393033483554063e+03,-6.241139268746725809e-07,-8.587400672625830067e-01,5.124114527188722290e-01
1.583814770725940207e+03,1.396955455503044050e+03,1.439829057505271749e+03,2.375596980509305151e-04,1.047099725357229505e-01,9.945027728553389457e-01
1.341886695372849999e+03,2.004999735180771950e+03,3.572775659282767151e+02,-1.718866971878382343e-03,7.782498469346675884e-01,-6.279524036441771484e-01
6.982435292783785599e+02,7.551078470999124193e+02,1.409033166494858961e+03,8.542357435277938681e-04,6.309682379698809962e-01,7.758081934050954365e-01
2.242149372081800720e+03,9.509063279178319306e+01,2.610262097143657684e+03,3.261323525710840276e-01,8.260757178069448869e-01,-4.596048270592800744e-01
2.221459374193693748e+03,1.599455595540917727e+02,2.596235931053610784e+03,1.070656979843307016e-01,9.326538252185317956e-01,3.445196345933978499e-01
1.717304574532338961e+02,2.881057998902177587e+03,2.269757210651437447e+02,-1.668029910615692335e-01,3.212480070855134318e-01,9.321890795951752740e-01
1.980163703385391727e+03,1.816222836650299769e+03,2.570928023186163045e+03,2.252630571211415578e-01,6.372700850136165940e-01,7.369826279113880219e-01
8.785649420439447113e+02,2.726268772153902773e+03,2.766434764914003154e+03,6.624180804539454570e-01,7.267540930454366999e-01,1.817437067119935801e-01
1.346042007133350353e+03,1.989495281533333127e+03,8.068572387510541830e+02,6.519585406256463989e-01,6.660962202456793824e-01,3.623063436923192882e-01
1.785829843556960213e+03,1.341399335452810817e+02,4.635165288876108320e+02,1.910530945880486164e-01,9.214867806056021848e-01,3.381727786464383545e-01
1.482162486443634862e+03,1.405262843429627992e+03,1.421148390019129238e+03,2.052951419091303601e-05,-4.700247915402061549e-01,-8.826532132814817189e-01
6.884794345726820666e+02,2.537289171828641884e+03,2.976785548564232613e+03,1.483385018900892915e-01,2.076074005322627869e-01,9.668996101463898096e-01
1.131136409793397206e+03,1.491215246838370149e+03,2.000721175885744060e+03,5.018501328657556382e-01,8.453345366753227674e-01,-1.831828737806588947e-01
2.339675397764153331e+03,1.189866204695790657e+02,2.462702396843366387e+03,-3.758420128619573597e-04,-3.036306882477187719e-01,-9.527897270106338024e-01
2.997531043508563471e+03,2.357123245186005533e+03,2.064361499357864034e+02,6.737829889886275403e-01,3.732961177475567216e-01,-6.377040788831082052e-01
3.268740393915800269e+02,2.864608790472191231e+03,1.528199241998157731e+03,1.000912164786428443e-01,-7.092332205843199233e-01,-6.978323489230194854e-01
2.732312392411620863e+02,3.502175238739250176e+02,8.510869018169340734e+02,-2.385436936392295593e-01,-2.234067971706674705e-01,-9.450853449307621279e-01
1.444167051485456795e+03,1.414522972286853928e+03,1.439728110869169086e+03,-3.377287081620186388e-04,9.406350262878792057e-01,-3.394195534434047978e-01
4.815549094485790533e+02,4.528664042628707875e+01,5.686524242704402923e+02,-7.477890578567167323e-02,-5.943700471295756266e-02,-9.954272237186652106e-01
2.483479015048670590e+03,2.422134056027376118e+03,1.806210036927462397e+03,1.518523500570806732e-03,8.606360064624093420e-01,5.092183799381301279e-01
1.938450963370081354e+03,1.892046357616198520e+03,2.555611902847024339e+03,-1.901684961388383152e-02,-6.939801685401435494e-01,-7.197429298741021553e-01
1.539304985936789990e+03,1.484209395109318393e+03,1.462128497484001628e+03,8.841653005092467432e-02,-2.843218167484360959e-01,-9.546431907967618535e-01
1.423770641408185838e+03,1.107916867894584584e+03,1.871891925000738183e+03,5.207466962871708626e-06,-8.223150893094001157e-01,-5.690324189946963651e-01
1.511616624240270085e+03,1.471755290183380112e+03,1.420976474428206529e+03,8.453202542950963641e-03,-9.811894788264887701e-01,1.928619973114750474e-01
1.036980552823218204e+03,2.713600410895968707e+03,1.350616745664235168e+03,1.897503156344078068e-01,-3.413144728195848243e-01,9.205972237414858927e-01
2.838789460134980345e+03,2.313898057057767346e+03,1.647055237983348434e+03,-9.492153074729697826e-03,5.927898894140938291e-01,8.053012144771869441e-01
2.875342861033351710e+03,2.266546820478259633e+03,2.493684494338249351e+03,1.526313304734446680e-02,-4.512018654108695959e-01,-8.922913836966770429e-01
2.479620294296860720e+03,2.446476987712208938e+03,7.732246482624947248e+02,-4.254083094949821092e-03,1.781922048873159081e-01,-9.839865044269754391e-01
7.199366574569712611e+02,2.394940206721576487e+03,1.491707418016282190e+03,6.681436198613377453e-01,6.233278739870662388e-01,4.062591103585890817e-01
1.406482250766127436e+03,1.390715612119137404e+03,1.453919263191379514e+03,8.260396531743945461e-04,3.315595734028878305e-01,-9.434339229343974287e-01
2.958263018181035477e+03,2.442051250642612104e+03,1.818490658178632884e+03,2.445802699379259542e-04,2.215650519088833703e-01,-9.751455624434258729e-01
