x,y,z,nx,ny,nz
1.094164128690579446e+03,2.793452944779429345e+03,1.027666618392662485e+03,-2.694846882764518892e-01,-3.962529846970003766e-01,-8.777024409805764815e-01
2.963911395125941453e+03,1.180086371407783190e+03,1.732930380307692985e+03,-1.085008584040573869e-02,-9.521456314229953533e-01,-3.054520784007882517e-01
5.094869367781392953e+02,2.087385959223712689e+03,1.723031651636970764e+03,8.361733176629659869e-01,1.502606324629948004e-02,-5.482594278731800497e-01
2.283823482455441990e+03,7.652950055927592530e+02,2.891957667827487057e+03,-2.225517588002813019e-01,-8.472659405895073270e-01,4.822977716845464613e-01
1.824868644370970515e+03,1.311865347779301601e+03,2.461677593103625441e+03,3.074708810625772885e-04,-5.215276154851465895e-01,-8.532343474966501695e-01
1.435998870573442218e+03,1.465926775601862118e+03,8.247206069438034319e+02,-9.092711085327613851e-01,-3.444329960220975928e-01,-2.336492294848091511e-01
1.387771495536933571e+03,1.472721585249389136e+03,1.352238068131194041e+03,-2.383377368236638989e-03,8.511252185791101654e-01,-5.249573142751536858e-01
1.577437210317849804e+03,1.453151018257160558e+03,1.803299635220178970e+03,-9.152399645517237392e-01,3.599233271432679127e-01,-1.810828701602654467e-01
1.876337798208367531e+03,1.712599826238281366e+02,1.403864930674961897e+03,-3.246248303072597069e-02,-2.190236547026182951e-03,-9.994705548736030343e-01
7.573901607263026108e+02,6.057930314540967629e+02,1.170027497497676677e+03,-3.865670521240009427e-01,2.831851665893951875e-01,8.777084229035839735e-01
6.169606126877123415e+02,2.195886367239386800e+03,2.114025481118603238e+03,2.388092747007418970e-01,3.941690896652719767e-01,-8.874687932932382450e-01
1.253958916909612981e+03,1.828041353648045970e+03,2.574654421888891648e+03,3.200562178829347709e-02,2.208711955267608218e-01,-9.747776952518579785e-01
1.244346880204211629e+03,1.856121818577442127e+03,2.688083442098799878e+03,8.429988377046232148e-03,9.195366742055387510e-01,3.929137820018278049e-01
2.774025550330655278e+03,4.071448901303320866e+01,2.326472561230533813e+02,6.278801444287784861e-01,-7.730707096230455821e-01,9.015654249702054202e-02
2.046848241574488384e+03,4.185494491659754885e+02,5.732838450175972866e+02,6.190376238441298168e-02,3.592870342474617229e-01,-9.311717087757324096e-01
1.411709122754171631e+03,1.587900273338637362e+03,1.446077599057796306e+03,-2.453265709871914682e-02,8.021416660725991798e-01,-5.966296139867276471e-01
7.243949668041160521e+02,2.297490674207164375e+03,2.246853791111389000e+03,-1.864212677803369257e-06,5.100509521260191415e-01,-8.601441892100800679e-01
3.035523820265489690e+02,1.601363049587454043e+03,2.950581478001495270e+03,-9.950176144185310934e-01,7.337109544732764443e-02,-6.750280993939973551e-02
1.465154166749478009e+03,1.502191383081059712e+03,8.678459204855060989e+02,1.284873651417151597e-01,-9.779515943664064404e-01,1.646258669685398968e-01
1.616687441101906415e+03,1.388944752192871192e+03,1.509971745750192667e+03,-1.338592431679137273e-01,-4.424223142109215967e-01,8.867605082020544316e-01
3.224970752056913170e+02,1.744762507429760262e+03,2.103150701768199724e+03,-9.754197693518290579e-03,-7.806893209394601962e-01,6.248432121728141331e-01
4.928929953992815740e+02,2.845191348463708437e+03,2.299994476177736033e+03,-1.125973721241317199e-01,-1.120450328889474045e-01,-9.873032676921791317e-01
1.025853329069951315e+03,6.659863732746094911e+02,1.278593376451773793e+03,-8.579960239701471536e-02,4.451790327820254189e-03,-9.963024690280514184e-01
5.238859422621284239e+02,0.000000000000000000e+00,2.618980770243165352e+03,-9.837212449560271965e-01,1.757687419273359086e-01,-3.738798715423774510e-02
2.422093947146809569e+03,1.026694764392231036e+03,5.446654672440536160e+02,-1.456342859995175647e-02,-9.765685940732695691e-01,-2.147130355082609299e-01
1.220116743428627387e+03,7.503851708276081922e+01,1.002820347671257764e+03,-7.558207847580168540e-04,1.175026094217472006e-01,9.930722861473990637e-01
8.255655573511862713e+02,8.186432729550380145e+02,1.878237912916673849e+03,-2.164136639478102531e-01,7.108078516623123067e-01,-6.692662579810015888e-01
8.953395889729389410e+02,2.146745261917956668e+03,1.201981748176012616e+03,1.384344680088063582e-03,-6.719492326436594665e-01,7.405959170420830517e-01
1.173461997642497408e+03,6.656989919070684891e+01,9.715832575167569303e+02,-5.067134574338006542e-02,-4.036981312346128725e-02,9.978991396473552156e-01
1.469294740286089791e+03,1.447474927983935913e+03,1.426528571250772757e+03,6.815286101241690986e-02,3.072349004541394812e-01,9.491901303104437471e-01
9.842460823340757088e+02,2.814626719273323033e+03,1.254804214313179955e+03,-5.501620336579544635e-01,-5.184513007165486576e-01,6.546220172791796799e-01
7.606922780910322217e+02,2.053042956891858012e+03,1.834767317907278311e+03,5.437582209745247530e-01,-2.748328741652142915e-01,7.929652504370587884e-01
7.815563358471994206e+02,2.439812042109610047e+03,2.287415680828653421e+03,3.827335442046131964e-01,2.090821373884216988e-02,9.236221525812524646e-01
1.621083776664413563e+03,2.830576708958506970e+03,1.882125547088959820e+03,-3.422036583636473006e-01,-3.268700598509928501e-03,-9.396201210057889552e-01
2.827303484301382923e+03,1.386486036201615661e+03,1.806089167564461604e+03,-6.946357330390114937e-01,5.364647389517768206e-02,-7.173585255811555372e-01
2.245467362565455460e+03,2.225304934009188401e+03,0.000000000000000000e+00,-2.131264448894287962e-03,-8.841043372610004614e-01,4.672846868324875835e-01
2.240479620809569042e+03,5.407509430738278979e+02,2.926839169634722111e+03,-2.044065116183563496e-03,1.296081162723756453e-01,9.915631891080503024e-01
1.032541420631600886e+03,1.749026116876330661e+03,1.470066658838382409e+03,3.150113786637210311e-01,-3.659893067695161317e-01,-8.756823959876953722e-01
1.260925375710650542e+03,1.831673346580110092e+03,2.575775864079894291e+03,7.631159032788204649e-03,-9.223558134912704931e-01,-3.862661242338926715e-01
1.369196599220133749e+03,2.602718360995434068e+03,2.133280838923780266e+03,-1.286528481798194303e-05,-6.845768654242561091e-01,7.289406801382294354e-01
1.626304484489842253e+02,2.204391445419416414e+03,2.197159025039390144e+03,3.044509450898708058e-01,3.080845209374259430e-01,-9.013287690918565520e-01
2.234532819224138791e+02,2.529258453882142931e+03,2.967283229566672162e+03,4.829389025084239173e-01,3.681820674797026682e-01,-7.944885031454707036e-01
1.194482242065940682e+03,7.450442505856974549e+02,5.459706122368205570e+02,-1.431630289071333939e-01,-4.018483788640635490e-01,-9.044458123947831663e-01
2.250272266535868766e+03,8.888181169749141191e+02,2.780438485808325822e+03,-1.894446430917471561e-03,-8.830739161144018912e-01,-4.692300818906379734e-01
6.518425196063336671e+02,2.809886624308785485e+03,2.414919582010784779e+03,5.471241469157562404e-02,5.082235964708834430e-01,-8.594855017211271431e-01
2.029025804067380477e+03,2.888149015687309884e+02,2.786937060923565696e+03,-5.663967711675259586e-01,-4.956751954912974600e-01,-6.584077750039600829e-01
3.781281288300282881e+02,1.683354638798685073e+03,2.072448662508428242e+03,-6.978254053466714790e-02,7.782310668934367959e-01,6.240887785871740423e-01
2.091352483332600059e+03,5.683971052318431703e+02,5.490522638096493893e+02,2.556464160659657064e-02,4.327499189351520226e-01,9.011514616096152341e-01
1.564905882571086295e+03,1.438958405308942247e+03,1.392092327936294851e+03,-3.498734999087410591e-01,3.810726099220271279e-01,8.557874736339757815e-01
2.472561361098260477e+03,1.504991573490915698e+03,2.874479532329894937e+03,1.372643514134986309e-01,-2.462576359747244426e-01,9.594350809487693921e-01
9.123829657689667556e+02,7.210285790613972949e+02,1.164589179680297775e+03,6.736514315653295837e-01,6.838227137007795164e-01,-2.803216812465345598e-01
1.204376751448527898e+02,2.868117680278205171e+03,0.000000000000000000e+00,-7.672640120880669379e-01,-3.931653571013642989e-01,-5.066822847997347612e-01
2.753129373288814350e+03,2.089972873039575632e+02,2.970645095097986996e+03,-3.742717149257846106e-03,5.655788318863864683e-01,8.246857443841085766e-01
5.258768561779731243e+01,2.366730492891490940e+03,2.468524672024349456e+03,9.365919727661592420e-01,-3.493456779233167220e-01,-2.744219135368449608e-02
2.760614720646543901e+03,1.017300838770794144e+03,1.479465833594429796e+03,4.389640027850371523e-02,7.963491902718137228e-01,6.032421347983046855e-01
2.552659782454154538e+03,1.442589743463075251e+02,2.127626632368745049e+03,-8.748383441977897190e-01,3.211124204989221353e-01,3.626908944577920679e-01
1.478486310702232913e+03,1.490782778588018346e+03,1.557032345264078458e+03,-1.414026722726683671e-01,-4.750521843283367351e-01,-8.685221392912355620e-01
2.105129863660133651e+03,5.523219946212115019e+02,5.775755639880452463e+02,1.288485279204073519e-01,9.621678618133289174e-01,-2.400647049158015911e-01
2.681907264702059820e+03,2.828076853817779011e+03,2.852445768030425484e+02,-3.622261832615817495e-02,-8.715183910185175797e-01,-4.890231242365660203e-01
5.322698912293103604e+02,6.775753414213941141e+02,6.971584589877276130e+02,-3.453563470651322964e-01,-6.536284439874835428e-01,-6.734232330060561100e-01
1.252192730288525581e+03,1.789755005587702044e+03,2.578716929741987315e+03,1.798797621425740709e-04,-7.438458381704691202e-01,6.683512075845630118e-01
1.527352858430048855e+03,1.574519388356291074e+03,1.502354597948979517e+03,-2.018013158206581892e-01,-9.734247828777837785e-01,-1.082608932735668189e-01
1.534349912360602957e+03,1.465983036680575651e+03,1.546525387898918098e+03,2.038976162343462555e-06,-9.997637964274285194e-01,2.173364554919166025e-02
1.927204251710477592e+03,4.288217961973983705e+01,2.818332967243892199e+03,7.555312000397971239e-01,3.697786134852333872e-01,-5.407738739763252589e-01
1.391983836930211055e+03,2.083514844181223452e+03,2.803044096981546772e+03,9.317487106341041381e-01,3.528917769026083673e-01,-8.550867807541130683e-02
2.786012430968420176e+03,2.824756732439239386e+03,2.492472059171340334e+03,-2.083024790817913363e-01,-3.587131101866573579e-01,-9.099093261356292484e-01
2.891909829227830869e+03,2.694013103231019954e+02,5.479625201484818717e+02,2.283157617717396226e-02,-1.256981922541666463e-01,9.918057690865185183e-01
2.261823530640552690e+03,9.665778093379376514e+02,2.452465540451042258e+01,3.594233292438646643e-01,-9.318830748362899596e-01,4.907958056990691792e-02
1.487594849646373632e+03,1.410423662376246511e+03,1.415332229747352358e+03,-3.490617874081000660e-01,5.552828637810716672e-02,9.354530870029631462e-01
2.945891890192677693e+03,1.155651626139462678e+03,1.702899379662766478e+03,4.704805476577474388e-01,-8.355983325242910542e-01,-2.835903400299283339e-01
1.222005822432414334e+03,1.864623893864987394e+03,2.152581408705596004e+03,-4.015048300279119853e-02,7.602626563190184594e-02,9.962971171536683102e-01
1.470205981301980955e+03,1.577280722899510010e+03,1.631019624466337063e+03,-5.718304835224946939e-03,3.255385898280926393e-01,9.455114634538008822e-01
2.549556484207915219e+03,2.311570398113202828e+03,6.757855836243927570e+02,1.546369539807960769e-01,1.294167857466219443e-02,-9.878865954243996050e-01
1.875721133259640283e+03,4.786994477907668966e+02,3.363121398405097580e+02,6.413803956275488938e-01,-7.650233684895494379e-01,-5.805543703695726504e-02
1.168964054538097571e+03,2.775009880591258479e+03,2.537508135930567619e+02,-3.117110628021507387e-04,-9.999458545519740449e-01,-1.040148068958802498e-02
2.074541702142690269e+02,2.274191935064981863e+03,2.796018004932763233e+03,7.783577626356159573e-01,-5.651695820077223820e-01,2.733908135217686386e-01
2.281870456033223945e+03,5.738521224419304190e+02,2.851482189084552374e+03,-1.043055502095331516e-01,-9.859769030190755901e-01,1.302685645441716555e-01
2.203456531931249174e+03,2.378428664519478559e+02,6.220521663249421636e+02,4.631249537093945490e-01,-5.907172634214510332e-01,-6.607332229784901312e-01
1.946395684613561798e+03,3.533061821866486980e+02,5.204232921540605048e+02,1.894392884252052434e-01,-6.997355748481658144e-02,-9.793959655082672411e-01
2.963545284498811270e+03,1.288847937072040168e+03,1.779966250279721635e+03,2.147553247460722448e-03,8.685140145921129706e-01,4.956599585120229357e-01
2.117307594486361268e+03,1.148673889316788973e+03,2.499291826210385807e+03,7.527567271795653214e-01,4.522171712184526737e-01,-4.783899452759121096e-01
2.083159482737207782e+03,6.838252943549168776e+02,2.723862375777972375e+03,-9.838272921416009176e-01,7.565410176919071250e-02,-1.623586034764465946e-01
2.026133474706317202e+03,4.853900058719455615e+02,5.628562084258119285e+02,2.449566811452154411e-03,-2.280362119834520029e-01,9.736495702493143112e-01
8.204761790918764746e+02,5.862334750790993212e+02,2.609647954635398946e+03,5.501547345170898495e-01,-3.247682508899313869e-01,-7.693213576278283838e-01
1.516097354299296967e+03,9.550242946955040679e+02,8.655691814705052138e+02,-7.170308140680580200e-01,-2.220277712506288081e-01,-6.607348034350668531e-01
1.556185046589668445e+03,9.914228076020389153e+02,8.567872867862739668e+02,-5.613432475544120198e-02,-9.623858294675698977e-01,2.658241012855458996e-01
2.564033153563551650e+02,2.136245827013926373e+03,1.121589971579777966e+03,5.648771354389438282e-02,-9.658269257084809434e-01,2.529574821883855962e-01
1.347939259923647114e+03,1.645720585232081930e+03,1.708701117139327380e+03,1.758793154772609058e-01,-6.588643140274541565e-01,-7.314125252471292971e-01
2.896305625580714150e+03,2.529965698063670516e+03,2.261670493395180074e+03,3.106612373110873571e-01,-9.368179212098589614e-01,1.608159759861648441e-01
2.822423914251085534e+03,7.712623198420776589e+02,1.829524758894580600e+03,-1.255340539052317850e-01,-2.380747628426750639e-01,9.630999992770856721e-01
1.409261508904443644e+03,3.809732756503520363e+02,1.071537302825979623e+03,8.827074948531600240e-01,-4.358598857399436088e-01,-1.756520382256409052e-01
2.344414786995941085e+03,6.585430774897540687e+02,2.196122474377058097e+03,-7.183089786025461665e-01,-6.735440218586556949e-01,-1.742718045968241203e-01
9.728136738214805064e+02,2.957614760739892972e+03,1.094327287511707254e+03,-8.973825414849855298e-01,-4.999507338636961090e-02,4.384119830422519848e-01
2.187353705105621884e+03,2.313108037779484221e+03,7.079880402826100294e+01,-1.223584180108084913e-03,-9.328129745108785231e-01,3.603587898552236268e-01
3.735198378905287768e+02,2.543727506879778133e+01,1.096479182818313348e+03,5.737363056399846784e-01,8.069388522523680551e-01,1.402723790210072263e-01
1.582612983789280463e+02,1.431313732778779695e+03,1.470569437688638118e+03,9.874483434194562120e-03,-3.139168653738183545e-01,9.493991237676511208e-01
1.488271189183606793e+03,2.881036855282066426e+03,2.622315101207094358e+03,3.016413034484882183e-01,7.504885002103781760e-03,9.533919449811826263e-01
1.544489289864641933e+03,9.478051513163463824e+02,2.968990228392642621e+03,1.892735046536960300e-02,-8.728270116997399741e-01,-4.876625503887531687e-01
2.524019760506012972e+03,2.664670778837693774e+02,2.873817275479331329e+03,9.973241859237628182e-01,3.652619926968846131e-02,-6.332696849222127500e-02
1.569777352597466233e+03,9.933084520398329005e+02,6.641649658480263270e+02,4.150704959013118422e-01,5.283184444853381567e-01,-7.406727378868698253e-01
1.887797661752675594e+03,6.071344571770029006e+02,1.583342188578297737e+03,9.476972716403832264e-02,-8.718047954847855108e-01,4.805986864141277293e-01
1.443654434601166940e+03,1.429305532895918304e+03,1.456005922667750383e+03,-5.673225601560956052e-03,2.134890614553404953e-01,9.769289816307998864e-01
1.507467941100085000e+03,1.192273210026348579e+03,4.999881774483009735e+02,2.586184997995245594e-01,-2.815533944244753492e-02,-9.655691318711073778e-01
1.182912874547936326e+03,1.731216559072419159e+03,2.627588155748140252e+03,-2.136649276150605963e-05,5.435728963336772246e-01,-8.393619635859670414e-01
5.540165855493595473e+02,2.877271911059401191e+03,2.339376257232249372e+03,1.349816645374532780e-04,1.188959458403636843e-01,9.929067105436821805e-01
3.288306289506887765e+02,1.531957789621607162e+03,2.611264300033965355e+03,-5.906126916831302420e-01,-7.641100401186876612e-01,2.594465166708264103e-01
2.689151001695573541e+03,1.964731447347231551e+03,8.510156616497197319e+02,-7.228168690959289877e-02,-6.517082627626625824e-01,-7.550176805773332056e-01
1.846178444787864919e+03,1.291412910109904715e+03,2.361659796376733084e+03,-5.655750597708838340e-03,-5.075386093343781102e-01,-8.616104528846559862e-01
3.972981461725296981e+02,2.277515527780509274e+03,2.362800487509441041e+02,-9.793412042807893292e-02,9.712443181372907297e-01,-2.170100977881164739e-01
4.370262737034453835e+02,2.182524448186917198e+03,2.005820246100173847e+02,8.193450305566348790e-01,3.833261858994659876e-01,4.263035961681711505e-01
2.555536896492607866e+03,5.315789489996830071e+02,1.693034265819022949e+03,7.835794687264459046e-01,-2.376697238785621114e-01,-5.740351196066916240e-01
2.986863031445254819e+03,1.710119638498375707e+03,2.024021333948961455e+03,-3.849510056544738212e-01,9.159058422826902301e-01,-1.137066898561610445e-01
1.631538835597378920e+03,1.462407097231858188e+03,1.796247401738050257e+03,5.553493190984423178e-01,-7.428930318965261126e-01,3.737607215003784233e-01
8.362529433410952606e+02,8.794373926685999550e+02,2.114345550183162231e+03,-1.896798906670076335e-01,6.111815128565056821e-01,7.684261170854260747e-01
2.907113562670562715e+03,1.187410345993333294e+03,1.732162402330393888e+03,-7.723812722762968264e-02,5.530752016567570539e-01,-8.295433038815430704e-01
2.565391711482902792e+03,2.061350643849571952e+03,4.682987672628526639e+02,2.763355521676940166e-02,-9.982070907113569369e-01,5.309416803803029133e-02
4.299463765129961530e+02,1.325865358487347976e+02,1.181539364153402403e+03,-4.437847693717161257e-01,-8.409061397363650769e-01,-3.097288211119169632e-01
2.390933638759039241e+03,1.740443868539790174e+03,3.330251185288744864e+02,3.557764078491675308e-01,-4.934118847228816662e-01,7.937051465324869159e-01
1.602499864253440819e+03,1.432621741631269970e+03,1.409695833960579193e+03,5.073858919707567583e-02,8.486048595953895601e-01,-5.265884425596325524e-01
2.842385565280228093e+03,7.539186634256428761e+02,1.966740442978940564e+03,2.981705798899983995e-01,-8.921723217622402613e-01,-3.392975885110823819e-01
1.623396686097946485e+03,1.435121344700429745e+03,1.502898101951296212e+03,2.949669983763215236e-03,7.344792514651798943e-01,6.786247332761575768e-01
1.655003744051468175e+03,2.261944374814599996e+03,2.034464931149238737e+03,-2.613701258975813235e-02,6.299891893825989575e-01,-7.761639503570999521e-01
2.129879754008999498e+03,2.548478796069682176e+03,1.500932573364436394e+03,-5.193847884988391783e-01,-7.163350835766004732e-01,-4.659436548696859748e-01
3.188818880234805988e+02,1.520177661406207108e+03,2.517472754223558695e+03,-3.922096773583295115e-01,9.121705828596538002e-01,-1.188124435905368731e-01
8.115775158374724469e+02,2.842345464782081308e+03,1.733325008870912143e+03,-2.393283599386322180e-01,-6.663998679230471733e-01,7.061396123722487594e-01
4.494625483053332573e+02,3.526138875599481821e+02,1.443850318154290107e+03,-1.537563371254718481e-01,-7.588799530070924337e-01,6.328192520125406340e-01
1.250419133804291505e+03,2.094895770363729753e+03,2.683160108815340209e+03,-5.541679594035759937e-01,-1.613695336655478901e-02,8.322484433788519542e-01
1.565033593165945604e+03,1.646260212837294148e+03,1.597002143467084124e+03,3.411399443867219961e-05,-8.118666270655994222e-01,5.838429400903656363e-01
4.731405441476189822e+02,3.968382686423527730e+02,1.472505462525073881e+03,-4.565042302515470024e-02,3.862441820702850470e-01,9.212662322556280925e-01
2.539387350230796528e+03,8.984746842423453472e+01,2.591870138451806724e+02,-4.467439724870922446e-01,6.371304826453334513e-01,-6.280800674520540250e-01
3.176931321413741784e+02,2.954183611995575575e+03,2.125937849169293258e+03,-9.790068004893378584e-01,1.303343388090176004e-02,2.034104574423400980e-01
2.853437346969141117e+02,2.711052578795970021e+03,1.793412723081414697e+03,2.385015262976582229e-01,-6.459713094924205423e-01,-7.251469432234647350e-01
2.172600673133184955e+03,9.141386035755651562e+01,1.090699968830120952e+03,5.339607978872543820e-02,1.322398381046800964e-01,9.897785024343800364e-01
1.274232629505682098e+03,1.333861668325296932e+03,1.571503446412235917e+03,4.186094369764597478e-01,9.477991712737501850e-02,9.032070120318925754e-01
2.504391332109147243e+03,3.215448944077666624e+02,3.000000000000000000e+03,9.248384641089242575e-02,9.403979422925315967e-01,-3.272589926724991383e-01
1.098388746914087506e+03,1.146550419885781821e+03,2.360106986360254723e+03,-8.681091497076320884e-01,3.241189376307265779e-01,-3.759433713513531394e-01
1.397974480154406820e+03,1.406251574234444661e+03,1.397763674082600801e+03,8.622441642526922079e-02,4.908291375102095677e-01,-8.669787239506547838e-01
2.093819707950231077e+03,5.213616288184882706e+02,5.550659296423813203e+02,-6.260368199508706266e-02,9.779510738427260597e-01,1.992297070482134946e-01
8.220413097520918200e+02,2.233296534940433503e+03,1.266079572781743991e+03,-2.986202551796915969e-04,6.939267403955425850e-01,7.200455470246035494e-01
2.572534630733889571e+03,1.997047831264866772e+03,4.770453790256581783e+02,5.428043613624454651e-03,-2.593111000827325388e-02,-9.996489953359967151e-01
1.453212848808320587e+03,1.328026511061912970e+03,1.509568371781817632e+03,-6.365644729605553220e-02,-9.140288995900077706e-01,4.006232986633755933e-01
2.750997204437686833e+03,7.402151625203363210e+02,1.239923017144672485e+03,-5.067681328732172030e-01,-6.627212908230171173e-01,-5.513497530552339265e-01
2.945669979615349348e+03,1.200661616876960352e+03,1.768485772867994683e+03,-3.962531943625618447e-01,5.093226853619353678e-01,-7.639200273151456333e-01
2.032262441609471750e+02,2.287063165560355174e+03,2.748781723448608318e+03,1.653322097316253791e-02,4.233567134640536800e-01,9.058122022633432469e-01
8.978561353246684007e+01,2.955385298373266778e+03,2.842401242437015867e+02,5.264695480976043784e-01,-8.445262549126667517e-01,-9.800622270595794883e-02
1.321198111555390824e+02,2.484656221706472479e+03,2.371346503943853804e+03,-5.322111079488906805e-03,-7.477189806125050797e-01,-6.639939767538963755e-01
1.539642248838321393e+03,1.499282899403143801e+03,1.538325089734124504e+03,3.534922014492412612e-01,8.664108293423127272e-01,-3.526691626906654498e-01
2.126505079258282876e+03,2.706640650873323466e+03,7.506462511104533633e+02,-6.247432345957729671e-01,-1.993152004845111513e-01,7.549631392873628055e-01
1.975529630298030270e+03,2.815782025452829203e+02,5.955301974229770394e+02,6.482852069367222789e-04,8.735436513422164539e-01,4.867453840828885325e-01
1.917806336415979558e+03,6.202193484219504853e+02,1.363305719692213415e+03,-8.797727159036994055e-04,9.985214727084020803e-01,5.435158268360183731e-02
2.063597373113886988e+03,4.775390798549609599e+02,5.912710848467201004e+02,6.855419534400973569e-02,-2.770781248119484341e-01,9.583986827262596098e-01
1.487430349817235538e+03,1.491320249780307222e+03,1.495397923185838863e+03,2.159567154278581053e-03,-7.055718806357739181e-01,-7.086350665369328672e-01
1.908936183740797787e+03,2.711504682826166118e+03,2.479795552116572253e+03,-2.185184181986052909e-01,-4.691463541844959062e-01,-8.556584594704683688e-01
2.020629290145163168e+03,4.022427345738856275e+02,4.840209983168075496e+02,-8.474075355756826092e-03,9.750757339595812478e-01,2.217104036576747483e-01
5.475479986177178944e+02,2.312528648476444232e+03,2.179092295492146604e+03,-2.349211289073932785e-01,-3.034466477431678189e-01,-9.234349978023952410e-01
2.050898102541492790e+03,3.712347745496999778e+02,6.170782390655949712e+02,-3.969420635132886802e-03,-9.160728383261030894e-01,-4.009922674827767208e-01
1.673607819973600954e+03,3.109433351558137701e+02,1.137655037021791884e+02,1.943608187196959366e-04,4.949930566879721661e-01,-8.688969076102009970e-01
2.000509770816103355e+03,4.681282033978446862e+02,5.511860058107106397e+02,7.381957464445611065e-03,6.340361638103662045e-01,-7.732681615614519499e-01
3.615955156313900716e+02,1.753176130000435023e+03,2.106655604891282564e+03,5.877196379307006707e-04,-6.759796569473437433e-01,7.369200485663141009e-01
1.461124908822438101e+03,1.455224463791258131e+03,1.478302831030943480e+03,-5.575507345320380725e-01,-2.248025916917137379e-01,-7.991251298710819739e-01
2.849305214458873252e+03,2.461738416889313157e+03,9.378764245748375288e+02,-7.875695734681861238e-01,-3.547214487513801195e-01,5.038917152949247136e-01
4.031614367408229214e+02,7.477342528570389959e+02,1.886971783181869569e+03,6.984530216791109969e-02,-4.096835196214642094e-01,9.095499148016246149e-01
1.472777228970925080e+03,1.463085523736011055e+03,1.508189892764697106e+03,2.601763920128793166e-10,8.656250756399160862e-01,-5.006927485228735986e-01
8.725953548369632244e+02,2.593741709067272950e+03,2.816795710611462255e+03,5.507502665687551424e-01,-8.244457893541521365e-01,-1.302431736815963248e-01
5.254995212117343044e+02,1.995384571491839552e+03,2.035472457248085448e+03,-8.415643800721598344e-01,5.243901022227394071e-01,1.295546791304209577e-01
8.108434355628660342e+02,1.671726713458139329e+03,1.460585907288725821e+03,-6.591983137303605300e-01,7.436618773348425693e-01,1.114656690370026126e-01
2.536513944782700037e+03,2.145165991420763476e+03,9.379950075869093951e+01,2.562837497525486622e-03,9.995465951426548701e-01,-3.000060003878023129e-02
2.158305235126817479e+03,5.092404991707570616e+02,6.103352002053406977e+02,1.672785083758153825e-03,-9.858817386730889254e-01,1.674347608502814166e-01
1.216927638603477817e+03,1.747989377106476923e+03,1.615760073213124315e+03,-8.399503053158097199e-01,5.419494285650443555e-01,2.782627315865493847e-02
2.071216011545880974e+03,4.087498355685152660e+02,6.623264764687412480e+02,1.068183135079465579e-01,-1.311131809760567313e-01,9.855958510838292996e-01
2.582478959612668405e+03,1.925934106320419232e+02,2.865244948928171198e+03,1.950060355123220152e-04,9.618563582875171436e-01,-2.735549451107063268e-01
1.727237400747977517e+03,1.379654045631961935e+03,2.707423329315090541e+02,-9.525149836672293369e-02,-8.673422283818851275e-01,-4.885126517547320191e-01
1.042722355810505860e+03,1.981241061781976214e+03,1.850169074570091254e+01,4.204736123309628093e-01,3.431588934109333633e-02,9.066555912098490655e-01
1.618539893085570156e+03,1.029086840247568517e+02,1.294037989723976580e+03,3.965932182773173609e-01,7.392610480566349507e-01,-5.442489522660065582e-01
1.923030613120372209e+03,5.513448183710659123e+02,1.305946494582398600e+03,-3.407869799244243056e-05,6.518879858418142881e-01,-7.583152726628580309e-01
2.048115818903152103e+03,4.911705235415856805e+02,6.552085378768142618e+02,-3.529229568456379029e-01,9.103829238481664365e-01,-2.159822180111030665e-01
1.624254621330920259e+02,4.115209320776282311e+02,7.500036697742522165e+02,5.153468876600839632e-01,5.798950114542646972e-01,-6.309828532294066150e-01
9.290208722893279401e+02,2.095938673733589440e+03,1.218413611273444076e+03,7.352387881860609868e-03,8.264550700474053713e-01,5.629546692100289018e-01
1.081198512627898026e+03,2.716915478160156908e+03,2.324267837673985014e+03,6.960738469166651010e-02,7.643983270508294403e-01,6.409758260638849237e-01
2.767266619097309558e+03,2.100559291102029533e+02,2.962400668955996935e+03,-1.874841476089595116e-01,-7.872018717024802381e-01,5.875056660011491738e-01
2.047974089066001852e+03,4.598807107350875185e+02,5.800396500082085822e+02,-1.715257568846689437e-02,3.587451286913211357e-01,9.332779445521569572e-01
1.651447668066788538e+03,1.381188768889125413e+03,2.611379390258666263e+03,-9.665472052042357598e-01,2.153723769104363139e-01,1.392883318007287485e-01
3.580187947323047126e+01,2.238859045101086394e+03,6.126794003382914298e+02,-1.557734395599599531e-01,-9.845188566040372624e-01,-8.035705643400993525e-02
2.913908930296607195e+03,1.582469084318451223e+03,2.657337785429667747e+03,7.768245354337741659e-01,4.838849052988925536e-01,-4.029876419593816372e-01
1.708015440851089807e+03,7.259271812461870468e+02,8.304791089907440664e+02,-4.612553630809520210e-03,-1.667643984050560524e-01,9.859859835583885124e-01
8.090937624805072801e+02,2.216476160767331294e+03,2.421434355337930356e+03,-2.889198799104392701e-01,7.469641104490057915e-01,-5.988070813656624081e-01
1.154498137356871666e+03,2.703344777003828312e+03,1.204021398102519925e+03,8.003581614232768704e-01,3.017812095472554579e-01,5.180298398812055449e-01
2.710710077369299597e+03,2.227512609619461728e+02,3.000000000000000000e+03,4.466564081554204313e-02,8.321403820061420431e-01,-5.527633898561020720e-01
1.184173210175330951e+03,1.878750863562109544e+03,2.204566355611740619e+03,1.586663815693361082e-02,8.858971117259129002e-01,-4.636103506494245186e-01
1.916384573460677530e+03,3.460181650748045286e+02,5.507758258628283556e+02,-9.149478355276101371e-02,-8.795169627868051343e-01,4.669888829007679543e-01
2.139201712603664419e+03,1.200575532636191383e+03,1.215059895052944739e+03,9.901940503533818161e-01,-1.301092571144015220e-01,-5.086574346161754079e-02
2.452305617559787606e+03,1.551774292599029422e+03,2.900710443301578380e+03,-2.294026022753319904e-01,-2.419808256717753681e-01,9.427723617483235730e-01
2.509157166142996630e+03,2.392781501875271260e+03,2.562980662916356323e+03,-5.239807867247761042e-01,-8.506325973615922464e-01,-4.322406099796882728e-02
2.399288384413004678e+03,2.867362904494179475e+03,1.435025976333509163e+02,3.675180762261674727e-02,-9.829751168662864691e-01,1.800256211159423914e-01
2.574887905673844216e+03,1.805101618284825008e+03,2.395651255196970396e+03,7.413939508304162596e-01,5.294052220518007390e-01,4.123895252505209164e-01
8.820540346023922211e+02,2.099039102897650082e+03,1.229435257569001578e+03,9.924093786238744725e-05,-6.482259266232095474e-01,7.614480535169274589e-01
2.268163730074718842e+03,6.113613300026365778e+02,2.814727169850458722e+03,-4.656296495614694123e-03,8.683753706760248547e-02,9.962116045594819891e-01
8.460998855369899729e+02,2.021233304453086248e+03,2.527227390495807867e+03,1.534907981053674764e-01,-1.897167010991383240e-01,9.697670587419628951e-01
2.003105087198691763e+03,4.703123464533829861e+02,5.900634139843967887e+02,-1.320270798615739256e-04,4.061362894816660241e-01,-9.138125064447929491e-01
1.782653500928282483e+03,6.182507633644768248e+02,1.824336168866451771e+03,-5.616749224343817737e-01,4.329952317770042192e-01,7.050080926958993688e-01
1.267538203573521542e+02,2.916479984450398661e+03,1.586297532697433432e+01,-1.135628608947850671e-01,-8.395383066067932942e-01,5.312992644124304720e-01
3.934238274007867631e+02,2.216533727645423824e+03,2.135734682859134409e+03,-3.813884103771634365e-02,5.173080306081314639e-01,8.549490220315105748e-01
5.260871708488563172e+02,2.773783657380810837e+03,2.281703082597695811e+03,-9.454540130224933225e-01,2.276965845616223671e-01,2.329613157557172132e-01
3.052237232007220200e+02,1.717141131423693878e+03,2.092300109241549308e+03,-1.749971349754127908e-02,7.630091839385783059e-01,6.461507140388290660e-01
2.015447152177061753e+03,4.270712463178246594e+02,5.641065539934252229e+02,-4.031746000848310252e-02,-2.030920927754422400e-01,9.783292412427196938e-01
1.281972961564488742e+03,1.846057711970217952e+03,2.649239324017009494e+03,1.684706811897820344e-01,4.892180412656136346e-01,-8.557355535909952904e-01
1.312340536880903301e+03,1.918286856261621097e+03,1.748086301914519709e+03,9.082541982515091039e-01,2.685855410203871196e-01,3.208365916059050527e-01
9.997760095699625538e+01,1.972587682532411009e+03,1.262189789381115133e+03,-9.685208421460559380e-01,1.854533612743923809e-01,1.660555001218700089e-01
2.549615160211068542e+03,1.099811190963462423e+03,1.070447886988043365e+03,-2.141667086825890243e-01,-2.293399706510315383e-01,9.494923900452552079e-01
4.652428458383803331e+02,2.763007607320302668e+03,2.202180284628979280e+03,-1.107763732569058274e-01,7.577201075764029570e-01,-6.431087261905650276e-01
1.567292263574359595e+03,1.496967493021164955e+03,1.561196964356216995e+03,2.239716839047471014e-02,-9.560605860646074206e-01,2.923123716538319483e-01
1.780600591802754707e+03,1.059646820619856953e+03,1.566979586265109901e+03,-4.122725797195244124e-01,1.336100976424460691e-02,-9.109625697192438309e-01
1.170244163794112865e+03,1.793021280232941081e+03,2.681667011476388780e+03,-1.338902293233504813e-02,-9.773083845832519767e-01,-2.113978606518809034e-01
2.440725239853686617e+03,2.244803943869096202e+03,5.406081219488702345e+02,9.479728284210010569e-01,2.282193391841595975e-01,-2.219537109350344650e-01
2.988803614904533333e+03,1.464589974166310640e+03,1.116074291915759886e+03,2.792927796293776521e-01,-7.434715588106484141e-01,-6.076558108720433449e-01
1.225622740605915624e+03,9.773704774924972583e+01,9.486428484879127154e+02,6.806996483271241058e-05,9.784545727224727152e-01,-2.064622107916200822e-01
1.689822813636615138e+03,7.662516869535413662e+02,8.566855241510102132e+02,-3.550907567690234079e-02,-9.978170975122413466e-01,-5.567894985376620198e-02
1.915470232731707938e+03,7.297359303174688421e+02,1.277420265792710552e+03,4.270341217693043694e-03,8.403295034632201066e-01,-5.420591202029005906e-01
1.398845880029924274e+03,1.825659598673128812e+03,6.510655549143324379e+02,7.936464508760934233e-01,5.681053287547780384e-01,2.176732561712770853e-01
2.411868830892502046e+03,2.875096271478645576e+03,1.132920569646268234e+02,-1.628843417029459534e-02,9.984074256051057583e-01,5.401203022350965083e-02
1.160827819292888307e+03,9.278336449597616138e+02,1.250552018860955513e+03,-5.216137655307160337e-01,2.618746724367633227e-01,8.119979898651259465e-01
1.976192440965036212e+03,7.438330617454009825e+02,1.378215700820119991e+03,-3.661935533330650666e-02,-9.345408930333408692e-01,3.539665832581077587e-01
1.408672023224868326e+03,2.612900570495735337e+03,2.136946599764738949e+03,9.338035936840086704e-01,2.791947710897066948e-01,2.237434428513989104e-01
1.185027217077392606e+03,2.452002102087427374e+03,2.278381339333710457e+03,1.653682886023600737e-02,-6.755496323198569852e-01,-7.371290440375778408e-01
1.982835529089423289e+03,2.934034179874442088e+03,1.830797000504514472e+03,-3.085705059880197720e-01,3.573588858728135031e-01,-8.815207708965449029e-01
1.412635253569132828e+03,1.453200968766309643e+03,1.090940631445868121e+03,1.440958715584757461e-03,-9.184289942068094570e-01,-3.955832481769775422e-01
1.983584139855668354e+03,2.251621406137219310e+03,1.805719182649906543e+03,3.186808277725747957e-02,9.923520145922308799e-01,-1.192556264284528322e-01
2.284332493918872444e+02,1.888249052587805409e+03,1.944795762270720161e+03,3.888395775795646658e-01,9.121279777943800404e-01,-1.297163637806757475e-01
1.258777609391647729e+03,1.798435438149496122e+03,2.578585653579514656e+03,-2.090898865555311514e-02,-6.592516932979974875e-01,-7.516315713679974087e-01
1.358458217236328437e+03,2.676170086928552792e+03,1.994999922678969142e+03,1.253896119922827575e-02,5.961344859773404226e-01,8.027866771942446800e-01
8.962061916435613966e+02,1.514576185869311985e+03,2.914041215052793632e+03,3.797568464103637242e-01,7.174615425345306496e-01,5.839808837525656271e-01
2.172405062420456488e+03,2.276728595936211150e+03,0.000000000000000000e+00,1.839967520079087773e-02,-2.084033432844236700e-01,-9.778698780821404313e-01
2.366664522546212481e+02,8.426170976693690591e+02,2.208407352605303799e+02,-5.830928276654270270e-01,-3.409709519781010667e-01,7.373883401792329373e-01
1.441148655792439513e+03,1.392985661040798277e+03,1.432827941326940845e+03,7.453022890342066165e-02,4.235631756386332714e-01,9.027953706253261101e-01
1.912494248216963797e+03,3.730176816706901377e+02,4.980665956822042517e+02,1.361755906718522223e-02,-9.999070474175832945e-01,6.772072817787756424e-04
2.284490422219042102e+03,1.642718055276351151e+03,1.285835616295673390e+03,1.473869224270032280e-02,6.926362273966983896e-01,-7.211364832322963991e-01
1.356156265375646399e+03,2.646582038311756605e+03,2.115796360796175122e+03,1.398776872101171152e-02,7.915447058434366134e-01,-6.109511608773935398e-01
1.542302833074433693e+03,1.499318892057919811e+03,1.566970109743256216e+03,2.012154174770071358e-02,-9.923055383809084029e-01,-1.221672708063460400e-01
9.698042859794003334e+02,1.825161714544416554e+03,1.502098422156041352e+03,-3.236673687314505637e-02,-9.077504076096505337e-01,4.182601963236494691e-01
1.582636029359644454e+03,1.543693987647313861e+03,1.563537121385938008e+03,5.268635732019747442e-01,5.302830053345454209e-01,-6.642399487280253867e-01
2.460437970500660413e+03,3.045271040197975481e+02,3.000000000000000000e+03,4.200228006943949599e-01,-2.397758046953292824e-02,-9.071967386028587654e-01
2.406056289376052064e+03,1.402617954648236264e+03,2.323820501237959434e+03,-5.417492264495026022e-04,1.146104050027015736e-01,9.934103691692032223e-01
2.888434433939069095e+02,9.448932853213597127e+02,1.644012982440838869e+03,-9.164527482394332902e-02,-5.366178422621432631e-01,-8.388339734228492661e-01
2.274647884159976911e+03,6.608410394869358697e+02,2.811821951922819608e+03,-1.608426324319277799e-05,9.965164238721622159e-01,-8.339674270817581947e-02
2.138271582802929061e+03,4.448221061726270591e+02,6.620425243594693256e+02,2.486621163754746539e-02,5.081406969201697210e-01,-8.609150385794644977e-01
1.472743911904380184e+03,1.505214888006287538e+03,1.075531119623786935e+03,4.050080503447689852e-04,2.556273657131666877e-01,9.667753026774247305e-01
2.127947136840503390e+03,1.541238544332799393e+03,9.692083168475376169e+02,5.957446692042340097e-06,-4.669102610812921328e-01,-8.843047031773089151e-01
1.278955314009719359e+03,2.252868666801785821e+03,1.020210988525037465e+03,7.266272101530826255e-01,-6.054498252123297064e-01,3.247205053819475218e-01
2.642568952797249949e+03,2.789757447094290001e+03,7.689423277668979608e+02,2.837752196535464275e-02,-9.555839020462688627e-01,2.933498293797572321e-01
2.744466487655247874e+03,1.755055423115753399e+02,2.757703774382199754e+03,5.158679270319137533e-01,-3.705086077677546830e-01,-7.724012256785953712e-01
1.685150286722111105e+03,1.195964790406501834e+03,1.904431354452197183e+03,-6.756425629659294774e-02,-6.545672782572984350e-01,7.529785850247806556e-01
1.061622598542088554e+03,2.506406464013808090e+03,2.654373669853138836e+03,2.388261560203759903e-01,-2.399165218436678793e-01,-9.409580913871604668e-01
2.173905313270084207e+03,1.987983525650656475e+03,6.549010921989604412e+02,2.396777111591710252e-01,-8.771825134561431758e-01,4.160594102532284566e-01
1.980775432660275328e+03,2.937559797790679568e+03,1.888015418629404394e+03,9.210509583396851718e-02,-9.911648437601333628e-01,-9.544057740482174423e-02
1.317586456866015169e+03,2.216744054210063496e+03,1.856471385872564724e+03,3.632545278248982407e-02,9.669755883298886134e-01,-2.522670669235543839e-01
5.093021745323343339e+02,8.285833551328593671e+01,2.638756732381984420e+03,2.157641438249522925e-01,7.199841351283757518e-03,-9.764189656720120292e-01
2.410726869280084884e+03,6.759783315489667075e+02,1.938085153353556507e+03,1.655280449543925503e-01,-9.839367953821043233e-01,6.684945045975694555e-02
2.074145613953338852e+03,1.502315805433092009e+03,9.415064338771186385e+02,-3.201132817572569737e-04,-5.688912539826716103e-02,9.983804509999717469e-01
2.191381459229185566e+03,6.026730384517941275e+02,2.926331122419757321e+03,-8.207292330722880391e-02,-9.850345998947901416e-01,1.515614471754489212e-01
1.560691147747889090e+03,1.542436797634828508e+03,1.663697602894450711e+03,-2.452804922908776580e-02,-5.337377505257719923e-01,-8.452942614644348707e-01
2.384213281040874335e+03,2.889550900256141176e+03,8.914439948890148457e+01,-3.375066416368530716e-03,2.696566421195374375e-01,9.629506240132464923e-01
3.014556877480551407e+02,1.476876619868061880e+03,2.575011947829028486e+03,2.703887596789359415e-01,-9.546868202227443145e-01,1.243502872223142819e-01
2.246355942752041756e+03,1.328634229336490080e+03,1.044374313909279834e+02,-4.797275411024809477e-01,-4.766515634722586769e-01,-7.366578400772091362e-01
2.751577615062515633e+03,2.303279804307252107e+03,2.889987957843796266e+03,1.307478360036880838e-01,-1.567200278162449167e-01,-9.789503747696448599e-01
1.178533373200354617e+03,2.807032999333207044e+03,2.835831082470151046e+02,-3.059508375384040104e-03,-9.333261120955392842e-01,3.590167236900332903e-01
8.230422899506686463e+02,1.948195840334780996e+03,2.138705452394242911e+03,-9.779767591030992524e-02,-3.252095818121565340e-01,9.405712851688086129e-01
1.562426042871953086e+03,1.533847436433495204e+03,1.531445089310373987e+03,-9.097316680762769225e-01,4.069456384195264675e-01,8.236224541911753294e-02
1.387905689829597577e+03,1.150099029130850113e+03,2.498053122171374525e+03,-3.497031187386454021e-01,-9.141809171623365149e-01,2.048926046510568255e-01
1.287312037424034088e+03,1.840004099807327975e+03,2.590526174162648203e+03,-6.319749246896226873e-05,-7.545634483244245683e-01,6.562270936640991481e-01
1.258170628563700575e+03,2.231134858743218956e+03,1.064340838324057586e+03,-5.437679821005010350e-01,5.351732250825927961e-01,6.464564956724045963e-01
1.607808213975104934e+02,8.469117803797093984e+02,2.357860304358653593e+03,-3.917980139931562245e-01,-7.927474998665455796e-01,4.669536568936578647e-01
2.644407914680140948e+03,1.938299349193259786e+02,2.980569407823275924e+03,2.297709994754922880e-01,9.556517672998140478e-01,1.842145147831067142e-01
3.447797251560229483e+02,2.724873913036531576e+03,1.309437254860128178e+03,6.128824349035458807e-01,-4.293412704512222788e-01,6.633560088474599326e-01
1.951628134536900347e+02,6.577972187332287604e+02,2.935248632421385651e+02,1.481847008802775756e-01,7.559214280988284518e-01,6.376708312021575065e-01
5.455462333431819388e+02,2.762916890012038948e+03,2.240838074666874491e+03,-5.067727082076368267e-02,-2.282785914605097999e-01,-9.722760404859129846e-01
1.484628054845004954e+03,1.534114385185352603e+03,1.641224600944388612e+03,2.681682351297576608e-02,-3.057072732342203114e-01,-9.517478243045116582e-01
1.617833414221814564e+03,2.292669440988639963e+03,1.963124525836315570e+03,4.254003357867303659e-01,-7.619581169583130587e-01,-4.883179111131177308e-01
2.576431535109963079e+03,2.063520874418955373e+03,5.290781228723262757e+02,7.488348683803044414e-01,-5.417878675016568613e-01,3.817227351440564131e-01
1.457668888151606552e+03,1.369734382488018809e+03,1.514169823089162037e+03,2.456172509592213435e-02,2.907843880275035597e-01,9.564732935841870898e-01
2.854840736600248420e+03,5.638196111682088940e+02,3.844384305587878998e+02,-8.819861425874109262e-01,3.826512986780868375e-01,-2.750971244919744318e-01
1.487847791694939360e+03,1.460825442444310738e+03,1.581238757553801861e+03,1.315129448127967116e-01,8.437032739646894985e-02,9.877175675271139266e-01
2.041608793398432908e+02,1.385586961445497536e+03,1.298612351248792493e+03,-3.285685675424153830e-05,8.293148434538666347e-01,5.587816114972967707e-01
1.473317767883925171e+03,1.450413229746894331e+03,1.491095867050340985e+03,-2.592939630943733031e-02,1.397206229178969139e-01,9.898514100300424001e-01
3.496200174955492344e+02,2.239818086637686520e+03,2.103279846801423901e+03,-6.407879109873729218e-02,-5.166207486539828864e-01,-8.538131590643953661e-01
1.176706756372776454e+03,9.677896465404804758e+02,1.968013891720815138e+02,1.431736114539341412e-03,-9.934415283692661358e-01,1.143323219524337575e-01
1.101676474428893698e+03,2.773526392937390483e+03,5.473864584864494418e+02,1.275336146034208862e-02,-4.248057597354087389e-01,9.051946852843779645e-01
1.949942783143756060e+03,4.170637007554760771e+02,4.813047417443889913e+02,2.604848163780074111e-01,-2.366611532876554402e-01,9.360230547166414894e-01
2.126236849327791333e+03,4.364457238645891266e+02,1.439887295554491629e+03,6.953489812471735920e-03,8.104933405933701929e-01,5.857065765664810630e-01
5.120362463767939971e+02,2.730591730582412765e+03,2.204138509119664832e+03,2.762981275608059756e-02,-8.156306709412395328e-01,-5.779127979782134883e-01
5.120376207692130492e+02,2.745536510353767426e+03,2.180969773504313707e+03,-1.597717319766762609e-02,-5.310403008125320623e-01,-8.471959211714532589e-01
1.370387594860712852e+03,2.644513855116403192e+03,2.170201463386306386e+03,-8.189703480003529545e-02,9.149389594471075693e-01,-3.951956176083004646e-01
2.031551098278404652e+03,3.529480673069328418e+02,2.682378332086004775e+03,-8.551206323920643726e-01,-4.525747360888827675e-01,2.528731150428493724e-01
2.222611952081511845e+03,7.081564856447322427e+02,2.394129662939987611e+03,7.704579319205188126e-01,-3.084346419485278767e-01,5.579091743167885475e-01
1.337359020420120032e+03,2.594671818912934668e+03,2.076290423534029287e+03,-4.610325099750570144e-02,-6.001119272016349759e-01,-7.985863541770548135e-01
2.173108470520990522e+03,6.275888719822617077e+02,2.371521823485126333e+03,-2.825482588259600192e-01,1.026071107205001748e-01,9.537495804790738774e-01
2.400977026009587462e+03,1.108224956572821156e+03,4.596793283037604283e+02,2.767105673357680429e-01,5.569962539799316881e-02,9.593376953165348997e-01
3.000000000000000000e+03,1.169645086163199721e+03,1.683482162504094504e+03,1.298663941709834492e-02,9.959145033884906351e-01,-8.936245932776447354e-02
1.071380831507287667e+03,1.145886748300029922e+03,2.415890000910223989e+03,1.167409557967145906e-03,-7.578154278942711430e-01,-6.524679412816747348e-01
1.025814170789876243e+03,2.024034832615249798e+03,2.577676879325852042e+03,3.933534960970871963e-01,-9.157208985350047126e-01,-8.202599035941324224e-02
1.893155800911369624e+03,2.807551584209738394e+03,6.587691818287219121e+02,-4.918565750101741747e-03,7.772299381235777682e-01,6.291974499275894139e-01
2.732844747059070414e+03,1.759052360992849572e+03,2.488967333452327694e+03,9.542212868161988881e-01,2.511115991267798275e-01,1.624952324556905303e-01
2.729404472345231625e+03,2.494113807712881226e+03,2.934373583409586900e+03,8.093194679464110752e-01,4.264147993512074630e-01,-4.039460579052700506e-01
2.586584004804609322e+03,1.400652258866938951e+02,2.441149309533475389e+02,-3.251814260655340200e-03,9.722638955976206088e-01,-2.338639412593424283e-01
2.133445001450875679e+03,3.668574998121717385e+02,7.331187678011689286e+02,2.422694164898988374e-04,2.821445291819827950e-01,-9.593718809503472000e-01
5.326404417803570368e+02,3.848167951315425626e+02,5.520852088174449364e+02,-9.215677777720135966e-01,-2.496546594821927867e-01,-2.972967910542981818e-01
1.502549950058526747e+03,1.576606755040680810e+03,1.492356049844250492e+03,-6.042249531712636790e-01,-5.066517523897915432e-01,6.149928518003584532e-01
2.419947281060890418e+03,1.960397907030343958e+03,2.393869019576246956e+03,-6.720444002146809537e-02,1.442331265832942806e-02,9.976349689607723059e-01
1.555525338363366018e+03,2.093489313080891407e+03,2.893172470971688881e+02,8.791887316592053025e-01,1.317178801794844645e-01,4.579056389306654928e-01
2.095723030364110400e+03,4.431329956802342167e+02,6.073832598548145825e+02,-1.044452667678684096e-02,9.916579926787186805e-01,1.284730999817171593e-01
2.470986584083455909e+03,1.053867006275160975e+03,4.810725543078425517e+02,-7.498623502729273582e-01,6.417381211514081585e-01,-1.608683918742963570e-01
6.032122885746163092e+02,2.247770905719781695e+03,2.197683534890024475e+03,7.148201949066954348e-06,6.733137520713359248e-01,-7.393568767655596119e-01
1.467282027720891904e+02,1.835050235550049592e+03,1.858132758935839092e+03,2.361045913771321336e-01,5.328621541396748595e-01,8.125961768407865549e-01
1.415972741157160044e+03,1.508494826136869960e+03,1.467583714527155280e+03,2.023352205606571974e-01,-2.965681394342237764e-01,-9.333315580184745608e-01
1.000069189777593010e+03,2.060534516167253059e+03,2.550004055358835558e+03,4.450429521018967743e-02,-1.922505455990082546e-01,9.803362155019715862e-01
1.822461277737792670e+03,2.231855229768269965e+03,1.436072075969370189e+03,-6.888104861616134444e-01,6.839250325642293182e-01,-2.403885687503042601e-01
1.504831021923803519e+03,1.530085523659115324e+03,1.591479368239465657e+03,-4.962158388889702167e-05,-9.642425424639274878e-01,-2.650213516688789128e-01
