x,y,z,nx,ny,nz
2.849936172345107025e+03,1.370345398557979479e+03,4.613602281549006534e+02,-1.000231523644475387e-02,8.122537712827230250e-01,5.832184536920147488e-01
8.708705630390703618e+02,2.881362671449675759e+02,2.487496339896858615e+02,-6.004463345250932692e-03,-3.470108546545465078e-01,9.378418913504860122e-01
7.493338819723031747e+02,9.156047967589478276e+02,2.827322903324044091e+03,-8.030197497903830417e-01,-5.464700458986343490e-01,2.377599007026527655e-01
9.377027328630171610e+01,6.887629166328973724e+02,2.048974916336144361e+03,-9.612147506620645210e-01,-2.751358223936747338e-01,-1.914372861857316366e-02
8.100118913179863966e+02,4.431999446621064749e+02,1.944947181459712056e+02,-3.340876890619301559e-07,-8.556867706589943445e-01,-5.174941067481542145e-01
1.917158577884325950e+03,2.222480634593787272e+03,1.688018659779684640e+03,7.086357550153912221e-01,6.568369413480241725e-01,2.576831371943821836e-01
8.004506039327105782e+02,2.347470212724084320e+02,2.656095779580912790e+02,-2.361570147893808300e-02,1.139956271741292097e-02,-9.996561151783694976e-01
2.675600780935189960e+03,1.084786931949008476e+03,2.253535967650460407e+03,7.179566628047889809e-01,6.803808744722157353e-01,-1.470377366074220316e-01
4.969924238354636259e+01,2.022886068507306391e+03,7.243363426023887541e+02,7.497862093411675755e-01,-1.206411086112137293e-01,6.505892430672830518e-01
1.416556923756268588e+03,1.476105282408188714e+03,1.490680098627153257e+03,1.913588780677458884e-02,1.097307036428759874e-01,9.937771332023522808e-01
1.077355503529221323e+03,7.201358707034611371e+02,5.450063556266395608e+02,-2.489793231955752806e-01,5.935384555333031997e-01,7.653243746439899464e-01
2.815587378017768970e+03,3.377421800285320614e+02,2.567457205142991370e+03,-4.830119131497537799e-01,-1.775884539913330784e-01,8.574157875642265392e-01
4.792554037870010575e+02,1.152230442976788026e+03,2.926202113507970353e+03,-8.393959686349485860e-01,-5.434874989831681713e-01,5.978819985345218413e-03
1.810800867343447862e+03,2.057612595747163141e+03,3.196128640050775402e+02,1.060088837487676017e-01,7.591940030792474481e-01,-6.421733272683067817e-01
2.476701615381022748e+03,6.434541037898947025e+02,1.749569079627399333e+03,6.274744634777669194e-01,-2.235458996572051438e-01,-7.458572440016517646e-01
9.047100168017752821e+02,2.683934363745179894e+02,3.169289027734597539e+02,1.539679001593327213e-07,-9.784485241915692466e-01,-2.064908848044300083e-01
1.808581507664950777e+03,2.015672698018517167e+03,3.207600277676088467e+02,5.995580298431333471e-02,9.149828832710410476e-01,3.990133143261245241e-01
2.592021423048992801e+03,2.343850957323633793e+03,1.855529287823730328e+03,-3.783674255096466377e-01,6.426526081025087933e-01,-6.662099643597694243e-01
7.940448951505619561e+02,2.086192607914657401e+03,2.600964988823231579e+03,4.187006151592587155e-01,8.382956257327309757e-01,3.492137436336484324e-01
8.572111444564753810e+02,3.877015437978612908e+02,2.918308687076851697e+02,-1.078722191542585968e-04,-7.343408285703653116e-01,6.787809188966449359e-01
8.273506097386463125e+02,4.056717200768158591e+02,3.259118793946865367e+02,-1.577538799018899096e-01,7.059570637301644247e-01,-6.904624084954841257e-01
9.578806897073491200e+02,4.404921695953721041e+02,2.171958910796886926e+02,3.150106852924372796e-03,6.900748401995084880e-01,-7.237311598587129469e-01
2.861792017020144613e+03,1.348735759150465583e+03,4.070033255899506912e+02,8.046083071525215727e-07,6.384134219622760176e-01,7.696936420796066658e-01
4.701829352797180377e+02,4.008612566162679514e+01,2.221673762693279969e+03,-7.805410728015912958e-02,9.499264333512155711e-03,-9.969038671375588523e-01
2.800185369510515557e+03,2.064400730901577845e+03,2.532441862666945781e+03,5.857050124860313511e-01,-3.714147184187656658e-01,7.204170634366227066e-01
1.659402485557547379e+03,2.095765520770823969e+03,2.941710484801601524e+02,6.317908159871431506e-01,3.826576206052752505e-01,-6.741020028356310423e-01
6.902684871492270986e+02,2.714842437854902073e+03,2.114572394570455799e+03,9.004868647565363871e-01,-2.498991320354017609e-01,-3.559126721667777993e-01
4.855748287679817565e+01,1.669837420630123233e+03,2.385966099227792256e+03,5.726558716492224921e-01,7.087793675117869396e-01,-4.119430310798577466e-01
8.852223204531643432e+02,3.709574794784743972e+02,2.344498554646953039e+02,6.359459012191208405e-02,3.417761073731840349e-01,-9.376272289860506648e-01
1.679542905649805107e+03,2.094000640802949420e+03,2.811371466100467842e+03,1.413951162215522361e-01,-9.607873579440158185e-01,-2.385268830208694957e-01
1.390263463171354260e+03,1.529621917885307766e+03,1.534739668994197700e+03,7.332579831720312247e-02,7.768773363414946398e-02,9.942775987338416943e-01
8.772136732986463130e+02,4.399956734334484736e+02,1.210961167043802078e+02,6.623910205961192760e-03,-6.801422403960063479e-01,-7.330502415542092809e-01
1.321094267234352628e+03,1.784820055361066807e+03,1.068928947428557422e+03,7.431429615618061479e-01,-5.573488210976184076e-01,3.702712928411313609e-01
4.482328502010861939e+02,1.105789632242896460e+03,1.159703328562653041e+03,2.413803021414870909e-01,-5.749226370188404989e-01,7.817924988009202769e-01
8.740010673518418116e+02,3.936453453082810938e+02,2.879411413527915897e+02,-8.343348067099300991e-01,5.412863923216902629e-03,-5.512314679120310368e-01
7.662025462737220494e+01,2.208771772339602194e+03,9.803754759926328006e+02,-7.364854686313697663e-01,-6.299473746340860103e-01,-2.464862261597071946e-01
1.636792921307845972e+03,2.110668295395990754e+03,3.172180551942888087e+02,3.616472437717882797e-04,-1.793950771881020756e-01,-9.837770456215910730e-01
1.752227124652266866e+03,2.111567236279885492e+03,2.809270959046808684e+02,-1.631995340095806213e-01,2.905752743648497005e-01,-9.428318630736065575e-01
2.764215000315922225e+03,1.490896715889631650e+03,4.047817268327839315e+02,-1.704820254006111935e-06,6.684799593287747976e-01,7.437301553472828175e-01
9.832100032532351861e+02,2.651919196710899200e+02,2.179145786028814200e+02,-1.891735667203158777e-01,9.736862739893189511e-01,1.270763608981276271e-01
8.169227139607429535e+02,4.309535494403497751e+02,1.676035791273282314e+02,4.072779400949002519e-05,8.909845584440519994e-01,4.540336055354322053e-01
1.830547890994463160e+03,2.053422869344650735e+03,2.573018290021277039e+02,2.151889140790321387e-04,3.605574683480696208e-01,-9.327369756325532002e-01
8.083382283098661674e+02,4.694136584687867639e+02,1.724368507929126508e+02,-4.919701849093126956e-05,4.986468792795225036e-01,8.668052188147269410e-01
2.776865000441063103e+02,1.512836156235525777e+03,1.399609741368782352e+03,-7.215954726714078789e-03,-8.193907311462775844e-01,5.731899857019056022e-01
1.284032867445660031e+02,1.440949606105569501e+03,2.756565142342971740e+03,5.289182197938920860e-01,-7.699821745966786146e-01,-3.568934961209437873e-01
2.773460015100983128e+03,2.276592253934141809e+03,2.726274629518553866e+03,-9.027585955209338139e-03,6.719855984472654642e-01,-7.405091884448780082e-01
8.337232540273383847e+02,5.056375081518810362e+02,2.839900608066574819e+02,2.516569431088697129e-01,-8.488053546505432978e-01,4.649712387897390609e-01
2.297828323132893729e+03,4.336401347946624014e+02,1.755953799617791447e+03,5.429161155041477543e-04,-7.324957735444928009e-01,6.807713617519076665e-01
1.812849361409385892e+03,2.111019156636668868e+03,1.278001840103927975e+02,-1.926753254153854358e-02,-7.998549075128565944e-01,-5.998840630633225368e-01
2.084855347328771131e+03,2.390646314136517049e+03,1.274802749341220760e+03,3.921404805220228551e-02,7.717281358235643651e-01,-6.347424224153018768e-01
1.039925018098781351e+02,1.978177125773281205e+03,7.534180089008625600e+02,3.958702586788931388e-02,-1.234835969767916070e-01,-9.915566895849214912e-01
1.793302182051128057e+03,2.247425649087304919e+03,6.150358905443253832e+01,-3.565237801780375693e-02,9.873016878844966815e-01,-1.548040214015757865e-01
8.335441852741929551e+02,4.065862831777280348e+02,2.539808573179000177e+02,2.539380553448865319e-02,-7.558525952462369357e-01,-6.542491948027180371e-01
1.825161339975571082e+03,2.100937955273681382e+03,3.701301842188004798e+02,1.275344109703838115e-03,-9.791733659758001806e-01,-2.030219024170139552e-01
1.120291911135050668e+03,2.330646529796898449e+03,3.592789250113814887e+02,-2.333974341497693783e-01,7.287963458919054505e-01,-6.437247268413032186e-01
2.643675322714049798e+03,2.344705187311661120e+03,1.879018114055932529e+03,-4.600941390986580393e-01,6.164194613789545363e-01,-6.390152038882520591e-01
3.000000000000000000e+03,2.663904554721407294e+03,2.250800392521194681e+03,3.978592550316593091e-01,-1.304335353659633219e-02,-9.173537399030825545e-01
3.068345051112441979e+02,1.178481474721834502e+03,1.191724226644213559e+03,5.976779793009435737e-01,-6.999121043999985137e-01,-3.910295118953384663e-01
8.754242528431823303e+02,3.483826842853200674e+02,2.196954512102806518e+02,1.390477297179391614e-01,-7.487514549684006759e-01,-6.481026057214938074e-01
1.296790266167083473e+03,2.607688240815930840e+03,2.489278174757912439e+03,2.591405851277531203e-01,-4.442282601991220381e-01,8.576172864279887342e-01
2.685832674086511815e+02,2.686955811812035336e+03,2.198708274149375484e+03,-7.857210247776523770e-01,-6.031466125285013247e-01,-1.373194633609883530e-01
2.696894808197897419e+03,1.128758423828180412e+03,2.242198384137047924e+03,4.262056766833016534e-03,-2.071917526118869923e-01,-9.782910673831847204e-01
7.560156134527483118e+02,2.391781520388686033e+02,2.223285153110207375e+02,3.569550250557014699e-03,-9.901693942757613387e-01,1.398278547020602447e-01
1.977295448345189698e+03,1.823212653902839293e+03,1.384435517271829781e+02,5.743811937490247432e-01,7.798946719610777567e-01,-2.486976978465386678e-01
3.286251516488054563e+02,2.937026812722570412e+03,2.444983979117954732e+03,-7.750133474881548690e-01,-4.638031895533258897e-01,-4.292329351009380733e-01
1.851728282472227420e+03,2.075197432865906649e+03,3.546064456464903287e+02,3.833124613135732977e-03,-6.179387103220388422e-01,-7.862169277249348998e-01
1.581779921220558549e+02,1.033911786645208167e+03,6.754385061099594623e+02,-7.759672263021678562e-01,3.160033646125539608e-01,-5.459090924856129234e-01
8.870023694325165025e+02,2.310120890167391394e+02,2.413249009203155424e+02,-1.978780927848644133e-03,7.711096924489433402e-01,6.366992434716218785e-01
3.000000000000000000e+03,2.611998620098641823e+03,2.234330301040051381e+03,-6.796838958254486363e-02,-9.829717601508899394e-01,1.707243883088086223e-01
8.268866561715632315e+02,4.681385005835682023e+02,1.174554597878773592e+02,-3.735696741910500829e-01,-9.190648012232691677e-01,1.255610993788498775e-01
4.368563504863016647e+02,1.112591325260667872e+03,1.522423029437220521e+03,-9.528873477104407574e-02,8.215241447927597029e-01,-5.621549044064797496e-01
2.916350615558401387e+03,2.730397411129517423e+03,2.276470957773723057e+03,-9.073315631230988165e-01,2.976891114833890573e-01,-2.968680303852616609e-01
8.343111555314890211e+02,4.088929137629215802e+02,3.027112868070873901e+02,-1.759119112229474702e-01,-8.633547855884485811e-01,4.729413427597695674e-01
8.263802493649620828e+02,3.896585523332686307e+02,2.133608499270929997e+02,1.659668845632421239e-10,-5.170689578862847080e-01,8.559437439402144410e-01
2.142886541636635229e+03,8.859418983056975776e+02,2.959207726912251019e+03,-6.701005669636733719e-01,-2.672674431225686154e-01,6.924834611755634750e-01
2.537836957279585476e+03,2.914759140841391400e+03,2.885313782191901737e+03,-1.324408753011500905e-01,8.784442703922554774e-01,4.591242515534145752e-01
1.656243058790542818e+03,2.221333652977563816e+03,8.444793165552886194e+02,9.734208194181517282e-01,1.619566609300094606e-01,1.619319249057946664e-01
1.826878025923511586e+03,2.163331467026246628e+03,2.058755838493647445e+02,-1.690960557673019948e-02,9.293761656328386467e-01,3.687465362452127526e-01
2.875722633059012423e+03,2.181496304780787796e+03,3.043825734720121545e+02,-4.908502667299373678e-01,6.567080903867847930e-01,5.725386446971871823e-01
1.965284092535431000e+03,2.197179443443967102e+03,1.714926197940726070e+03,9.981896751447050242e-01,4.273049818795643384e-02,4.232584268644146858e-02
4.136080290857598243e+02,6.503279264388525007e+02,1.251057048237120171e+03,-6.736287606690623264e-02,9.691818238437825972e-01,2.369574545331583904e-01
1.005987829441187614e+03,4.120591845523399002e+02,2.823035249772092925e+02,-5.864084617920519316e-04,-7.628568032012900124e-01,6.465672075930114504e-01
2.890756555837299402e+02,2.436346703874438845e+03,3.094403477503926183e+02,5.587787697370889539e-01,8.286745037133921299e-01,3.263209135909828085e-02
1.532627220695886763e+03,2.407752516535573250e+03,9.865925164721218721e+01,9.306688226396674438e-03,3.824447245994870292e-01,9.239315008052703115e-01
9.173140755319014943e+02,4.249337771115050373e+02,1.905569341244044494e+02,-1.406440977565511299e-03,-9.556958911072798157e-01,-2.943524853716015799e-01
9.618048540612292072e+02,4.300848595475915772e+02,2.574578908616261401e+02,-7.423145621975383007e-05,8.127642282657082662e-01,5.825927426095681705e-01
1.377801259596591535e+03,2.387962703720113950e+03,8.468990350465041956e+02,5.721944467726810535e-01,7.967248731413091312e-01,-1.944813399801390841e-01
2.353818410837870942e+03,6.709452993192228405e+02,1.736612905896553229e+03,-9.760122877699066446e-02,3.302788945464789627e-01,9.388236532801980117e-01
9.229300401237173901e+02,3.696571749367888060e+02,2.156023787278419093e+02,-2.508897644707479772e-06,6.609652814889904748e-01,-7.504164821350108872e-01
1.767373630721876907e+03,2.178982000275916562e+03,2.981453890930901593e+02,-1.588821273882934154e-03,9.987341492436286883e-01,5.027499161178484305e-02
2.490371232562368732e+03,2.931299220800820876e+03,2.926377407500234767e+03,-1.140009938304917779e-02,5.370992343048229811e-01,-8.434420254191923316e-01
1.837880276750678149e+03,8.281484304235366380e+02,2.231508034553184245e+02,3.836358210202762964e-02,-3.676116377335242325e-01,9.291877740108169803e-01
1.664873814575615143e+03,2.049152818953384667e+03,2.784216492597909564e+03,-6.641925571530725653e-04,-2.364317433119221545e-01,9.716478732559098441e-01
2.128300151221013948e+03,2.518623668925350557e+03,1.730739838017726470e+03,-1.423624786114100760e-01,4.456685529422749759e-01,8.838056718543700896e-01
5.831850615141687513e+02,2.297058356312261822e+03,2.936081456925136081e+03,1.732542968117534599e-03,2.502485507522600461e-01,-9.681800768148749459e-01
1.724972338494555970e+03,2.083788703134594016e+03,3.156809177536678703e+02,5.060984275574276214e-03,-9.641955159468166281e-01,-2.651440994369184123e-01
9.615764710328267029e+01,1.128186313174119050e+03,7.455715408735726442e+02,3.775245715023156645e-01,-9.172923022564218876e-01,1.266887135190275793e-01
8.703656074990499292e+02,4.241132950057643143e+02,1.704750098241103444e+02,7.224457242149970295e-06,6.048797816406791261e-01,-7.963168023532666284e-01
1.058060917184626987e+03,3.828689382098374381e+02,2.685313913891616835e+02,-9.246383579443944812e-05,5.181932217770951477e-01,8.552635712777163501e-01
9.222850729427871102e+02,3.822964707500739223e+02,1.112008190421067440e+02,3.128813303297602239e-04,-7.159736521819000110e-01,6.981272315893319869e-01
1.081578914989382611e+03,1.691118765859367386e+03,7.157567878277512818e+02,7.291191860132048563e-02,-7.296640216522466416e-01,6.799075434440657872e-01
8.761909179560227585e+02,2.964000694435394507e+02,2.973102882318828506e+02,1.259034110594001758e-05,4.434566645202264179e-01,-8.962958141897565678e-01
1.076757084516446866e+03,2.338735774402813604e+03,3.955972588683948175e+02,-1.731454444490453451e-02,-6.061186801681148761e-01,-7.951857343425673408e-01
4.103194299611661222e+02,1.131043114317092886e+03,1.183756606443091187e+03,7.575974674647216467e-02,-5.907381395214303943e-01,8.032987683842602866e-01
4.780806186875896628e+02,1.335940807846095595e+03,2.442407444171460611e+03,6.593487921036673693e-01,-4.184957812221029028e-01,6.245962307368950750e-01
1.888124516786962772e+02,4.866026592083427431e+02,9.907476664205489669e+02,-6.137405938406434447e-02,4.666373665271429383e-01,8.823167192087738586e-01
1.828493043638491827e+03,1.993602492970994490e+03,3.683826750028371180e+02,2.730622657986170321e-01,-3.569041234912216365e-01,8.933400503906047119e-01
2.588824078728783888e+02,2.698251435808450424e+03,2.208242605931749495e+03,2.638442219189396365e-01,-7.435049181927456952e-02,9.616954980274272646e-01
2.911020362154162740e+03,2.666953470771759385e+03,2.311672658878436323e+03,-4.367029843835333880e-01,-3.279044860032771791e-02,8.990079476351167109e-01
1.111998706679809885e+02,1.425746488833190426e+02,4.238432142282554196e+02,-7.207000454867891481e-03,-9.621847026988479268e-01,-2.723025101551089233e-01
8.878528125326085956e+02,4.901360727113057010e+02,1.908413915013333622e+02,8.771930523243801417e-03,7.233008079032547943e-01,-6.904773671318954475e-01
1.806485655755121513e+02,4.517480144826949982e+02,1.028034091864627499e+03,-2.770227131169481494e-01,4.492216093501482654e-01,8.493870508255866314e-01
2.547533658065241525e+03,2.941442675490234706e+03,2.842261145884090638e+03,-8.812064745288995804e-02,9.303072540241866806e-01,3.560381504873611491e-01
7.799838797433166064e+02,3.701849438543497968e+02,1.762520142396712117e+02,-9.456672046509677354e-03,-8.475269468538892959e-01,-5.306681125810457367e-01
9.450865491838785601e+02,4.170643127462836901e+02,2.894960625323330987e+02,8.657107251581815533e-04,-7.568615423206871418e-01,-6.535746753821561894e-01
1.637541226419837585e+03,1.510131479373792445e+03,8.803111091137853919e+02,-9.839722759696558629e-01,-7.284809768397400298e-02,-1.627627561419430213e-01
2.269337577564771436e+03,5.248015448693538474e+02,1.693905137185207877e+03,-1.279895785632665373e-01,-6.195550403563925279e-01,7.744483325233427751e-01
1.374993309997255722e+02,1.454789852640680692e+03,2.808769997869727376e+03,2.175291948671592424e-01,-4.015962406900090431e-01,-8.896075026909888717e-01
2.860328250768735415e+03,2.161827091953672152e+03,3.517546186552529548e+02,3.948961331659081031e-01,-6.924979498175799497e-01,-6.037413630927251917e-01
1.622033143050096214e+03,1.144232741920037370e+03,2.468446048808704290e+03,8.210506392197412795e-03,-9.442603709710816196e-01,3.290971579918899881e-01
1.432680818878093305e+03,1.768475751873844786e+02,7.062477709235896555e+02,-1.156669843981657231e-01,9.523315058555310575e-01,2.822868251887979962e-01
1.851415405609731806e+03,2.929859936136149940e+02,1.786436295536208945e+03,4.319035223828127656e-01,7.375771872960690256e-01,-5.190753703786556983e-01
6.518938717779334411e+02,2.738334975571921859e+03,2.155761100518931926e+03,1.865941223041734254e-03,-9.948890076603440491e-01,-1.009573211806259890e-01
4.043263710383317857e+02,1.085834214238016330e+03,1.506386152129193533e+03,-1.026205531552115127e-03,9.214656606728949262e-01,-3.884584702421512992e-01
9.898436134768123793e+02,4.683569543642933581e+02,2.209930822523776328e+02,-9.300012151618627931e-02,-6.402552281618451024e-01,7.625117836528156889e-01
2.525487088047667385e+03,1.049171427915712002e+03,2.817745934148866581e+03,3.678071805850189335e-01,-6.089635980639348523e-01,7.027668277196396085e-01
1.333246388716562706e+03,1.790159968445541153e+03,1.114437520631040798e+03,-7.250294368331251516e-01,5.736621614630937893e-01,-3.811089611002772548e-01
9.266984115303500857e+02,2.728510060446915759e+03,2.140107789057295122e+03,4.518945947500408455e-01,7.586763477219796714e-01,-4.692562995239746293e-01
2.818579948110147598e+03,1.324112341048028384e+03,4.142704721260782321e+02,2.747219309891555869e-02,-7.627893615852476827e-01,-6.460632077890723357e-01
2.787430579927350664e+03,1.399138380009945877e+03,3.680821538484685220e+02,7.354078351005068651e-08,2.937458977049047792e-01,-9.558835428971117487e-01
8.105370621605377437e+02,2.830267906538674652e+02,2.803746798833437879e+02,-6.135450332142534588e-04,8.974917444336114603e-01,4.410308291219621202e-01
1.309307277728495819e+03,8.384384942410197255e+02,2.911793210553193603e+03,8.025454054162710626e-01,5.403494720951202979e-01,-2.528701648114264344e-01
1.697042235928557545e+02,2.545353993880445159e+03,4.902896720071573213e+02,-8.024485143047375979e-02,-8.532711308792763349e-02,-9.931163313484383526e-01
5.049316239023974049e+02,2.085201330305169904e+03,2.285909584054253628e+03,9.131964207785268073e-01,-3.843874244278949193e-01,1.353462412443625085e-01
8.765433925918777049e+02,5.270485813415921257e+02,2.209406714933648459e+02,1.168622701135993425e-01,8.280560035179523881e-01,-5.483306163819167134e-01
2.035936806978391132e+03,1.878949252005182643e+03,1.851965863952522966e+02,6.591739817012897129e-01,7.164451331631342956e-01,-2.284645114999845905e-01
7.558542694363204646e+02,1.517029389775854497e+03,1.621249951488269289e+03,-2.562184098932484555e-01,9.317132423541223396e-01,-2.574151519505869512e-01
2.400845683188372732e+03,9.477687137458271991e+02,1.477403956641357127e+03,-5.955094981484452266e-01,-5.077010543454608671e-01,6.225817834080067392e-01
9.890216535623189884e+02,1.528068623692921165e+03,2.010490709861828236e+03,8.989832367462392559e-01,3.289501242630194500e-01,2.891728821943704841e-01
2.805711917602996436e+03,2.035684120016289171e+03,2.568325041532570140e+03,-2.898819561539474343e-02,9.061215451900546114e-01,4.220230205301026549e-01
2.551510486102227787e+03,3.287958207274697315e+02,2.160623240325733605e+03,8.457862991507822947e-01,5.132562933837440111e-01,1.456485958421966931e-01
9.522869562442447204e+02,4.780737886499360911e+02,2.111738165723244265e+02,-1.286178983089151795e-01,8.024307950179402349e-01,5.827197057260667945e-01
8.641244491560950109e+02,3.141553976931135708e+02,2.017279809439983467e+02,-2.004887631694468944e-02,9.982634050864458430e-01,-5.539148511858568019e-02
1.912072422990633413e+03,2.876092148922633896e+03,9.698103128626455600e+02,2.577318601252952535e-01,2.482967025870891006e-02,-9.658973940078724452e-01
2.906218037952297891e+03,1.569570422918671966e+03,4.913867821387072468e+02,-1.434571444959260866e-01,3.507690948994836300e-02,9.890347102673945345e-01
1.145606668771946715e+03,2.737060407758277051e+03,7.815405577722727912e+02,5.835268761576029029e-01,2.139964120906552025e-01,-7.833912945738396028e-01
8.490880884795249131e+02,2.419734651222876209e+02,2.550416501807836198e+02,-7.195312592519627695e-03,-9.489185019478584282e-01,-3.154392241585187717e-01
2.200293659677690243e+02,2.558794024578042809e+03,4.909085954295982219e+02,-1.350393603702811779e-02,-9.964793902215633992e-01,-8.274338991828299184e-02
8.412499182426828384e+02,3.685491510535766793e+02,2.816892099767067066e+02,2.785456102869203823e-02,3.909712583128137076e-01,-9.199813033987125355e-01
9.102651288972672319e+02,4.431511538128415282e+02,3.336695566468032439e+02,7.824731369892874433e-01,4.115591315393603011e-01,4.672845719010113030e-01
9.433424251366193403e+02,4.594874964090102480e+02,2.540390678416604260e+02,5.641465200419742347e-05,-7.015071362249620801e-01,7.126624268493740866e-01
8.669049147038642786e+02,3.690603919377210786e+02,2.773770812973074840e+02,-2.081699635206420238e-03,-9.442731171273101021e-01,-3.291564169164899467e-01
1.361412555345905275e+03,6.213302877221165090e+02,1.556950992987135578e+03,-2.738996979663562148e-01,9.587526863663201615e-01,7.597527123547109795e-02
1.685743198746702774e+03,2.196875912588897791e+03,3.761717784110706475e+02,-2.529489363060683296e-02,1.932173560564947878e-01,9.808298637759527150e-01
2.800441375002877521e+03,2.424980900564269177e+03,1.096556469407320037e+03,8.703044351661757272e-01,-3.577141091418543639e-01,-3.385421779497106987e-01
1.804971511519200703e+03,2.044910167392157064e+03,2.998481588201366890e+02,4.013183524015302749e-05,-8.491303638108892438e-01,-5.281833238978892453e-01
2.265744748420190717e+03,2.052251464003850288e+03,1.986522310305513429e+03,2.901704840793734030e-01,-2.916268591603204396e-01,9.114575498537651477e-01
9.053152193716350666e+02,2.252375340192032525e+02,2.200137970820490523e+02,-3.905709681952567647e-07,-8.935062050600938166e-01,4.490508451377828725e-01
1.089487784859389649e+03,2.903182227324182804e+03,2.086534726215327282e+03,-4.564494006633446621e-01,-8.507543972842581681e-01,-2.605204409169695201e-01
1.832541461594469411e+03,8.685689762432944008e+02,1.828920622655004422e+02,7.379287219243010898e-02,3.668794569267235794e-01,-9.273370887108657312e-01
1.018202427319990420e+03,1.475778924025786182e+03,2.589894078229157003e+03,9.841662077500746841e-01,1.605757068031161139e-01,-7.504877019323208387e-02
4.599317982592069143e+02,1.120634407334715661e+03,1.527826911244870189e+03,-7.617483902872268509e-02,-9.547556200460450837e-01,2.874701721734628790e-01
3.000000000000000000e+03,2.623780073541168349e+03,2.224683736436336403e+03,-1.044857924829755216e-02,9.851963929598976932e-01,-1.711107667287453393e-01
9.192395632707007280e+02,3.115213076885176520e+02,2.656280979195309442e+02,-2.236786750758670839e-01,-3.382247176303179170e-01,9.140962152313051314e-01
8.191205193015489385e+02,3.303158242785771108e+02,2.959163609701739119e+02,9.407488147918055543e-02,7.527432235468143329e-01,6.515577918182154926e-01
1.470740000066693085e+02,5.173892084654107748e+02,1.020213280817162627e+03,-5.697071333381306113e-01,9.218349969504559260e-02,-8.166614871583102175e-01
1.564317806729348376e+03,1.329931839153000226e+02,1.038436927497092483e+03,3.299393357593749521e-01,4.565436160543766553e-01,-8.262614364465137307e-01
2.734161068913551844e+03,1.419108354990452199e+03,3.710807713934306662e+02,-8.576260356060136536e-09,-9.836176593693876091e-01,-1.802673020175518115e-01
8.728122629370159302e+02,2.423208549764363795e+02,2.030815311800143945e+02,9.307677977510271650e-02,-1.729636059932905187e-02,-9.955086885490830317e-01
2.524247930841488596e+03,3.069829869581986941e+02,2.121113409028192564e+03,8.907788502310157175e-02,3.255323090690964705e-01,-9.413255792508526953e-01
8.819745018014484685e+02,3.766710576514030890e+02,3.360827125392752350e+02,-7.631777668292797356e-01,4.494574875033182648e-01,4.642711095304963287e-01
1.819321219594385184e+03,2.098105380785282705e+03,2.344440550315098051e+02,1.028707009669465012e-05,-9.144342051739755561e-01,-4.047345850085159458e-01
3.738886177803379951e+02,5.223846539216227711e+02,1.041282356698388412e+03,1.050629078869827308e-02,8.688178516160158793e-01,4.950203617702951253e-01
7.345450773967872919e+02,2.509648024891853879e+02,2.234225327279084013e+03,5.391125545406987296e-01,-4.957839991483470876e-01,-6.808493810859153061e-01
2.772105536973237122e+03,1.389797068748383253e+03,3.375587375177518652e+02,-1.985703438930366028e-09,-4.031106266780091207e-01,9.151512567107488172e-01
7.349541848853564261e+02,4.535841040782448772e+02,2.734447996532921366e+02,-3.662451149201452205e-01,-8.713202276324525375e-01,3.265969637269470205e-01
2.768606608409404544e+03,1.339787322958185541e+03,4.270948526240139813e+02,1.618918709122083022e-02,6.050911909742446859e-01,-7.959915582634626841e-01
2.322748216471401520e+03,6.044410689184159082e+02,1.724968926499522695e+03,3.998651786475846889e-03,-7.635448217082682065e-01,-6.457424533251467924e-01
7.574901045398042925e+02,4.779594112225486242e+02,1.706554100630715993e+02,-1.455310548737802016e-07,-8.037767561951435491e-01,-5.949310264227203326e-01
1.814347975610262665e+03,2.053683184344531128e+03,2.593959807477182835e+02,-2.571696212132859073e-04,2.715699054053676287e-01,-9.624186824568119469e-01
1.543077609095070670e+02,4.486656198642598383e+02,1.023269560239022212e+03,2.059371871576790372e-02,6.761561970154366108e-01,-7.364704311695602357e-01
2.250731852337348755e+03,1.646578201292359154e+03,3.065110780031697004e+02,-9.383013444845675344e-02,2.967128192509176365e-01,-9.503459416241839541e-01
2.181235537788993042e+03,2.589625101740228274e+03,1.722226502545267749e+03,3.894969482582865128e-01,2.122735143367186425e-02,9.207831052145738493e-01
2.540553817670130229e+03,1.332987469477705645e+03,6.730992783002931468e+00,6.764064838939086721e-01,-7.321575708216309097e-01,-8.012215695329261145e-02
2.018382158422901739e+03,2.236059778300502330e+03,1.789515466973786715e+03,-2.351362805096612607e-01,-5.884475656184049441e-01,7.735892916178810363e-01
1.756611084778763598e+03,2.096488328492268920e+03,3.619840516398544423e+02,-1.191643768186342271e-03,-3.066631063454039463e-02,9.995289677529090033e-01
1.868270088005367370e+03,1.117552735234585555e+02,2.419666434439006366e+02,-9.223389302627080233e-02,-7.669314803761403398e-01,6.350661488264669474e-01
7.994502891226198926e+02,3.824547884895171137e+02,3.295798738964619474e+02,7.789805748479111669e-02,8.372809557359258692e-01,5.411954303225691154e-01
2.923950980136106409e+03,2.758877372949611527e+03,2.312677139179853839e+03,1.377252931769616662e-02,9.246119492762640280e-02,-9.956210347661146320e-01
1.449781949929739540e+03,1.535518296791862667e+03,1.603896748932353148e+03,1.225580799408201027e-01,-8.256161427032457922e-01,-5.507608391571002793e-01
9.197518525527763131e+02,3.817100092713156982e+02,2.669663420692075988e+02,4.523286125131854998e-05,8.228566847379160665e-01,5.682489545402736875e-01
1.372333656830446898e+03,1.569675531416873127e+03,1.519792471587311638e+03,-1.180167656409831026e-02,9.714600776694835016e-01,-2.369093453721857756e-01
1.542471501394250595e+02,9.830672977090861195e+02,7.013681638936324134e+02,7.544146705481912241e-01,-3.288408713749851331e-01,5.680864249170232139e-01
6.259907944045301065e+02,5.567019442473463187e+02,1.331782720609791795e+03,-1.306048634764159500e-01,-1.301144130653076048e-01,9.828594045686175340e-01
7.757819835662309060e+02,1.639684662579670089e+02,6.866756033064935991e+02,7.900496521607790479e-01,4.249762125055945861e-01,4.418334142242206219e-01
2.312304982277290947e+03,1.332975532118335877e+03,8.703622130769638261e+02,7.259957733183886042e-01,-6.245028151101978953e-01,2.879693925459319015e-01
2.079283033504138984e+03,2.005652172068671462e+03,2.604036295792741839e+03,-1.840530446233591688e-01,-7.728937342525877829e-01,-6.072559199529981022e-01
1.698790703820235422e+02,2.042388102773607216e+03,6.790414240092879083e+01,4.004751108275135252e-01,9.469109642089862389e-02,-9.114018223957525144e-01
6.430334622837318648e+02,2.602097342348361053e+03,2.096528243297161680e+03,2.203260275517315014e-01,-8.077642200849026732e-01,-5.467846068918754687e-01
7.038668790483694693e+01,2.894223986929780494e+03,4.441937249206854972e+02,4.082750044098048398e-02,3.350447957051830294e-01,-9.413172154372901890e-01
5.550966952463146526e+02,2.063080236465858434e+03,2.259996023688771402e+03,5.836219120723610924e-04,-6.117107138554647716e-02,9.981271258767633325e-01
2.290285084187748907e+03,5.359885231302886268e+02,2.412053935089050356e+03,7.337629981740496632e-01,3.597189708995757185e-01,-5.763628409999899116e-01
7.463557365134456631e+02,1.706936504171804472e+03,1.440936186643006295e+03,-8.102037643234004660e-01,-5.834251627629599701e-01,-5.643527027671325219e-02
8.733462210558789138e+02,3.109275062714040700e+02,2.080801291315858919e+02,1.059485324272454870e-01,6.348800048988521849e-02,9.923427745846237213e-01
8.023316301202488603e+02,8.955828569429161234e+02,2.819567149708196666e+03,-7.513112024879770035e-01,-6.051521092061800111e-01,2.632914767693432800e-01
2.282693578580527173e+03,4.564723294438937842e+02,1.749686844670507526e+03,1.261942488768903574e-02,-6.454515163149999735e-01,7.636969884726346747e-01
6.165610085692439668e+01,1.614916005953622744e+03,2.400304565465673932e+03,-2.136065922242733062e-02,-5.285831545815784516e-01,-8.486127331888029257e-01
2.984460128394887306e+03,2.665309975110847063e+03,2.195996998543797417e+03,1.055281919274346215e-04,-1.810616317768599659e-01,-9.834717455840312761e-01
2.899081795169577731e+02,2.747952093349017105e+03,1.037680225415090717e+03,-9.479881143680300992e-01,-2.896762795024606651e-01,1.319325134701798685e-01
3.071919570584220764e+02,5.628499999232876689e+02,1.014244371063177937e+03,1.442645093054267235e-05,6.385354133159700796e-01,-7.695924413176632450e-01
1.830863271763285184e+03,1.033086631338441919e+02,1.415959419936639279e+02,-6.230784520028039841e-01,-5.488066337560321140e-01,-5.573011047855206401e-01
2.547272889039459187e+03,2.315153478439660830e+03,1.877920839676724881e+03,-5.064475178421677659e-02,-6.272210855537636576e-01,-7.771929097421522714e-01
1.213747954566563294e+03,1.736853744782721378e+03,1.808533097457397844e+03,1.071446803694350303e-01,3.731690742594968024e-01,9.215556735677132849e-01
2.573615594233277989e+03,5.739114061642592333e+02,1.188120739427398149e+02,2.087938308849616731e-01,1.526406209351236637e-02,-9.778405517224101340e-01
8.290161417274603082e+02,3.690351127815461041e+02,2.349083704254638292e+02,1.125357486161778636e-02,-7.760496066474051879e-01,6.305714591346817111e-01
3.398108016782410914e+02,4.853203222250050999e+02,1.120846862252433311e+03,-8.682797229532365463e-08,5.373303977113649266e-01,-8.433718300342611940e-01
2.327468649173419180e+03,4.860683157148368423e+02,1.669412031153052794e+03,-5.872616868200917183e-03,9.487733179456696586e-01,3.159029970188392267e-01
9.797678861193742250e+02,2.842498529943542508e+03,2.330832146417767945e+03,-3.134201612742414378e-01,-1.713951544870488120e-01,9.340190059764250652e-01
1.754902099157246994e+03,2.097490987775838676e+03,2.278565538371879597e+02,3.872614171254449428e-02,-9.973006079256394596e-01,-6.238415968184598398e-02
4.244133864873541597e+02,1.545259933210863608e+02,1.631818239177923260e+03,-3.847701323782354299e-01,5.765061709327319317e-01,7.208277048685870492e-01
9.029052059939311903e+02,3.640213186723863714e+02,2.529903685559448547e+02,-3.986079009374783599e-02,6.674860098568402567e-01,7.435546678345152927e-01
1.794751247051198106e+03,1.618806023543559832e+03,1.542001771701001189e+03,1.208873825584025471e-03,2.013384326927367823e-02,-9.997965627962931423e-01
2.589284153240862906e+03,1.711152079342144134e+03,1.675481403269566499e+03,-1.419901372825384811e-01,-1.766696198364349768e-01,-9.739746641167497110e-01
8.113299506579118088e+02,4.060414315924680295e+02,2.280551804087754988e+02,2.278680140781834103e-04,9.957047385667777695e-01,9.258521303012132164e-02
1.410207279297541447e+02,1.397777206285474449e+03,2.779701028849440718e+03,-3.094852026253622768e-01,8.627345325411159838e-01,3.998850281230850734e-01
8.214783819982913826e+01,1.112593537289354572e+03,7.009452612335630874e+02,-4.473364770884025177e-02,2.445408976620279395e-01,9.686065507383846418e-01
8.988437143564265170e+02,4.736337134564649318e+02,3.194674536296978431e+02,8.735377007052730694e-03,-6.950159558028166096e-01,7.189412454213778281e-01
1.816130593832887143e+03,1.601332118475080051e+03,1.489955365769997115e+03,-2.484577522278680062e-01,-9.555741698265192152e-01,1.585772723886816060e-01
2.905578929726735623e+03,2.563299104517579508e+03,2.216809620188219014e+03,3.680187810612696730e-01,-6.876159738373670283e-02,-9.272723545493062325e-01
2.261424624885290996e+03,2.809851504557257158e+03,2.445292942915670210e+03,3.863967277778831422e-01,-7.987329286573531251e-01,4.612193376702586889e-01
5.244721398142924045e+02,1.025937604549110802e+03,2.200554401716078701e+03,-3.123760377433814142e-02,-2.892407248042385137e-01,9.567465783712822969e-01
2.838954837640983442e+03,1.495818390160621448e+03,2.776758260886866992e+03,2.187928516915880472e-01,8.161264627084999779e-01,-5.348525824146072027e-01
2.446548975582296066e+02,1.508374073960815622e+03,1.349093836254831558e+03,-8.237282013674613592e-04,4.759214097457685755e-01,8.794874264123681007e-01
1.483381897807881842e+03,1.509823155139641131e+03,1.448078083937534302e+03,9.233169165141670576e-03,9.797235809811298823e-01,2.001410838800448955e-01
1.862852245335277530e+03,2.108369155380425582e+03,3.188369850783197421e+02,-8.474814174138982359e-02,9.519744476372355990e-01,2.942148934319290809e-01
8.724978264954796714e+02,3.673801457722804571e+02,2.415863101599484537e+02,1.433319888682146048e-01,-2.513640140436546044e-01,-9.572210159680696329e-01
1.893126921809321175e+02,4.966407406295746796e+02,9.728951974983124273e+02,1.908728825457485859e-02,6.835944230467819738e-01,7.296124589166662622e-01
2.943731932409247747e+03,2.778287717634664205e+03,2.273678740142833249e+03,-8.620178743047961743e-04,-9.995503344379861321e-01,-2.997308542834070666e-02
1.773510942597393523e+03,2.123105433373297274e+03,1.880666843790567668e+02,-7.923824079222938077e-02,9.331087388323842102e-01,3.507554457321942487e-01
2.306688456598967605e+03,1.340425605689305257e+03,9.194671414781723797e+02,1.973062390808614508e-01,2.332591512612856577e-01,9.521871750725434680e-01
1.436339252941809264e+02,1.467339410490134242e+03,2.718885509968893530e+03,7.041599421495906563e-01,-6.442049462411323368e-01,-2.985946468213135918e-01
5.618652981695092876e+02,2.544004204035157272e+03,2.124195547117562000e+03,-1.720122533038835611e-02,8.562795641020306547e-01,-5.162261383815911486e-01
9.217192941828210451e+02,3.099915204279336649e+02,2.698281418024442928e+02,1.861079572819634154e-01,3.409544789945371801e-01,-9.214737497562796031e-01
6.165592532530097003e+01,1.054496078098318776e+03,1.961727078647691314e+03,-3.208441655106931273e-02,-7.873008010418429681e-01,6.157337402590912223e-01
8.870873837732364109e+02,3.699929940793747392e+02,2.272148144263107667e+02,9.206067544578738771e-01,-3.329247928130037448e-01,-2.040693165984501789e-01
1.621913164531067423e+03,2.104038479420871681e+03,2.837819981337625904e+03,-5.357891905002153815e-02,1.410926228554306716e-01,9.885454826204035372e-01
1.457729080386586702e+03,2.884579832285569410e+03,2.240323075273134236e+03,-8.863234431595391483e-01,8.246050370200236346e-02,-4.556654687761969580e-01
2.720178206305890399e+03,1.207539093756054172e+03,2.423448800985836897e+03,-1.532943873228304610e-01,9.881710971453874226e-01,4.325919763384478145e-03
8.336469158681429690e+02,3.428226131337268612e+02,2.262201555972368112e+02,-1.055696959354509960e-03,7.865859544242101986e-01,6.174798958723144437e-01
2.169362443802636790e+03,8.951820858024868812e+02,1.471084976098554307e+03,-3.340377570715756805e-01,-7.195419547653565395e-01,-6.088334355002530396e-01
2.072766826684490752e+03,1.115956976844120163e+03,2.169317135454617528e+03,7.520379063429846744e-02,1.464014399536511801e-01,-9.863625136093373547e-01
2.714869589471978543e+03,2.231988214671637252e+03,1.436848953736481917e+03,-7.237909092135988431e-02,-8.668189514422701691e-01,4.933418415438941551e-01
8.798852433587866244e+02,3.089117883908207887e+02,2.274413807289349734e+02,1.086070606810660318e-02,-9.163797821751978878e-01,-4.001626417898591637e-01
1.905904350510364566e+03,2.882585271190023832e+03,9.578245162248819042e+02,3.900256566589727081e-01,-1.657008101630163752e-02,9.206548862428582947e-01
1.292366275554360072e+03,1.803063919549350430e+03,1.031163608915433770e+03,-7.273362413676858207e-01,5.716326141023855278e-01,-3.797606436791478579e-01
2.290628517428986299e+02,1.772541295175113419e+03,1.676985722542619442e+03,-2.451514360437434814e-01,7.512230582087006114e-01,-6.128333298877091107e-01
2.115433743587244408e+03,8.640591798727016339e+02,2.913398816834455374e+03,1.952933395605402356e-02,9.403191710341148868e-01,3.397329270190745376e-01
8.300293676451844931e+02,4.583149365724825657e+02,9.776676521983925738e+01,-8.046480076371388332e-03,6.940078191025140786e-01,-7.199224966501273082e-01
1.229795705024632753e+03,1.129797716164639269e+03,4.262716855298668861e+02,-6.145773089733890665e-03,-5.311195969120101612e-01,-8.472745737062770122e-01
2.882588887383540168e+03,2.714348329189614105e+03,2.315891783293565823e+03,-5.378877245287026071e-02,9.876873078735726175e-01,1.469031988197260774e-01
2.326644556566174060e+02,2.770361260235305053e+03,2.191622875922123967e+03,-6.555481135703760120e-01,-7.363113479634065817e-01,-1.676373158179066125e-01
2.627614081419516424e+03,3.076132276592713310e+01,2.434271289878967764e+03,-1.948012841184200428e-01,4.094047079062066996e-01,8.913137746327317590e-01
2.969029829371315373e+03,2.638987171480161123e+03,2.171156587006596055e+03,8.269646905777628537e-04,9.992128540351099542e-01,3.966091855228130736e-02
7.925275379206482285e+02,1.808849226609372352e+02,6.353472774282000728e+02,2.067754145212091221e-01,8.068261317238170083e-01,-5.534216485801437546e-01
2.620180246228068427e+03,2.964985829358624414e+03,5.329874571303649589e+01,-6.764714002039218244e-01,7.276890819619469264e-01,-1.133800895198284753e-01
2.748822477687281662e+03,1.386938633379954581e+03,3.495732842043012738e+02,8.182159922068963365e-01,-2.316752039993969503e-01,-5.261646034737818001e-01
7.319955382956807171e+02,1.664365505195795549e+03,1.468709321096396252e+03,2.507574421689525573e-02,-7.817846261800524832e-02,9.966239687237379297e-01
1.789991758935096414e+03,2.061327218006880685e+03,2.107972434290313117e+02,-3.733625816392597829e-01,-9.120919690743179986e-01,-1.693771607442997873e-01
2.146635871434035380e+03,2.513432876589339230e+03,1.682738405842887232e+03,9.756596469380577133e-03,8.602576357430595788e-01,-5.097662297279952348e-01
2.397027188800848307e+03,5.077955356648467955e+02,1.687568364147627108e+03,-8.375116364020517012e-03,-2.234871042956976250e-01,-9.746709042745725915e-01
7.840168232963829098e+01,9.777923872610513172e+02,1.506929085325243250e+03,2.159930944632557082e-01,4.945320328584034142e-01,-8.418937294107387004e-01
8.948531209999521252e+02,3.115475393940041045e+02,2.916074002173731969e+02,-7.874904262409355982e-02,-7.800015104582154191e-01,-6.208028930092797104e-01
2.049586025684394372e+03,1.924600005705213789e+03,1.241459771807805197e+02,3.038469194294268066e-02,3.483038065018234097e-01,9.368891230406471982e-01
2.893649038305414251e+03,1.648832149042998708e+03,1.102186644562146284e+03,2.821141232101326106e-03,-9.990820441535374075e-01,-4.274470975615388135e-02
2.574621228792249894e+03,2.905376620208061922e+03,2.819526578736853480e+03,5.187206529289105639e-01,3.531124928751764869e-01,-7.786144434830909455e-01
4.440540311113097118e+02,6.334874984001310168e+02,1.280261879224656695e+03,1.465778247610142679e-02,8.962267716741849632e-01,4.433539479325199761e-01
8.453716390316063780e+02,1.606856789144835602e+03,1.607356794784603380e+03,7.360589387183910093e-01,-6.602083373017811896e-01,-1.494730413485110543e-01
8.969282098668628578e+02,4.172285865729568854e+02,3.627391216610925539e+02,2.756315753320294493e-02,7.833319336401747268e-01,-6.209922335153191808e-01
1.275522952398226380e+03,1.453329028168381228e+03,3.603529992527884360e+02,-5.774979695372385313e-01,8.051087945772187338e-01,-1.352624266926510110e-01
2.598649551455031542e+03,1.692318473471523930e+03,9.431586363308558703e+02,2.744100225963108097e-01,-1.615898074161797038e-01,-9.479387499400444561e-01
1.889865743991196723e+03,2.182023234950811911e+03,3.564304979660104209e+02,1.884935529883091376e-01,-9.263517549390043460e-01,-3.261021413656621792e-01
1.939841037480002797e+03,1.692417999120716331e+03,4.637266750495917336e+02,-5.580601102474972430e-01,6.737794696870849087e-01,4.843450625109562702e-01
2.514715736633000688e+03,2.603653028393880504e+02,2.091022939926627259e+03,-3.519915541470289375e-03,-9.572078883030821217e-01,-2.893798002019758453e-01
1.327094866890204912e+03,1.093873364926511385e+03,4.430265319037192739e+02,4.352138533283248477e-03,-6.443761551586504321e-01,-7.646962989011664158e-01
9.481296995531779430e+02,4.132534042696248662e+02,8.073720257442055015e+01,-3.948057795721949094e-04,-5.777538939055970602e-01,8.162109299717301703e-01
2.228639045187995180e+03,2.947685914927840713e+03,2.159708535869990840e+02,-9.810009149127314754e-02,6.855963706462582241e-01,-7.213417973513542858e-01
2.193707503311069559e+03,2.934245086065712258e+03,2.948593100440895341e+03,5.558057919649490586e-01,-8.246797686100986180e-01,-1.048007674752917812e-01
9.420589143086772310e+02,3.547903260399154988e+02,2.602101127128116218e+02,-1.538148691758332853e-01,1.161039677783818752e-01,-9.812547348606974751e-01
2.282341505275956024e+03,2.032860216252424379e+03,8.649403949193831522e+02,-2.286011006824204828e-01,-5.717078797963064396e-01,-7.879667740111875318e-01
6.171156702302644135e+02,2.256297018531084177e+03,2.944108612426882246e+03,9.844448266501198974e-01,-1.754615186148748007e-01,-9.035417377040166897e-03
1.702646140771956311e+02,2.812963171566563574e+02,2.278672332237773389e+03,9.420196380614868081e-01,-3.296004730649583769e-01,6.294862716422967852e-02
8.841472736419815419e+02,4.695109849627739891e+02,1.283738706863009043e+02,-3.238841129268615893e-02,7.761878206672457869e-01,-6.296693242184878692e-01
1.674873181442396799e+03,2.085717599732795975e+02,2.082825909370188583e+03,-4.721662544623743130e-01,-9.972146173278610692e-02,8.758508196130485590e-01
3.605872693839722842e+02,1.539020783518996723e+03,1.428023631950994741e+03,8.290149526929167789e-02,-1.067897869717386594e-01,9.908195009590022861e-01
8.222509605771418819e+02,4.011849498173672828e+02,2.968137110903769553e+02,-1.511483822632735459e-05,8.521994603457098139e-01,5.232170482295304126e-01
2.245739410642529492e+03,1.629358682365754021e+03,3.664782281710252505e+02,-1.972465638186216702e-02,-8.708535161523482948e-01,-4.911467106025542706e-01
2.427764318831817150e+02,1.644745770317430242e+03,1.441087617135302025e+03,-8.438152444978748168e-01,4.853342398511156786e-01,-2.289683575980130392e-01
3.891320362041604426e+02,1.591310293059603737e+03,1.399027872213562205e+03,1.557500322492542388e-01,-1.058509436996788872e-01,9.821087033379980458e-01
8.577958889688616182e+02,4.455068256259626196e+02,1.947792503985224926e+02,-1.861217846329158070e-06,8.850494589922343058e-01,-4.654969979861195428e-01
8.699746396307357372e+02,5.031796761595425096e+02,3.069246562862213068e+02,1.421428041943236615e-03,5.962927743195697294e-01,8.027657857909693551e-01
2.670173937345230115e+03,1.437938707432835827e+03,4.362622880979051274e+02,-2.337921040907208967e-02,5.577215994717985570e-01,-8.296987585884812999e-01
2.985870873945126732e+03,2.667959530691338841e+03,1.731430011409687950e+03,5.341468448468496000e-01,-8.419599786912459471e-01,7.609561368694196803e-02
8.603113672385983364e+02,3.890245351087555719e+02,2.249352505900214396e+02,-4.282692246345752574e-02,5.291015592651603372e-01,-8.474770762064807172e-01
1.438612294724561934e+03,1.527304578368351031e+03,1.494642250149249094e+03,-9.771175780328950067e-02,-1.092256156216808716e-01,-9.892027988633352864e-01
1.228033827256959512e+03,1.293977529704841118e+03,1.506029156619383230e+03,8.984539716194610559e-01,-4.387727069942611302e-01,-1.609262185428850245e-02
1.274524863815908589e+02,1.008626395712303179e+02,3.953633493826936274e+02,1.938085645157352870e-03,-3.530685560123514397e-03,9.999918890088597134e-01
8.825539712650934234e+02,3.939768429133380891e+02,7.428443505174791994e+01,3.463403416546176230e-04,-8.347474157247888327e-01,-5.506329376173880741e-01
2.407166287162946446e+03,1.728446551610235019e+03,6.387427129518690663e+02,-4.535034106655695396e-01,7.892067336575757652e-01,4.141103573496274226e-01
5.040654363883978704e+02,9.552000704893489456e+02,5.017865175761416481e+02,1.476295334949643823e-01,4.081456687389484195e-01,9.009010122814247179e-01
2.037474707156966360e+03,1.854285145791762261e+03,1.870719258570952093e+02,-6.680285572261224214e-01,-7.089615885508940840e-01,2.260781119210310275e-01
2.893603005475921236e+03,2.611636460836228707e+03,2.252118156297049154e+03,9.249854545499906766e-02,-9.825307628460823173e-01,-1.614847334883550700e-01
2.799275571376467724e+03,1.456612902805454496e+03,3.636446387775672520e+02,4.086528237609230590e-02,6.303732400392196844e-01,-7.752158453868048804e-01
3.000000000000000000e+03,2.746937546400413794e+03,2.306499639545085756e+03,5.689776847067468113e-01,-1.920278483641121303e-01,7.996184713714405978e-01
8.140293804389481238e+02,2.966462668057799874e+02,2.284108094347720623e+02,-4.682843640246010797e-02,-9.958636806103012828e-01,-7.786287424315069261e-02
3.057012226321159005e+02,1.592014372101441268e+03,1.539279864357127963e+03,2.712683070594221757e-01,3.224211857234940415e-01,9.068947483483247307e-01
3.246223106441211144e+02,5.010600703437285688e+02,1.034831017078475725e+03,5.564951559510819675e-04,5.403721210333021219e-01,-8.414259688903782397e-01
