x,y,z,nx,ny,nz
2.197805233693258742e+03,1.419473118339398525e+03,2.932988860619216211e+03,-4.525255761172071987e-05,5.841193985646818687e-01,-8.116677437059084399e-01
9.094066214566065582e+02,2.634325351891013725e+03,9.176725715347313326e+02,7.049635315737244889e-01,-6.174575971670326346e-01,3.489592166024804154e-01
1.697274312562966543e+03,8.755982615841911638e+02,1.630776824886463601e+03,-3.708338216857883472e-03,8.448372623199007503e-01,5.350105124420310165e-01
1.823495243288681422e+03,2.772974956852636751e+03,2.674710352569690258e+03,-3.784186199827381247e-01,6.093294414470027398e-01,6.967904848921544492e-01
2.966766956377883275e+02,4.088803997043134473e+02,2.978835776103340436e+02,8.076645968852212976e-01,4.834448921864032411e-01,3.375780430613193883e-01
2.994190005171299163e+03,1.965558375967962093e+03,2.465711471179818091e+03,-6.871535650165995213e-01,-4.518371973489904159e-02,7.251057919751408010e-01
1.664474407791072281e+03,8.449631709254047109e+02,1.558577277052045247e+03,-6.562955373721308938e-02,-1.060130593618556633e-01,9.921965495409637015e-01
2.910975440771502235e+03,1.948085102843099321e+03,2.511727637663051155e+03,9.931558969595322139e-02,9.945469686048968860e-01,-3.182359002619442045e-02
2.594547295643029884e+03,2.467834869539984084e+03,1.851977906017021951e+03,9.351653106922249714e-01,-3.436534702682639275e-01,8.583783577475556648e-02
1.625956998862400724e+03,1.113573531623101616e+02,4.357737109447108992e+02,-9.361428230893944491e-01,2.719533771276323453e-01,2.228855658114599347e-01
1.529093077224477838e+03,1.176451598105201697e+02,4.830392295725775966e+02,-1.624183380698504152e-03,-9.606808353429699965e-01,2.776503099819615517e-01
1.522334516163572516e+03,9.307739456444699044e+02,1.704246760555829951e+03,-1.205711771141052546e-01,-6.102196044160868027e-01,7.830035923516530660e-01
1.426168276020275471e+03,1.508342498580969732e+03,1.389063245021660578e+03,1.122507585511542255e-01,8.595596776840501718e-01,4.985548392146869068e-01
1.606927494144456205e+03,9.090569023221751195e+02,1.736074134725883368e+03,-3.872177812970737931e-01,-5.166136763053845726e-01,7.636574489269432053e-01
2.837113891229929322e+03,1.749457704196788882e+03,1.085553104834359374e+03,3.618334596496591837e-02,4.191841473964380560e-01,-9.071799248474917698e-01
6.870346718707444325e+02,2.774997921141548886e+03,7.957472495141804529e+02,4.285749136618066113e-01,-5.075595533435365292e-01,-7.474669512356280077e-01
1.572306576849922294e+03,1.543421539257636823e+03,1.446305375499795900e+03,1.219660769477797088e-04,8.283405659116191977e-01,-5.602248584180236080e-01
1.568085590609316341e+03,8.523947068701361331e+02,1.689969045902669450e+03,1.475228259819135954e-02,9.415681234415956835e-01,3.364993894152191745e-01
3.000000000000000000e+03,2.096112959635518564e+03,1.822504701819196271e+03,2.425152600639003675e-02,1.654960507698998162e-01,-9.859122276683295327e-01
5.605458289365642486e+02,3.683657249387065349e+02,1.513786990445475112e+03,-3.831196373605451067e-01,-9.215436765831627186e-01,-6.306025387129100823e-02
1.061708992029450428e+03,1.783632962919411284e+03,2.917628032768155663e+03,1.083988774170340386e-03,-4.246229130781467576e-01,9.053696519418829025e-01
2.664488520607743794e+03,2.308070952845522243e+03,1.751348371116491307e+03,1.050088130273740955e-01,-6.068584924424855753e-01,-7.878425726863304002e-01
1.836125511830286996e+03,9.058714148915152009e+02,1.032167354519288210e+03,9.903997881212512136e-03,8.511640740609660583e-01,5.248062784055724794e-01
2.339032953945722511e+03,1.911680837627186747e+03,1.926136160972139351e+03,6.348611119068547914e-01,-7.412043884981103226e-01,-2.180995714336334546e-01
2.189282912161329932e+03,1.396547085342319178e+03,2.967400107104699600e+03,-1.342790160977375971e-04,4.328018893762811126e-01,-9.014890495848894014e-01
1.618667695288435880e+03,8.645666847965597981e+02,1.711720332797169476e+03,-4.194465296174971353e-02,9.402939437303156067e-01,3.377690712187962907e-01
2.083294168824448661e+03,2.819912033921614693e+03,2.760622410708449024e+03,-1.698383086182188584e-01,6.200079271469578490e-01,-7.659928976176184623e-01
1.587429620880099492e+03,1.941580737625601387e+03,1.213041121641898826e+03,-1.496047298447307668e-02,-9.219649278760837507e-01,-3.869843097782241781e-01
1.719879666952722800e+03,1.429186815558015041e+03,4.658084114810693563e+02,1.409605506437490441e-01,1.311546312868779873e-01,9.812892467841549671e-01
1.654856003547450655e+03,7.377079406212916410e+02,1.684165350630427156e+03,8.806176040760732224e-04,-5.633287774318098684e-01,8.262323601928320826e-01
1.487683466533718729e+03,2.293787801250951361e+03,2.472904371743311003e+03,9.509754612340081126e-01,2.456266684467763861e-01,-1.879180988582607459e-01
1.916355134896220306e+03,7.682713745189888641e+02,2.579243560074187826e+03,1.908572051726975874e-02,8.778006836435260363e-01,-4.786456884453207383e-01
2.833785997100321310e+03,1.470695583872997759e+03,1.056098528744511214e+03,1.039106947373416405e-03,9.188780929506903394e-01,3.945402014396688362e-01
9.911785512732240022e+02,8.965840684326292376e+02,1.611559096966682546e+03,-1.996952481583367259e-06,3.691830132036525991e-01,9.293567144847472150e-01
2.996104484858666638e+03,2.091472975208940170e+03,1.833733813211559209e+03,-1.395426772935358661e-01,2.938612764507357311e-01,-9.456074192901070541e-01
1.541088108575076149e+03,1.531096361457992998e+02,5.088166810836577838e+02,4.962749870548328890e-02,1.085795916970240804e-01,-9.928482178254361967e-01
2.390391533757012439e+03,2.941952909799270401e+03,1.899716703398109985e+03,-8.738351489864391031e-01,4.475114911860516020e-01,-1.901199559548769624e-01
9.852206089033834360e+02,6.374487468043672607e+02,2.663171205081746393e+03,-3.461956323069396990e-02,-5.547581496132816259e-01,8.312910929869054000e-01
1.539733329843108322e+03,1.618469953883859489e+03,1.423625692594061093e+03,-1.256642521361811234e-03,-5.357842800334894351e-01,-8.443539696824838847e-01
2.119466682659051003e+03,9.655611961430097381e+02,1.551126919188987358e+03,5.418473753155901617e-04,6.707769484912818880e-01,-7.416589457251534512e-01
2.167286339904738270e+03,1.494229068835138150e+03,2.855591586418899169e+03,2.310214102692656729e-04,-5.955552979561307136e-02,9.982249673795341449e-01
1.048656006516385560e+03,1.426580606829644921e+03,1.543105598338859181e+03,-1.224626382850119833e-06,1.709716914228690543e-01,9.852759414146391448e-01
2.070067292911832624e+02,1.791808421228299721e+03,1.566622514465634367e+03,1.140205536745039945e-02,3.438317409668385505e-01,9.389620477085910411e-01
3.967746212864077506e+02,3.045145940185880136e+02,9.651293162565797275e+02,-5.099747347099040443e-03,3.124599261584195542e-01,-9.499172527762989038e-01
1.104125101089886357e+03,4.161030596967624433e+02,6.161880143048920218e+02,-8.731412896364492138e-01,-2.116691775574495726e-01,-4.391132514558757638e-01
2.307773429157469309e+03,2.244419415367433430e+03,9.901085764246028020e+02,-3.130623383722200836e-01,-1.035690774405679526e-01,9.440685454409690758e-01
9.694265793389055261e+02,7.842904474583887122e+02,1.486866205384675141e+03,1.469349964678059604e-04,2.440618223150439470e-01,9.697596636787729762e-01
2.301263061083398043e+03,1.627111796318619326e+03,1.685070685125737782e+03,2.227951081332121830e-01,2.156013749243681360e-02,9.746268518069967079e-01
7.585525601056215237e+02,2.034400879639496225e+02,3.406242725709935826e+02,-2.981323664265945195e-01,-7.363616558835173187e-01,-6.073620039427582995e-01
2.253279133198481759e+03,1.046583188530437383e+03,1.879067881360471119e+03,2.438312995653121014e-05,7.889906545440199259e-02,9.968826093757905404e-01
2.431408278560807503e+03,2.248515081761884460e+02,1.723209582864308516e+02,1.926219869555849395e-02,8.228605508690272075e-01,5.679167910221830651e-01
8.694758341401843893e+01,1.734348737212240849e+03,1.000182837308126068e+03,-7.122545781715909907e-01,6.950491180812272685e-01,9.798030071456888257e-02
1.416167814653062464e+02,1.881244430388901947e+03,1.796912945121134953e+03,6.283211512437397728e-01,-2.007555118479094625e-01,-7.516047866814217215e-01
1.067689814480056157e+03,7.268236630593329437e+02,1.475782247198218784e+03,-1.753859543106873250e-03,-9.952719645243012225e-01,9.711148546202523490e-02
2.132352029796491024e+03,1.473808651916851659e+03,2.812753521299312524e+03,1.672019445207561239e-01,-9.444390608599322334e-01,-2.829812185825896775e-01
2.215274311306259136e+01,1.245596548620153499e+03,9.323437453499503818e+02,1.979702995425156042e-01,8.726480457092326004e-01,4.464226123516861211e-01
1.067546666060545704e+03,8.244551857973989399e+02,1.624834581438069790e+03,-7.500895592889471938e-04,-9.260076012470525031e-01,-3.775041189157183896e-01
7.354101260027168792e+02,2.425657142330174338e+03,8.413497224267518959e+01,4.924167977999470425e-02,-4.475732690188933827e-01,-8.928904892718847464e-01
2.180606441950851604e+03,2.912023664975232350e+03,2.788358532601841489e+03,-1.442641522456837057e-02,-5.565154447588389619e-01,8.307120068282629610e-01
2.104629140229957102e+03,2.837484480136618458e+03,2.779418345273813429e+03,-1.449434370459961041e-01,6.225043875655719150e-01,-7.690771661666374603e-01
1.844410375010826613e+02,2.339285741116152167e+03,8.931894153731385586e+02,8.750657941602363321e-01,-8.763004263653449699e-02,-4.760050750971403510e-01
9.600080496529699303e+02,6.180940177340091850e+02,2.640723691798008531e+03,2.857402787135937539e-02,-7.699210981642299334e-01,6.374990412014697183e-01
2.701025296495615748e+03,2.305935942515657644e+03,1.695562901930762791e+03,-4.515836439674741354e-01,8.051942652680713630e-01,-3.843623390506259452e-01
7.133036277068329127e+02,2.760519792745677933e+03,7.713179388902055962e+02,1.332413872211322655e-03,7.785032760716070754e-01,-6.276391270619194884e-01
1.136848687039048173e+03,8.454758695709449512e+02,1.607712034025758612e+03,8.167643022734937669e-04,-9.443842495271856929e-01,3.288430053095988681e-01
2.660136446998712927e+02,2.155479732093696384e+03,6.127356609498565376e+02,-2.899674407903360396e-01,1.534387240117137396e-01,-9.446562556057944704e-01
2.332104379813551986e+03,1.032076904764911205e+03,1.922037326691244743e+03,1.557551934710464908e-04,-9.675251992661975109e-01,2.527745329838916311e-01
1.606768179131840498e+03,8.549864454401291596e+02,1.656255868769684866e+03,-2.440133601692230474e-03,-4.885378095693649336e-01,8.725393139390184016e-01
2.158149264034414472e+01,2.334148148333660629e+03,8.968777999366568565e+02,-7.366626292082386618e-01,-1.117115809526227077e-01,6.669697844798300190e-01
1.562071055542364547e+03,1.404694378052988441e+03,1.510323973145124683e+03,-2.639255911016531037e-02,-4.970074366519899312e-01,-8.673448222801786178e-01
9.826279739721454689e+02,2.818118352534906990e+03,1.515432843049328994e+03,3.608803304513785171e-01,-9.099828276384566150e-01,2.041975526210413061e-01
1.657828377520744198e+03,8.233433793712226816e+02,1.690268894709679898e+03,-6.904903741327035778e-03,-4.723474788777577982e-01,8.813853762697390071e-01
1.944614860088793421e+03,1.265525605068637560e+03,1.788756726166272529e+03,-5.601213285475609149e-04,8.106261700920112112e-01,-5.855637442892576150e-01
1.765471454294595787e+03,6.207108916847992077e+02,9.965812553239434237e+02,2.297823514621355132e-02,3.776996683105550145e-01,-9.256429988217175220e-01
7.508832607461546331e+02,2.701462906264475805e+03,8.585663250254790455e+02,-5.113044794868543130e-02,6.245528714542024629e-01,-7.793069921737371120e-01
7.044522881934898351e+02,2.784107289630627292e+03,7.507764367538529768e+02,2.340877741571682381e-05,-6.992334891269392783e-01,-7.148933676677911020e-01
1.535098813750296358e+02,4.740815119875344408e+02,2.442924643882366581e+03,-9.118535788426405109e-01,3.967850602197659504e-01,-1.052837439411473675e-01
1.312383926014004373e+03,2.311044747749930593e+03,2.529246844588194563e+03,-2.591594345850365411e-01,2.615165218218039669e-02,9.654804392392972723e-01
2.381164100960851101e+03,9.580218142503722447e+02,1.974983511381820563e+03,3.808908025870843400e-03,-9.913177226440420542e-01,1.314331198423006331e-01
1.604969913820896181e+03,1.447236113497094721e+03,1.603920521112283950e+03,-5.236627535124163099e-05,-8.079064431218556663e-01,5.893107638758730005e-01
2.839893467624258392e+03,6.520066459710402569e+02,1.114428541653952820e+01,-1.863313869529258440e-02,-7.228587265835586528e-01,6.907445747484073362e-01
1.168288012829898435e+03,8.309958762019925871e+02,2.691972952015595638e+03,-2.384837863690005694e-02,-1.686752033510339685e-02,-9.995732797519829571e-01
1.075562519813994868e+03,8.120727655593669851e+02,1.463587075008588045e+03,7.473518035512390512e-04,-5.232618683802712223e-01,-8.521716133294218176e-01
4.586619733902879261e+02,6.905757232551108018e+02,8.083643020809710151e+02,5.968264338903278088e-04,4.653003547052463329e-01,8.851526555964117637e-01
2.469958755441015001e+03,2.991076437219707259e+03,2.309452714974065941e+02,8.318421721531550628e-02,-3.998497610807025954e-02,9.957316845877268729e-01
2.696402510774592884e+03,2.255824581641711120e+03,1.735311327688769097e+03,-4.115121464629912379e-02,-3.556221234934143771e-01,-9.337234509292186013e-01
2.226265670188715376e+03,1.652212484029410462e+03,3.095613578490737723e+02,7.995303656622982924e-01,3.641673235222167015e-01,4.776330755533757522e-01
7.832107657325097989e+02,2.825357636090206597e+03,8.196327827110015960e+02,6.700492847450927741e-04,-5.803137051306849203e-01,-8.143927520990423830e-01
2.218929067818983640e+03,1.469654757651638420e+03,2.871111935799045568e+03,1.464694838291973333e-01,8.124857663866853763e-02,-9.858728919597083973e-01
1.671422972664182907e+03,8.295577796685228122e+02,1.617890879476867894e+03,9.047523855327442577e-03,-8.448084922267652397e-01,-5.349922931908710488e-01
2.504123309945404344e+03,3.581920789115859520e+02,2.638397246348435601e+03,-4.827917285624154509e-02,7.451453116188087034e-01,6.651523028907181390e-01
1.799455382708164052e+03,9.330450775551806828e+02,1.038409697172285860e+03,4.657839537462936386e-02,8.502819552745657372e-01,5.242623862330637596e-01
1.024739877271804744e+03,1.022466500952325873e+03,1.590116218575185940e+03,-2.262606281158232036e-01,-7.941101159371992679e-01,5.640879824378827179e-01
1.201420118147465246e+03,9.292096768401687541e+02,1.668515190336799606e+03,-1.186554140556862619e-01,-3.596929540550020676e-01,-9.254954735267265642e-01
1.680815371098224205e+02,2.771582530620262332e+03,1.949649412096524202e+03,9.126694809615959469e-01,3.147323186893458136e-02,-4.074847901419334506e-01
1.374921442856913245e+03,1.613376493286157029e+03,1.462955286375181231e+03,-9.395785998360007977e-04,5.971577039529512021e-01,-8.021233033653207833e-01
5.277731145069139984e+02,2.775017944328066051e+02,9.486670522113273591e+02,-1.741143401269499517e-03,-2.316277093233701512e-01,9.728029464867304910e-01
1.577560625305142139e+03,8.210632972955269224e+02,1.728669266625150613e+03,5.326802120647112782e-01,3.925321721885184356e-01,-7.497801580941292343e-01
2.812886718719544206e+03,1.421508014491473887e+03,1.052386809196255626e+03,1.093697955239121420e-04,4.890641736405052509e-01,-8.722477985639044418e-01
1.141476055822701028e+03,1.075445742919304848e+03,1.239439505860493000e+03,9.273113515978682608e-01,-2.772339254323852309e-01,-2.514657189103224333e-01
2.248670173182283634e+03,1.076129888627833225e+03,1.851027458396593602e+03,5.627821514821260744e-06,2.754720808314481406e-01,9.613090723855257647e-01
1.452619103394669764e+03,1.249213919628620033e+03,8.857407982615160336e+02,-8.148235622295323388e-01,3.347438848361818375e-01,4.732959898418286904e-01
9.904654547023151281e+02,2.136439872785671923e+03,4.585001236543015466e+02,-5.504610888663798995e-01,-6.476237927203084555e-01,-5.268548308088313314e-01
6.496751314007722158e+02,2.789787212557288967e+03,6.562750798938596972e+02,1.395332136096984720e-02,7.382400691678020488e-01,6.743937315086169226e-01
1.116769491796908653e+02,1.849603976351777646e+03,1.738792945421127570e+03,5.288536837812208430e-02,-9.698225874797103963e-01,2.380069045756232626e-01
1.431957850884425397e+03,1.738532548032099157e+03,1.596474127257566124e+03,-1.745620851800080697e-01,9.836766874119184934e-01,-4.368355594411293258e-02
2.018514422255457248e+03,1.679501106197441459e+03,1.982371734687263370e+03,7.773842805838875047e-02,6.818709195234009535e-01,-7.273299017030184777e-01
3.069128339284508229e+02,1.695335867685473886e+03,2.675757092760089222e+02,8.696901522779002525e-01,-1.837596674196699531e-02,4.932558797187731603e-01
1.834912380972342362e+03,5.367992786660778393e+02,2.547257273531960891e+03,4.483239529876424379e-01,3.132970642472205358e-01,-8.371681926062450874e-01
2.190461673274762234e+03,2.908598864510867315e+03,2.748620182640696839e+03,-7.124574675747097352e-01,5.410826462440082585e-01,4.468041257985571058e-01
1.933585761690887693e+03,2.684700373922992185e+03,1.775849547291130875e+03,1.553953068417082140e-01,-9.694743457734315006e-01,-1.896623091147748852e-01
1.682111592421511205e+03,8.387451946522500066e+02,1.658197267006017000e+03,-4.305849444931116737e-02,-9.921644838026908442e-01,1.172842834155478076e-01
1.517139735354134245e+03,1.466125778605261530e+03,1.487617871576324660e+03,-2.159705176109686375e-01,-9.719563836141853486e-01,-9.304581599666189584e-02
8.624759510469858981e+01,2.462507123058932393e+03,1.869285679607230122e+03,-1.817313434506281087e-03,-8.913313587944607930e-01,4.533487688320118614e-01
1.106264914436972958e+03,2.061339819085997078e+03,1.289224095335104039e+03,-7.143966275510574065e-04,2.506716480916819090e-01,-9.680719056353502827e-01
3.808067613881538023e+02,7.337790641656939670e+02,2.528823616640498585e+03,6.856877097314725278e-01,1.538291535436863977e-01,7.114555195114035113e-01
1.470887649223956714e+03,9.110921379785969521e+02,1.718436428144708088e+03,-4.906274071063190245e-01,-5.356343526623493778e-01,6.872994890468900886e-01
2.123264608564212267e+03,1.396418475060308083e+03,1.284585155761237502e+03,4.099172695446213210e-01,-6.560758974920241071e-01,6.336657232793307948e-01
1.743951581718745047e+03,2.195009742089569954e+03,7.864018389030894696e+02,-1.701811737708824879e-01,-8.357340554846602876e-01,5.220986081164433745e-01
4.004426714538346346e+02,1.878868835976098126e+03,1.794482610507504205e+03,-6.885286324770305555e-01,-7.340801098777764711e-02,7.214842937875560747e-01
1.168554929336025680e+03,8.026225714192577243e+02,1.701031604859535946e+03,5.023693438871005591e-03,3.995605342339046961e-01,-9.166930467648094494e-01
1.114271100251943608e+03,1.332959856368363944e+03,1.602957965356104296e+03,1.841683514006236533e-01,9.828871784673637313e-01,-3.848733147578760425e-03
1.595007226057424759e+03,2.879706149611930869e+03,7.973296664251793118e+02,-9.979019270880967740e-02,2.540466224248342786e-01,9.620302651547258943e-01
1.119220677754608232e+03,8.492401566687058221e+02,1.538527186854452793e+03,8.576527159176726076e-03,5.471142088139211435e-01,8.370140295692809485e-01
2.190579632021210728e+03,1.429782608963675330e+03,2.917331259276729270e+03,2.300706399310557815e-02,2.911835343531160580e-01,9.563905187359632576e-01
3.905870617693290683e+02,2.925273288717146897e+03,2.531780168243459684e+03,-7.982613958392472536e-03,2.391244176634330643e-01,-9.709561219496559703e-01
1.101694502600523720e+03,7.608173722059672173e+02,1.715101464816516000e+03,-9.479185104316413257e-01,-1.130104723153067953e-01,-2.977904140971123215e-01
1.984829387680078980e+03,2.663754761161908391e+03,2.170226765438861094e+03,2.783212551504232052e-02,9.886813458358852946e-01,-1.474264873944216847e-01
2.510330845627090184e+03,1.674075260143274136e+03,7.786894949159045609e+02,6.821398366671818092e-01,-5.505597440875480419e-01,-4.812163873164796435e-01
2.386646477398548996e+03,3.098359004489489053e+02,5.717298885337975207e+02,8.707752124738966579e-03,3.584760414539100437e-01,-9.334983142761794639e-01
1.158654880207310043e+03,8.842467115246594176e+02,1.388415844668669024e+03,7.830533146135794376e-02,-2.730826111003330503e-01,-9.587982908721475184e-01
4.786064966249355166e+02,7.158329611888597128e+02,8.338957852439144744e+02,2.084684423238495621e-01,-4.849720866218886206e-01,8.493191295106210514e-01
1.017531522436362366e+03,8.427156649834363407e+02,1.512775334618816942e+03,-4.820093714439632054e-02,3.535140184915730455e-01,9.341865490298720820e-01
2.353416448663034771e+03,1.043918625212289044e+03,1.941671191326629241e+03,3.005959367600563592e-01,2.928769786036450329e-02,-9.533017956331479859e-01
2.525660308928565883e+03,2.974712635532204331e+03,2.507659820314431158e+02,-9.187764917586550839e-02,5.543555433969711288e-01,-8.271931026592069802e-01
1.427415304734395932e+03,1.510221283387457788e+03,1.434640716419410410e+03,-3.785095546779206370e-04,-2.937414141975021042e-01,9.558848457402013832e-01
1.523891093968827363e+03,8.320852805095502163e+02,2.486008593176771683e+03,2.132947232688670730e-02,-9.547604136080476422e-01,-2.966101923691201181e-01
1.634252489137365728e+03,2.868082332643507925e+03,1.753839807025671689e+03,1.424784535613953483e-02,-3.491087061510448897e-01,-9.369739111588171188e-01
2.270481053753509968e+03,2.272073047193665843e+03,9.949472562893392933e+02,4.183142977907464838e-02,9.514100297246858018e-02,9.945844966799105569e-01
1.968004776675382459e+02,1.787400777279101703e+03,1.627681722105620793e+03,2.088265079275004599e-01,8.949355530419977889e-01,3.943118632354589148e-01
5.140981063165705791e+02,1.953021997116904686e+03,2.042681579786715929e+03,-9.298615898717768058e-01,-1.632826673497142222e-01,-3.296910587569735207e-01
1.612267698005763577e+03,7.805893548824260506e+02,1.653675745787787491e+03,-8.677429804789903026e-05,-7.676270550224639777e-01,-6.408967911198810707e-01
7.294963138306789006e+02,2.773215963214019666e+03,8.303458322066219353e+02,1.204642058603790505e-01,5.594725481241252796e-01,8.200480735919855046e-01
1.077219470059273817e+03,2.105572790284977600e+03,1.293331843380103464e+03,-1.572874674021367547e-01,-3.720006829859003883e-01,-9.148093486930735097e-01
1.830423241287861856e+03,1.403106344393259405e+03,4.918913748737861624e+02,2.401836406603591045e-01,-1.798303773923667082e-01,-9.539249730068158906e-01
2.113285411350795584e+03,2.891274270620231164e+03,2.833342760066092978e+03,-2.082510111473398137e-02,5.572153949254387006e-01,8.301068116945243824e-01
1.679329106854948577e+03,1.811891514506820386e+03,3.715717825136277952e+02,3.845076783509609325e-02,-4.460011460838055886e-01,-8.942060814738532759e-01
1.631622323750886608e+03,3.515563763122477781e+02,4.805259253869442659e+01,-2.809797241257671607e-01,-1.468984372518656878e-01,-9.484045781011221088e-01
1.569860972323268243e+03,2.842988204265033346e+03,8.351994851532907660e+02,1.060297436001776152e-02,9.343899790858054555e-01,-3.560940099450551899e-01
1.053078127942651008e+03,7.540137991731436387e+02,1.625748880425470361e+03,-1.011001076004467701e-06,-2.499025409979400425e-01,-9.682709951257193470e-01
2.362183379963392937e+01,2.819365130068587405e+03,2.377198065009226866e+03,6.802947833498915187e-02,9.778225031739794515e-01,-1.980786267219212249e-01
1.044412029360775023e+03,6.838037893612970493e+02,1.468587870521861078e+03,-1.012979541053646293e-01,-9.901539403424188812e-01,9.661210544465408112e-02
1.684847183861528265e+03,9.038745134531858412e+02,1.680152642472300613e+03,3.894872379601069246e-02,9.981045243862713967e-01,4.764824565833487152e-02
1.227644639846856990e+03,2.424974043367292325e+03,2.071008368821211207e+03,5.159132841436747663e-01,-2.198929140068137944e-01,8.279375517595997103e-01
7.896364871024840113e+02,2.723119858831620604e+03,7.764604406169108870e+02,-1.240801608845246845e-02,6.805413748451957234e-01,7.326045852030681482e-01
2.279456203327527874e+03,1.302199961902988207e+03,3.723048764667710202e+02,-9.187782304352264395e-01,3.881699671650463285e-02,-3.928610492836175361e-01
7.225412048158779044e+02,2.711540854700303498e+03,7.553919515833877085e+02,5.184812607683600286e-04,-2.752326768036911786e-01,-9.613775037916464372e-01
2.179787826220894658e+03,1.092746442116625303e+03,1.872601425032764837e+03,1.346365239029700955e-01,7.596048281024855298e-01,6.362967165990395246e-01
2.135891072463137334e+03,1.027531954616983967e+03,1.556981082216277628e+03,-9.521324849287622361e-06,-7.533314144282529101e-01,-6.576410722764145511e-01
1.452250550200336420e+03,1.471746938000534328e+03,1.470233413758612187e+03,-8.328244076682346508e-02,-9.919908897733032971e-01,-9.496372816339260226e-02
2.847523923595045744e+03,1.778375264258412471e+03,1.117982237218402588e+03,-1.026422958907059584e-03,-7.911933204420292798e-01,-6.115652672804642309e-01
1.129088551439548155e+03,2.729418458653179641e+03,2.483434480209728918e+03,9.126192497230184257e-05,-9.336165351338253648e-01,-3.582738575391339886e-01
1.512048934439262439e+03,1.546165313446951359e+03,1.505185680507936013e+03,-2.395016779112420918e-02,-8.878790546186777766e-01,-4.594531247387703132e-01
2.219419193849499152e+03,1.423196478823758753e+03,2.859293455959539187e+03,4.050961594086049389e-01,-2.822840946209793644e-01,8.696049629322570862e-01
2.116711879953818880e+03,1.516533176196361637e+03,2.839290596146458029e+03,6.679791566126594415e-02,-9.557845754441083308e-01,-2.863806624170636139e-01
1.051486416414543555e+03,8.774431745030236698e+02,1.631145471923300192e+03,-1.624165743510729592e-05,5.209648965640157892e-01,8.535781020411974396e-01
2.201620731659137618e+03,2.251169301525392257e+03,2.215199861009127744e+03,-6.302113288666819635e-01,-6.802442654939049316e-01,-3.743012426251728919e-01
1.488177480526490399e+03,1.404101897798560003e+03,1.458729009910238119e+03,-2.069799328714127791e-04,8.355470297300481297e-01,-5.494188914376730848e-01
6.370040028561467125e+02,2.919449752201095635e+03,2.424858273643931625e+03,-5.393731039494596008e-02,-8.871293795601966625e-01,-4.583581901400912706e-01
2.015331244244224990e+03,1.689075905138115104e+03,9.326096647651057765e+02,-2.082398067643209949e-01,-3.060728119398280489e-01,9.289540444338486580e-01
4.193072406956881082e+02,2.186978134204899106e+03,8.146411814934104996e+02,-2.275781514764387350e-02,-8.712441409373880008e-01,4.903220663318940686e-01
2.158105476809536412e+03,1.392188675395405426e+03,2.911558991737519136e+03,1.400058755096852681e-01,2.883919090703275789e-01,9.472214427500775802e-01
2.785946505337574308e+03,2.175917967125712948e+03,4.911422122517870434e+02,3.428206425604294477e-02,-8.084975590462164519e-01,-5.875001592226629654e-01
2.831595882027312427e+02,2.791681048853850825e+03,2.641934093419037254e+03,2.278530224755319633e-01,-1.325436048324223071e-01,-9.646321542260507531e-01
2.290521325138367047e+03,1.451572728991347731e+03,2.801946388782345821e+03,1.251600078687511441e-01,5.066779222086325030e-01,-8.530020255407587682e-01
1.580591888211604100e+03,1.456151938708119360e+03,1.559868862212196063e+03,6.270570721624695032e-02,8.063165334266958473e-01,-5.881510368989127935e-01
1.128231745342582144e+03,2.666427810997547567e+03,2.534661457539695220e+03,1.723851574471509801e-02,-4.921703950755462187e-01,8.703281770608716217e-01
5.228444510551438498e+02,2.101147863474941914e+03,1.252905174205199046e+03,3.243936624857484655e-04,1.874441159963289028e-01,-9.822752150732025900e-01
1.718506556134821039e+02,2.483112707510635573e+03,9.734588916002984433e+02,1.191802281098690713e-01,7.466199337456524976e-01,6.544881570825534789e-01
2.199611683104405984e+03,2.245568025948196464e+03,2.273244929033374774e+03,1.673469856458279642e-02,-4.638505022674132006e-01,8.857554185045785067e-01
1.694582133747939451e+03,8.464447049471549462e+02,1.578723919942861812e+03,-3.737622313132962781e-02,-9.613258644913663664e-02,-9.946665490339143822e-01
4.158992353002878417e+02,2.063709449423497972e+03,1.469393465118789891e+03,-2.717672197808497780e-01,9.106356136231265053e-01,-3.112641281192214393e-01
1.177268423508830210e+03,8.363314701833056688e+02,1.461886810295977966e+03,9.472392653568423304e-01,-3.132078495780128424e-01,6.810739408424505703e-02
2.145017416387365756e+03,2.933431270284511356e+03,2.699458587088581680e+03,-9.862543476479694593e-02,6.260808967861333230e-01,-7.734957881571985494e-01
1.021168978672271123e+03,7.982605201503884018e+02,1.554496911949370769e+03,1.456693985120316968e-02,9.650060452229505259e-01,-2.618227204551437648e-01
1.558910197078655074e+03,8.756822390480670038e+02,1.673143135168376375e+03,4.232753885975564651e-02,4.881014293267017523e-01,-8.717599291911201087e-01
1.858710221821742607e+03,2.956940821921075440e+03,2.700546056479642516e+02,6.747049349352634007e-01,-7.036798834557542737e-01,2.227282478575589864e-01
1.473738621858296938e+03,1.503987434273372855e+03,1.495130675694871570e+03,3.276779792596307833e-02,8.893325782284027259e-01,-4.560853392959536290e-01
9.222184495865512872e+02,2.915554800061296646e+03,1.337179533296046884e+03,-3.027909674644509511e-02,-6.996200659131387653e-03,9.995169980928572118e-01
2.111552622626788889e+03,1.474643587707542792e+03,2.869988543028855929e+03,9.467265035679980345e-01,-2.926632318331485183e-01,1.343769331949878076e-01
2.322804965716666629e+03,1.333938858099352956e+03,1.153281530634993487e+03,-3.840140559272232634e-01,3.422442085731657868e-01,-8.575558912096931108e-01
1.002644509675972245e+03,1.880392072750236366e+03,2.866300999574192247e+03,-3.492784581594185478e-02,9.736428229784487298e-01,2.253878853204292487e-01
1.118404387726232017e+03,4.811442145861999364e+01,4.640724167334859658e+02,-1.679551794250400965e-01,9.125236408311897529e-01,-3.729499465457695728e-01
1.027836913513051968e+03,7.235022386235415297e+02,1.425086767848863929e+03,-1.248267918903567773e-03,8.490285600561503498e-02,9.963884517944255892e-01
2.279057295757694192e+03,2.251070146514650332e+03,9.999576264895879376e+02,-3.418810066664952352e-01,-1.024797333732638399e-01,9.341387913626372219e-01
1.493708045135543443e+03,9.711951518138987183e+01,4.262607743398460798e+02,-5.578586487555869554e-04,3.634363110647980122e-01,9.316188794745088320e-01
2.256711499528059448e+03,2.282576618210969627e+03,9.413015337369182589e+02,-9.274521830798165833e-01,-5.553197069915394302e-02,-3.697954141559232077e-01
7.433435817346438625e+02,2.086791668549039514e+03,1.808374957098604455e+03,-1.928090136690980005e-01,7.683121456478230193e-01,-6.103450918111719137e-01
1.058097728150225748e+03,7.303240920242911898e+02,1.542919093428602537e+03,7.141103326491600178e-01,6.807627942518871267e-01,1.631209697312669960e-01
5.329138801920441892e+02,2.357337097061365228e+02,9.047592925289285404e+02,8.906337126681250840e-04,4.738601909677437884e-01,-8.805996401246160010e-01
1.196048777343432675e+03,7.729625420659149313e+02,2.619435616424116688e+03,3.156871730890514890e-04,-8.709370031345139429e-01,-4.913945837233867908e-01
2.313931728486291831e+03,2.266378260263998982e+03,9.824252828905700881e+02,2.006676356382712870e-02,1.426255775877930954e-01,-9.895732765277273080e-01
1.533877058059762703e+03,9.077300615742469745e+02,1.764146906137686983e+03,6.646363725157468094e-01,1.643256726621150632e-01,7.288728048385760827e-01
2.248270522368791262e+03,1.475529997174191067e+03,2.854489037988788823e+03,-6.598752280358621825e-02,4.073251313334418783e-02,-9.969887207025404097e-01
7.636082860648942869e+02,2.766397032547776689e+03,7.551821594601151446e+02,3.538753648250133471e-02,7.399149475764531525e-01,-6.717690024216913525e-01
1.543899335466762295e+03,7.043725356183669817e+01,4.298398239576010837e+02,-8.745008270761342028e-04,-1.698712296806997825e-03,9.999981748107523716e-01
8.066726190929333598e+02,2.455701047513736285e+03,2.317931118129870356e+03,3.845416082104498312e-02,-7.057289331410647459e-02,-9.967651399626820119e-01
2.233842766682391357e+03,1.507041259939754354e+03,2.826272759692320506e+03,-1.944410752784422533e-02,-9.428021945820963534e-01,-3.327851387511596148e-01
2.761292809328042040e+03,1.782018394901240299e+03,1.178400344943095206e+03,3.407365519466049597e-01,8.372808315135094048e-01,4.276206395247836300e-01
1.766189248310077119e+03,1.911554062594622110e+03,6.232153000342127598e+02,-6.039812396916715009e-01,4.134772077675957780e-02,-7.959252653905886099e-01
2.151775082198751079e+03,1.405983474696493431e+03,2.959762932781318341e+03,2.565882395749352249e-04,-6.114784061032626505e-01,-7.912610776677245772e-01
2.533898323551680733e+03,3.000000000000000000e+03,2.403271600103673791e+02,5.044399163907601347e-01,6.516845972366426543e-02,8.609839967205709099e-01
1.020882145659412345e+03,1.018442048681517349e+03,1.604392032091972396e+03,-2.218888074985683398e-02,3.279200629009565437e-01,9.444448559434803769e-01
7.314999085421375185e+02,2.707764933475223643e+03,9.081387216226071359e+02,-9.934819624079799238e-03,-6.441030414250259462e-01,-7.648742193237187958e-01
1.682609618542169528e+03,7.952733978065745077e+02,1.699705348408417876e+03,7.880449605246741271e-04,6.849258710430207175e-01,-7.286123318755314271e-01
1.475159039266625769e+03,8.761290971699402519e+01,4.731289035268201246e+02,-5.216080056594289910e-04,-2.161043396025666974e-01,9.763701359269583158e-01
1.983539931560958678e+02,1.859234201775308975e+03,1.803852892976761041e+03,8.438175386026613989e-01,5.891786450641931655e-02,-5.333860204284973650e-01
1.501753022408823199e+03,1.482245194666739735e+03,1.503254964884051560e+03,-1.132977607581684282e-01,9.710081173822430189e-01,2.104919318762051295e-01
1.898196252708800387e+02,1.884231494453103551e+03,1.791117116669599454e+03,-2.163346781238756067e-01,2.519447895213111077e-01,9.432513610242507784e-01
1.104147117204700407e+03,8.165747168450320714e+02,1.616927024987549885e+03,1.132692698334586134e-01,-9.070267458735462585e-01,4.055521603708216460e-01
2.511731761092504257e+03,2.921218750507768164e+03,2.571157502828993415e+02,1.742237770398451235e-02,-9.207548916936125760e-01,-3.897523446721307128e-01
2.132698898764562273e+03,2.402491482323163382e+03,2.167832074552106405e+03,-7.688421049829196052e-01,4.570044263569509879e-01,4.472457623003123217e-01
1.779777649369407754e+03,2.065196981669462730e+03,1.613860124868076127e+03,8.821712200497914269e-01,3.509513792322099257e-01,-3.140176235991731790e-01
2.243441846212811924e+03,1.472918156110013342e+03,2.923113384501986275e+03,-3.356336676005835422e-04,9.875242746493795298e-01,1.574664863653794100e-01
1.786672474614474140e+03,4.797193567776271834e+02,2.577219589546781663e+03,-5.672161706848252889e-03,-3.283940352683447084e-01,9.445237869856664137e-01
2.803230152174857722e+03,2.772444471880236961e+03,1.719332828690357246e+03,6.198978264441619146e-01,-4.723438131658204142e-01,-6.265923770153738470e-01
7.661003259442084357e+01,2.824502918265493008e+03,2.382101016347859058e+03,-4.533965024041118341e-01,3.134672620634377377e-02,8.907575396053982741e-01
6.867716867306352242e+02,1.769642235885125956e+03,2.825885856535747280e+03,-7.478617479599855011e-01,5.581003313562672430e-01,3.594813292484882461e-01
1.035527572821624062e+03,1.473782252866267527e+03,1.508544703064791292e+03,3.227169855135473830e-08,9.804282790977580930e-01,-1.968765845533886616e-01
1.096766218259957895e+03,8.954507891683957723e+02,1.579408133420398372e+03,2.035959863170577408e-02,3.578647297076533729e-01,9.335514565222551298e-01
9.648650289453362348e+02,5.431767172026907247e+02,1.880345895301286191e+03,2.112345710120122622e-01,7.724801355232416844e-01,5.988776137336956351e-01
1.505619296312729603e+03,8.982552158698392759e+02,1.676131139154095763e+03,-2.524060284507671087e-02,6.145082228137538349e-01,-7.885065352058275856e-01
1.075524629156248011e+03,7.163665373055059717e+02,2.627370413296889183e+03,2.293270229462761756e-03,3.658958237953584547e-01,-9.306529895942797781e-01
7.328617726383924946e+01,2.809431237542109102e+03,2.401252310746755938e+03,-1.900025925166743627e-03,-2.257711731056600002e-01,-9.741785089479123583e-01
1.442282402526706392e+03,1.772048228721463374e+03,1.564900664374371217e+03,8.333880546165243347e-03,-9.127647618641576699e-02,-9.957907166317795378e-01
1.565941594518091051e+03,2.920201286553363502e+02,1.349911142151669537e+03,1.576916061197436159e-01,-2.447843735277259111e-02,9.871849692251914998e-01
1.817794148451720957e+03,2.619742705392316566e+03,1.287360733698838203e+03,-3.701654351119771508e-02,1.250517813413206114e-01,-9.914594431896073257e-01
1.731553228466568498e+03,8.183123181112156317e+02,1.596633380682490269e+03,2.159760001156902471e-04,2.500609582121856023e-01,-9.682300710742106631e-01
2.478842044049349170e+03,7.661180560681859788e+02,1.305813133974045854e+02,6.431116120882885909e-03,-2.427927167949935627e-01,-9.700568732897807411e-01
1.067188239797504366e+03,7.403332823782120613e+02,1.560153823912658027e+03,-1.123911970252966736e-03,7.867163317668535161e-01,-6.173136562179628584e-01
2.535900116135599092e+02,2.510495491898459932e+03,9.230927413739634630e+02,1.213969364438284154e-01,-4.487856345310505257e-01,-8.853554303558629490e-01
2.602341309620867833e+03,9.923942562293908622e+02,1.624493779380061824e+03,9.072084055700593286e-01,-1.614249283810902658e-01,-3.884776716365956339e-01
6.266959086953685301e+02,1.990191549414700489e+02,1.848864098936481923e+03,5.674673324359991167e-01,-7.099619754799986193e-01,4.170549364178646190e-01
1.103347848187699356e+03,2.924007307740215765e+03,7.298298155422667151e+02,-1.964188434526429328e-01,-2.289958458993880952e-01,-9.534047097101785440e-01
6.032795412294259449e+02,1.201002187522665139e+02,2.598913064142309850e+03,6.570690607010138892e-03,-9.149960655791592457e-01,-4.034092537357141794e-01
2.773099926913231229e+03,1.554046343525451675e+03,9.916296587575822059e+02,-3.773713892458307063e-03,-6.506480016745340711e-01,-7.593700922477744086e-01
9.809344985064261380e+01,2.618717073537630768e+03,1.718334950113945467e+02,7.392166132999367090e-01,-6.657167193899728996e-01,-1.018825212979348471e-01
1.369656680187630172e+03,1.511270617276352823e+03,1.448243955701314690e+03,4.266872411531719145e-02,-3.560134028908502057e-01,9.335062061627915631e-01
1.603019696068525263e+03,1.095274077512520989e+03,1.517590885799182615e+03,6.367140283507102261e-01,-5.322923954763640608e-02,7.692606152394592112e-01
7.161560861469354222e+02,2.886878316300845654e+03,8.455421239122139241e+02,1.711660874575305358e-01,8.493688622074816452e-01,-4.992741796015982003e-01
3.338014489949891868e+02,1.871319350450012735e+03,3.838592828827281664e+02,-8.885696278452209773e-02,7.576057364289234819e-01,6.466359008705739875e-01
1.104033980174723411e+03,4.555056606610293670e+02,1.811132010337058318e+03,-4.364158013191534180e-01,-6.609536444232341212e-01,-6.104764764367308638e-01
2.332236827178678027e+02,1.691346035192216732e+03,1.757904475948939535e+03,-2.402107719484047269e-04,9.701422647641947394e-01,-2.425364476052705165e-01
1.065352435433878327e+03,9.273070197155230971e+02,1.608994245175690139e+03,-2.503399082578207629e-03,-9.810001316375480673e-01,1.939909140144115973e-01
1.095786985453907846e+03,1.364159708364487869e+03,1.201868429796974169e+03,-8.465958683363461468e-01,-5.128409486440330678e-01,-1.423713352810747068e-01
2.565105722910079294e+03,9.492573623885747338e+02,2.055116311097930975e+03,-3.494626203392026120e-01,-8.295026913257212975e-01,4.356617519005350769e-01
2.140200311360483283e+03,1.483937126508845495e+03,2.907085944105831459e+03,-2.337810171846516905e-01,2.904127762304807223e-02,9.718554626065188939e-01
3.833131057653623088e+02,1.904716317662961274e+03,1.833095891065617252e+03,-5.804303967554144128e-01,3.194173512583963204e-01,-7.490481361283949369e-01
2.680598568607992433e+02,1.816395370643049318e+03,1.717401696436836346e+03,7.264660995841117427e-06,9.427417870152319246e-01,-3.335234968672396993e-01
1.058341796155194970e+03,8.957545743032111432e+02,1.607401120151029772e+03,4.708673038142183881e-04,-7.033305760865010692e-01,-7.108627708818439084e-01
7.152428465981627141e+02,2.774959642738259845e+03,7.773871204743580847e+02,-7.170317874080236846e-04,5.371824848103312622e-01,8.434657455275904603e-01
1.375190491920770910e+03,1.505389948008764122e+03,1.453255628214370063e+03,-1.686486748778439904e-01,-2.895339495988882295e-01,9.421930356840978460e-01
2.961143736621337439e+02,3.660282631473908168e+02,2.688738239094478786e+02,-1.804827137511201274e-01,4.500041974077102491e-01,-8.745983148580117605e-01
1.077063870714544237e+03,8.587974496531242039e+02,1.589658976816694121e+03,-5.994624047042494963e-01,7.996503310771397866e-01,-3.470120105154040485e-02
1.444306121885091670e+03,1.571362216842777116e+03,1.543907178543405053e+03,-5.643759710221741020e-05,4.567049701125502348e-01,-8.896182142297291984e-01
2.307964226484960818e+03,1.277696787775860912e+03,2.913200290684225365e+03,1.342261070011965709e-04,6.149988164842725702e-01,-7.885280196076079884e-01
1.506554522030450926e+03,1.629890093970375347e+03,1.508652943212452556e+03,-2.921014858643761203e-01,9.107847934886897923e-01,-2.918009285550483556e-01
9.838956925194652925e+00,1.114322452799266102e+03,1.162378730399601864e+03,-1.850667729638458825e-01,-9.328468131903098204e-01,-3.091069599110181088e-01
2.272338272725470233e+03,1.470373175803169033e+03,2.749945141462374522e+03,2.502110871088886745e-01,4.944492281919666277e-01,-8.324147840038382817e-01
2.466014973245582496e+03,3.590898986226692955e+02,5.928321901090323536e+02,-5.810820630725074265e-01,-7.290168247419264169e-01,-3.617707909970038216e-01
9.049215385938304053e+02,1.375723784599925011e+03,1.098601020536350234e+03,9.501652827090474318e-01,3.085324009311317117e-01,-4.465079069968869163e-02
2.619880453647615468e+03,2.154623261996830024e+03,2.799126973441210794e+03,6.485948870649062004e-01,2.080984328806448347e-02,-7.608492773838901879e-01
2.915793213529445893e+02,1.787362495037532199e+03,1.654285647978867473e+03,-6.420937147308904483e-03,5.406389982040997744e-01,-8.412301975006709620e-01
2.806328444752689393e+03,1.781839219482726321e+03,1.127817163270587344e+03,3.687376852148452899e-01,7.654845387904328780e-01,5.273195808759578718e-01
6.679722529896170613e+01,1.051238998153225793e+03,2.871197609099377132e+03,3.174279829852587609e-01,-7.114355808096659572e-01,-6.269759883567500580e-01
1.001055121350703416e+02,2.448763335714248115e+03,1.943380771028607796e+03,-3.731903057568724535e-01,-4.259029136346494937e-01,-8.242182379968355788e-01
2.291605380739064003e+03,1.419457681098376497e+03,2.988963921745320476e+03,-1.392594513604368924e-03,6.979277150021437892e-01,-7.161668557762269627e-01
2.811279671615987809e+03,1.729276498026426452e+03,2.598938407137236482e+03,7.219672094813577023e-02,6.207719405823773906e-01,-7.806598691299087012e-01
2.317182233560842178e+03,1.373493170505017588e+03,2.898843647235728895e+03,-3.400948242037479894e-03,6.473387991416272857e-01,-7.621947996916084156e-01
1.675735463837779889e+03,3.000000000000000000e+03,2.106853068043086296e+03,5.096152818527052014e-02,-7.893155293128140126e-01,-6.118691999362723122e-01
8.928232519963637515e+02,2.445035016727749735e+03,2.347255633726485485e+03,7.457511017846645274e-01,6.617460460317090565e-01,-7.711980775623285267e-02
2.086404781814248054e+03,2.897240267952250178e+03,2.785979557916843078e+03,7.969409065315616325e-02,6.271471398130812336e-01,-7.748130851626333637e-01
1.963944267258277932e+03,7.923494388177308565e+02,2.594930892216796110e+03,-8.348260869829287733e-04,-5.166704673399507008e-01,-8.561839354041406169e-01
2.240689763562428197e+03,2.321186938029412886e+03,9.052158029947506748e+02,9.288552575418899115e-01,8.074355294503097330e-03,3.703548505465637519e-01
1.923890370646309691e+02,1.891846773552191962e+03,1.839365908750319477e+03,9.049298624519775958e-01,-2.401974657647426292e-01,3.512934976381432151e-01
7.242323940568873013e+02,2.661737259686831294e+03,8.230818419775450820e+02,-1.072351520136230613e-01,-9.933083081159256311e-01,-4.288621224231059514e-02
2.036298297940046723e+03,2.783369636759142850e+03,2.762894188613212009e+03,-8.465322575005638228e-01,4.257582009861656802e-01,-3.195513907089485017e-01
1.427815687797448390e+03,1.866278483632861935e+03,2.415079621512692029e+03,2.555507726934882484e-01,8.134527369879849257e-01,5.224829636098360375e-01
2.259363751355575914e+03,1.468569682771738599e+03,3.000000000000000000e+03,-5.383004513433334954e-04,-3.907197664743628507e-01,-9.205095188637885117e-01
2.182998386137602438e+02,2.017070761432433983e+03,3.973805285233181621e+02,-5.306218842756023069e-01,-6.350426346190484184e-01,5.613922587139112963e-01
2.441719906710353825e+03,2.895837226072644626e+03,2.140276984059685674e+03,1.133705425910425668e-01,-1.664311126634933358e-01,-9.795140656520477940e-01
3.843606528399345166e+02,7.853273056276643729e+02,2.529081247276424619e+03,-1.977679457058126311e-01,8.915090720255771650e-01,-4.075529587027886813e-01
1.962629170673653789e+03,1.280275485395797659e+03,1.838807067423089165e+03,-1.928573964510951584e-05,-5.573056725299797565e-01,-8.303074051181088544e-01
1.553344292169500022e+03,9.353943816333062387e+02,1.648053123010742411e+03,7.619362902420246941e-01,6.467723654996004878e-01,-3.374310060252955906e-02
1.422118954182374637e+03,1.492296872391408897e+03,1.467286730931083639e+03,-2.707102532095567173e-05,-4.866428907135246229e-01,8.736009936951445454e-01
1.725421415058278171e+03,1.160672971485021208e+03,2.509438285958969175e+02,4.822783527857055774e-01,-8.747782426765590147e-01,4.658987630395405866e-02
1.306969308551869062e+03,1.038335804855645165e+03,2.988692154306339035e+03,-2.082339015723038977e-01,3.598559643395896068e-01,9.094736539148344789e-01
1.116099697913319460e+03,2.698150936998396901e+03,2.588402580288302488e+03,-8.550919119765590937e-01,2.448757213266865573e-01,-4.570051456789164246e-01
1.433331118679640667e+03,1.511843182472785429e+03,1.526386893572754161e+03,-2.225261555179447737e-01,-5.206720865659401065e-01,8.242467399883809387e-01
2.623290917829482623e+03,9.284382958842677454e+02,1.508882111043797977e+03,-9.675865981508359193e-01,2.525218635660214650e-01,-2.980520094956640598e-03
2.964549624495084572e+03,5.557965723221698227e+02,3.843650114139095422e+02,-8.765748384881397182e-02,-9.024889592922225034e-01,-4.216987596388401816e-01
1.938855601107698703e+03,1.329443990498233234e+03,1.850179024697162959e+03,3.226296455784528823e-05,9.007141754429152103e-01,-4.344122156607598817e-01
2.209880213533817368e+03,1.449694347130148117e+03,2.954868921679416871e+03,-1.100193233308676896e-02,8.416905539603707354e-01,5.398480979486935949e-01
2.918406450620576379e+03,5.308312763276086343e+02,3.893415927108779897e+02,-6.644661189367037646e-02,9.039741332984362332e-01,4.223927249553347529e-01
7.317125303643769030e+02,9.396804397419487032e+02,2.118137674214368417e+03,-8.261077632254993919e-01,3.019646510769877779e-01,-4.757765368726324939e-01
2.805838456644570670e+03,1.761376798195728725e+03,1.149876312347046223e+03,-8.271274500727618384e-02,2.379870089190027072e-01,-9.677400401963058840e-01
7.595649753889880458e+02,2.703823418582146132e+03,8.660174870300201064e+02,1.234782506368524296e-01,-6.392054461573392077e-01,-7.590583108183847072e-01
1.955215388287791484e+03,1.321842009467384287e+03,1.861530827709626465e+03,-3.477205555919504146e-04,8.461424731458750959e-01,-5.329566532364498066e-01
2.149346563258463448e+03,2.263246979571174506e+03,2.252308300535984017e+03,1.210230103728955403e-03,8.500148466565241590e-01,5.267573405341228199e-01
7.846986631481929635e+02,1.179220271357768070e+03,6.811589141063120678e+02,-2.534519664895392918e-02,9.992866094733005022e-01,2.799809161677857886e-02
1.176165055829438188e+03,5.010041149890073484e+02,1.512664780956159575e+03,-1.094333610329859957e-01,9.904377679991468453e-01,-8.400813778374227603e-02
1.464284755453479363e+02,1.858131078532243009e+03,1.831487521526972387e+03,8.900810047523933788e-01,-2.972631726170416044e-01,3.455291755910355755e-01
5.090832576659241226e+02,1.552068184212031156e+03,1.889921688631830875e+03,-8.922343026764488760e-01,-5.716733902824237129e-02,-4.479395544891084935e-01
1.527536991325511281e+03,1.229557685139413366e+02,4.166937515073013287e+02,-2.148327975836922667e-04,9.689364991389117776e-01,2.473095519451257163e-01
5.071591195995276280e+02,2.866662893686436746e+02,4.158551082605110594e+01,1.272818127445483616e-01,7.491665288137151490e-01,6.500375775673823409e-01
2.269095423324476997e+02,1.825343302403483221e+03,1.824368715153096446e+03,-3.293794584448116874e-02,-9.357021859136155362e-01,3.512499266904234863e-01
