x,y,z,nx,ny,nz
6.015185923948093887e+02,7.323698170560760445e+02,2.885148786359391124e+03,4.481310625453252539e-01,7.447414756099177691e-01,4.945085290350006435e-01
1.030751536625718700e+03,7.668469468568911225e+02,2.517829386375546164e+03,-3.474077048770707332e-02,4.492096418320132845e-01,8.927506799499369539e-01
1.379361059067179895e+03,1.413688171563169817e+03,1.447070462905957129e+03,8.058160824602347838e-02,-4.305331081752190037e-01,8.989704373211999666e-01
2.902235592756122514e+03,1.905535240753964672e+03,9.704835573444398733e+02,-9.744977724134200603e-01,-6.446299622285427133e-02,2.149386277039440074e-01
1.765268975910947574e+03,3.145174132964364730e+02,3.307781924476273048e+02,-1.113750839557675759e-01,-5.818287592680370102e-01,8.056493564587898781e-01
1.534559177190852779e+03,1.590944622876430913e+03,1.561772618408748031e+03,2.353703628415488441e-03,-6.627324368956897249e-01,-7.488525737189732912e-01
3.625333155486890178e+02,3.646021764500933386e+02,2.256398204709043966e+03,1.483390991513756918e-01,2.332234245890372759e-01,9.610423226299245059e-01
1.953255235292230509e+03,8.892785947816258840e+02,1.457867231536095687e+03,-5.131853262936677540e-01,8.480942807556445251e-01,-1.318215150361577159e-01
3.677681844503680395e+02,3.794859289801658520e+02,2.205447554217711058e+03,9.868263229076848497e-02,1.497542519482536472e-01,9.837862583445572406e-01
6.414142874771889637e+02,4.445846241422054277e+02,2.935172867442707229e+03,-2.935298659289486533e-03,-7.292011511563275539e-01,6.842931134930904102e-01
8.243992502485905334e+02,7.470940398806975509e+02,6.781282732455237010e+02,8.718059967738780447e-01,2.425533091953652881e-02,-4.892504296483435877e-01
7.209743423616978930e+01,2.023920047923010372e+02,6.797318931670295115e+02,1.245220868521856178e-01,8.395758733611258240e-01,-5.287784060983196088e-01
1.030723673546825012e+03,1.713266519281585033e+03,2.779264769061783682e+03,-9.827889803628165888e-01,-1.670305533432381029e-01,7.890889891049743254e-02
1.453614380196155480e+03,1.568230175149127035e+03,1.559648183972707329e+03,1.555945554727925471e-04,-5.738193636197710390e-01,8.189818763106637700e-01
7.269200155899467291e+02,4.281675469299616452e+02,2.936994852916730906e+03,1.136230162934387736e-02,-7.975087227260089229e-01,6.032004105416487461e-01
1.832375115908542284e+03,2.591667331085465776e+03,1.137276616198489876e+02,1.853235012380948232e-01,-8.687675581414568138e-02,-9.788297243075851917e-01
1.020747391325707440e+03,1.719164283858308409e+03,2.748622018324117562e+03,1.024595965078674981e-02,1.275621655012892063e-02,9.998661406659197226e-01
3.556849299214607072e+02,2.567478818497414522e+03,1.163994986001540610e+03,-3.028905190041897844e-01,9.265279733839525411e-01,-2.231664133206392453e-01
1.561848419933049854e+03,1.444502161114467299e+03,1.431072917069970572e+03,4.150365105070367381e-04,-7.163523190832954413e-01,-6.977386206085194331e-01
1.516505036219800104e+03,1.399100822800314745e+03,1.876190519167774482e+03,1.466707797892788934e-01,-5.513253528514486801e-01,8.212965588989341592e-01
1.549364174885506827e+03,1.505111271686245118e+03,1.452991693642571136e+03,4.578071014687230995e-03,-9.873244014047725114e-01,-1.586491968353203608e-01
9.781714366531338101e+02,7.856306486012144887e+02,2.540711618306606397e+03,1.368186413386662760e-03,8.749057906026882492e-01,-4.842912198624123032e-01
1.488245701638343689e+03,1.541370997083917246e+03,1.452331876509744234e+03,1.096876325619920295e-01,-2.998240711732281794e-01,-9.476677422008499274e-01
1.345589966283361605e+02,7.304810391802639060e+02,1.612723794533585078e+03,9.654262736398185052e-02,-5.063883677298763875e-01,8.568840890864590776e-01
1.535875600158157340e+03,1.537204009479493379e+03,1.502567645502034338e+03,2.231051598753197964e-04,1.589233616533366755e-01,-9.872908970232079362e-01
1.615907296158421104e+03,1.532956917589674504e+03,1.473181536136334216e+03,-8.875085485898763504e-02,1.106740752809064060e-01,-9.898861221486616735e-01
2.887424195763027001e+03,7.453081143327736982e+02,1.104989238679796017e+03,-4.216918000479374928e-01,7.645889049457593734e-01,4.874216164740490242e-01
1.008344400928282880e+03,1.266494651655569669e+03,2.385420349975906902e+03,8.087184158380561483e-02,-9.505845678385658193e-01,-2.997477683420029515e-01
1.772312953151485090e+03,2.575259990800776905e+03,1.053720766514327067e+02,9.982778261105176854e-03,-9.993179155776592548e-01,3.555344911133134084e-02
1.508473956368028439e+03,1.439931241642442956e+03,1.494447681471815258e+03,4.415143112728428000e-03,-9.493498427409793328e-01,3.141900421702955026e-01
1.495773262178759978e+03,1.453739831489681137e+03,1.481536775536698769e+03,-1.168136388124593186e-03,-3.244185831937825837e-01,-9.459129020876697602e-01
1.515843734448182431e+03,1.371733628415304338e+03,1.556156589788918609e+03,1.847904261498681310e-05,-8.222871777674627403e-01,-5.690727518848061051e-01
1.495713965924875083e+03,1.544201430805995869e+03,1.468102851022718824e+03,-1.088569673392861398e-01,-4.637552236161725516e-01,-8.792503927951396125e-01
1.579913126366059032e+03,9.971874258058674059e+02,2.473885028730743670e+03,6.039997361963931333e-01,7.790193709294157554e-01,1.682650836966030905e-01
1.789351945307780397e+03,2.556567089118133026e+03,7.220233657639451508e+01,2.781583342503422991e-03,-2.443010459252670796e-01,9.696954479391606263e-01
1.166138935460914126e+03,1.903540704623871761e+03,2.429486645044741636e+03,-3.836771577621263529e-01,-9.159981821029302695e-01,-1.172142013396992866e-01
1.442641110557069851e+03,1.468233854513738834e+03,1.562987655569872686e+03,-1.737222009915100063e-01,1.617031193174567061e-01,-9.714281744347699199e-01
1.479634417348193210e+03,1.514113253397889594e+03,1.493064103828181715e+03,2.973061333596592193e-01,-6.964225261348551133e-01,6.531498512276302515e-01
9.907444562832890824e+02,7.294360246019942906e+02,2.511085732590554471e+03,4.563757367857689679e-02,-4.490126369656504690e-01,-8.923591562335679850e-01
1.547566164268901275e+03,1.437544841660453812e+03,1.512391250386898264e+03,-7.142464254205191300e-05,-9.635956338813805866e-01,2.673638892282592106e-01
2.926642266029116399e+03,1.827916973670731750e+03,1.620794615875675618e+03,-4.777976762519159371e-01,-6.105828680577971568e-01,-6.315836775935426139e-01
1.949371588436396451e+03,1.627562516639506839e+03,1.461894202175100418e+03,6.004465433936398977e-01,1.851986303015161484e-01,-7.779237853807223768e-01
1.564318372239551309e+03,1.534697508289217240e+03,1.491929120913527413e+03,-5.577350944871276072e-04,-8.636906148596915633e-01,-5.040220339775357550e-01
1.579263023825696337e+03,1.535987681234259753e+03,1.452128623308824672e+03,-8.566686838379244939e-02,9.837051443784522453e-01,1.580676329445167838e-01
3.013934739068135968e+02,2.269096878144345283e+03,1.527108507563902435e+02,-1.996257546298979835e-01,7.486933673453523008e-01,-6.321453944952232229e-01
2.877036967120262943e+03,1.461707400344184407e+03,1.260555256399671180e+03,-8.225997647812405278e-01,-1.959878034311623440e-01,-5.337774891170250502e-01
1.614330960724338865e+03,9.793612992126672907e+02,2.515470074853591541e+03,-1.017253926585913737e-01,7.690917043432245193e-02,-9.918351294401502871e-01
6.705985347214378862e+02,6.769838240766223691e+01,2.746553297414525332e+02,7.532830487755887150e-02,6.062471591323365105e-01,7.917007190398686056e-01
1.469913307973192332e+03,1.570397279423315524e+02,2.647763153574588614e+03,-5.761020914936822862e-03,-5.360855958532151355e-01,-8.441439714626415292e-01
1.472799375455057998e+03,1.462725013093133384e+03,1.448139233293054531e+03,-2.902378021640127786e-03,-1.509541146273219170e-01,-9.885365099372409592e-01
1.465217417902491434e+03,1.799499773451064755e+02,2.691396228168855487e+03,3.503475990442408462e-03,2.161453342097604830e-03,-9.999915268518201339e-01
1.707501606278148301e+03,9.998511795850505450e+02,2.307657145701328318e+03,3.259798380421712743e-02,9.911346457023586520e-01,1.288001767869901559e-01
1.595330939424708959e+03,1.508228280052688660e+03,1.520375826999126275e+03,2.744030977691737094e-01,1.068474593218772389e-01,-9.556602745595011994e-01
2.020410594954403678e+03,2.879430491946551683e+03,1.676588677442495282e+03,-7.307379457227748849e-03,-9.924509012113793549e-01,1.224247151934161199e-01
1.585191689644833104e+03,9.152200939453357478e+02,2.541778847001508439e+03,1.524805900459955954e-01,9.882240798091812550e-01,1.276078933773726505e-02
1.482759829494790438e+03,1.479046895369773210e+03,1.417584180480257146e+03,5.239632851654402873e-02,-9.979869730322558086e-01,-3.572990926243576476e-02
2.313814978031871306e+03,1.996204381773230125e+03,2.532876863372550815e+03,1.487610716069797112e-01,3.007497318020945221e-01,-9.420295867940196022e-01
1.174803185903924287e+02,2.751262259938945931e+02,6.403430885125990244e+02,2.089581877841074561e-02,-1.074596003702829872e-01,-9.939898385023052674e-01
1.541184825940023075e+03,1.462696098304700854e+03,1.415782966832838383e+03,-1.214687148412601754e-03,-3.199445148266306660e-01,-9.474355028008415447e-01
1.511806778103416718e+03,1.487438634204767823e+03,1.529845126372477353e+03,-6.603874490110525075e-01,5.477281730597579612e-01,-5.136947202622335062e-01
6.155495270012614810e+02,7.223446748040101966e+02,2.835217200319989843e+03,3.519969168448279784e-01,7.797583211428230632e-01,5.177597233662167842e-01
2.918954062613069254e+03,1.419106449106644732e+03,1.280091949142088879e+03,9.344242493166653452e-01,1.227591278244629658e-01,3.343374325808635139e-01
1.482622562474346068e+03,1.430807789939987288e+03,1.500159369861255300e+03,6.047526907918316166e-03,-9.514509146260931027e-01,-3.077410997502106338e-01
1.519517143301732631e+03,1.492934097825492927e+03,1.381530944542404768e+03,-9.755091336557521198e-02,8.968406998505873418e-01,-4.314632990105307653e-01
1.360431826723067616e+03,1.405886446994174094e+03,1.368015891816916110e+03,1.363638077161078976e-05,-3.102229701056985478e-01,-9.506638252467840555e-01
1.272944494659995144e+03,2.702894822870754524e+03,7.602396771051676296e+02,-2.848296302452452133e-01,-5.613033977067699576e-01,7.770524933729976436e-01
1.244404152581043490e+03,2.678912490558678655e+03,8.005287853837305647e+02,-1.482803887441877695e-02,7.803099979261387542e-01,6.252171114098270532e-01
1.694045630070862444e+03,1.000900742223218600e+02,6.903578266755865798e+02,8.853120675361237923e-01,4.364200569566327181e-01,1.604994609364261138e-01
1.466170755669962546e+03,9.776189167038760388e+02,2.495356579858247187e+03,4.992633048629025599e-02,9.061505468190284018e-01,-4.199982714532878303e-01
1.483759001736367509e+03,1.381992264757559724e+03,1.458745345468631058e+03,-4.548982117334287277e-03,-4.846588568654034979e-01,-8.746914308621163148e-01
1.658638639333427818e+03,9.977817393911027466e+02,2.554647408902585539e+03,3.132043332486224296e-02,7.727228705737548831e-02,-9.965179497175480350e-01
2.804162947612155222e+03,1.402212158883460461e+03,1.868170241522136166e+03,6.858550645529358503e-02,9.344466842767308323e-01,3.494358632832280098e-01
1.511102755785211002e+03,1.588804921640553175e+03,1.438355765220298963e+03,-3.802001892594496502e-01,2.789919560862983428e-01,8.818227171751812365e-01
1.480346744173178422e+03,1.440562045001021488e+03,1.834274465402867690e+03,-1.098347346107923922e-01,5.539808611117155168e-01,-8.252524078092102755e-01
8.809270451038703413e+02,2.018433654808180563e+03,2.190566285562759731e+03,2.496823946660148008e-01,2.431648678670216834e-01,9.372990711768887095e-01
3.604993058455863775e+02,7.619292965437059593e+02,1.117938583555811874e+03,-4.182200387775042438e-01,7.899819955879034961e-01,4.483530370276267440e-01
8.710160348109006918e+02,2.471684428605832181e+03,2.130490779773027043e+03,-9.355865965526981576e-01,1.267438245621899107e-01,3.295659619655642580e-01
1.549269051369614999e+03,1.395912570094112880e+03,1.429855868118198259e+03,1.091916260544862904e-01,-9.933842714653008388e-01,-3.556512343477140348e-02
1.542408866457892373e+03,1.489822438063052232e+03,1.524427610679148302e+03,-9.836450497190962067e-03,-9.969992404347278736e-01,-7.678384474739417820e-02
2.611200911331594625e+02,5.719787106499595666e+02,0.000000000000000000e+00,-1.429788090824060665e-01,-8.760884829086420522e-01,-4.604628435261751696e-01
1.575888894005979409e+03,1.571290460136620595e+03,1.504339047258754590e+03,1.107873030613589112e-02,6.015124535166225250e-01,-7.987865985350637299e-01
2.279446741092886896e+03,2.031207335113164618e+03,2.547069715632839689e+03,-3.762118161883467593e-01,-2.817901891820495663e-01,8.826431660875251328e-01
1.696932803254793271e+03,9.368230797201217683e+02,2.246226879708952765e+03,-4.068083282341109497e-01,3.270059902241402583e-02,-9.129280666640406938e-01
8.003819284222458919e+01,3.295392218099424895e+02,5.776509908423867046e+02,4.559828943559526664e-03,-7.530920658091977415e-01,-6.578993451700955175e-01
2.734205931964359479e+03,1.775287546205483977e+02,3.620890062071363786e+02,6.404772282211594892e-01,7.437434376132436853e-01,-1.914017218767274653e-01
1.563504452500655816e+03,1.478247106770240407e+03,1.437674210492263455e+03,1.364150196383488549e-02,9.661595632360199248e-01,-2.575841761284139442e-01
1.458216881295425310e+03,1.528495953801836322e+03,1.553805300569920064e+03,3.291234718167082205e-05,6.790722961260136081e-01,7.340713967666369077e-01
1.560892812165777741e+03,1.466678695464836437e+03,1.363725752938294363e+03,-4.301410262546471113e-05,-9.581717494571927451e-01,2.861938096673818377e-01
5.780048848774238195e+02,1.163608763072987585e+03,2.492673939162354600e+03,-6.195702082067353622e-01,-1.918202177056246016e-01,7.611424053237536569e-01
1.576983213245261823e+03,1.425386964391914717e+03,1.417585434266748280e+03,-7.969197165716068385e-03,8.891709599176315093e-01,-4.575057332271278421e-01
2.002295851695634610e+03,1.166050031209522331e+03,3.965539486898110795e+02,8.939473459672362399e-01,-3.444656684896087867e-02,-4.468462561893682961e-01
2.178807480388593376e+03,2.997882350315308031e+03,9.988749335852857030e+02,1.127051468933689266e-01,3.544027302322163009e-01,-9.282759582514754637e-01
2.642321038042231976e+03,2.769101619982080820e+02,1.633775440218346830e+03,-6.324531955469641087e-01,-1.513084522637418716e-01,7.596767126324095454e-01
1.577011039109037256e+02,5.836980122845412779e+02,0.000000000000000000e+00,-9.311086510052158163e-03,3.359645405943417762e-01,-9.418286102743085308e-01
1.190807837624479816e+03,1.905016495177197157e+03,6.253453819724070399e+02,-6.889172558576728278e-01,-6.041882060719394598e-01,4.004367942948117709e-01
3.615352975683488239e+02,3.096294967155712357e+02,2.291888684793057564e+03,-2.193434339627004237e-01,-9.729951627256836488e-01,-7.189486275020585959e-02
1.485218971643905888e+03,9.780841635230639213e+02,2.426651722034106115e+03,-1.212072083024028774e-02,-4.740076955182602747e-01,-8.804372735839980368e-01
2.654826003760924777e+02,5.917342374924763817e+02,1.965551377776308684e+01,9.180389753797587454e-03,-2.970876348989267557e-01,9.548060837856713334e-01
2.261831069308759652e+03,1.506781751187847931e+02,8.801133886831458142e+00,2.741567007042917670e-01,4.694069836968065013e-01,-8.393421156570206598e-01
2.520634887595011151e+03,3.575342892942059052e+02,4.735000494151797170e+02,2.852666799980962953e-01,7.022511480886621804e-01,6.522777370806239761e-01
2.931181150224593353e+02,5.610167333198239703e+02,0.000000000000000000e+00,2.773823372981902846e-01,-2.854418306118439164e-01,9.173777849348393465e-01
1.152765568025643915e+03,1.037153862547601875e+03,1.575506539766384549e+03,8.785770469274730710e-01,-3.920046776192506743e-01,2.728272444915065820e-01
2.523791501297051582e+03,1.109940629787035732e+03,1.173314496140028268e+03,-3.212897861582960646e-01,-1.529365076074246932e-01,9.345497835595493186e-01
1.648855721740063018e+03,1.467124681832130477e+02,2.833724694113546775e+03,7.795252315126943721e-01,-2.114747240115532889e-01,-5.895921086135039735e-01
1.503531790426921589e+03,1.447454704462828659e+03,1.493215696731789876e+03,8.253084302485500998e-03,-6.908742746111945499e-01,-7.229278133257509564e-01
1.835798871864317050e+02,5.443084748020751249e+02,0.000000000000000000e+00,1.616040100944170915e-02,-1.949032812651594060e-01,9.806893251133552702e-01
1.420412373327734713e+03,1.368968835526228531e+03,1.523393260502943576e+03,-8.633518154420241966e-03,-2.413550991699862924e-01,9.703984637605952424e-01
1.480591935276961067e+03,1.415386651772189452e+03,1.476835769754077546e+03,1.727644872330413167e-02,-9.462240299466468940e-01,-3.230504751134692376e-01
1.455979286854492329e+03,1.557356723289336060e+03,1.469719026609967841e+03,-6.271990100534607405e-03,-9.860350415148594339e-01,1.664198276797817233e-01
1.519276997166097544e+03,1.469505955100003121e+03,1.478385860172758612e+03,-1.734754877648350402e-01,-7.054911801493183310e-01,-6.871596975058087420e-01
1.574173348649745094e+03,1.578255294608176655e+03,1.486302656808687971e+03,-2.475037889779940198e-05,-9.988272388598847806e-01,-4.841638461262234849e-02
1.622287550876146042e+03,1.404524437364405230e+03,2.974180253327945593e+03,-3.250720275287449779e-01,3.803551854560545675e-01,-8.658279908937116520e-01
1.510249477844404737e+03,1.501658007896333402e+03,1.460955627351504063e+03,-1.015316388340544579e-01,-4.569721706435314612e-01,8.836672233216587014e-01
2.816647797141418778e+03,7.105326947064288561e+02,7.813161502611849301e+02,-9.747083575177889481e-01,-1.173564443888081982e-01,-1.901869678642327532e-01
1.875127103459199589e+03,2.603209291189664782e+03,1.131125703663189483e+02,-4.946765828946461663e-02,-9.533681496890799023e-01,-2.977282686306038650e-01
1.148823782591059853e+03,2.833326572487850626e+03,2.882709302722538268e+03,-2.541028256373386585e-01,-3.267190491003704178e-01,-9.103221500974640890e-01
2.825840221407559056e+03,1.446904095706053567e+03,1.279692643971108510e+03,9.148928059156939963e-01,1.391430967950087472e-01,3.789595655185432621e-01
1.436954426788816590e+03,1.404490135390901742e+03,1.537440966864993698e+03,-2.512444909738391630e-01,9.193955738630887886e-01,3.026350682195607100e-01
9.193423203405782260e+02,2.106698404204010330e+03,8.631112999295592090e+02,1.933281220642849019e-01,9.057141399223062050e-02,9.769447559542683290e-01
7.655227980641869578e+01,2.104098886237426029e+02,6.370447557564095860e+02,9.375098343526448996e-01,2.101966752216662682e-01,2.772952726207820184e-01
1.414648330133238233e+03,1.469694404978751663e+03,1.503186065582394804e+03,-2.788925611384941716e-02,-3.321452396400961238e-01,-9.428158511490137839e-01
1.559830239208646617e+03,8.551423871813542519e+02,2.531877960801177778e+03,2.573935450675049474e-02,1.795427982524651911e-01,-9.834133765742921751e-01
1.538642060010725800e+03,1.535770942338823943e+03,1.500796029529962198e+03,-4.515567106473096781e-01,6.508057186389165638e-01,-6.103674742778034679e-01
1.674681540944190374e+03,2.052689617332630405e+03,1.982234238114546770e+03,3.121590122555252811e-01,-3.368186246071357415e-01,-8.883186169305539170e-01
6.340517690516795710e+02,2.692133355605594716e+02,2.556107266345176413e+03,-8.565848533494094252e-02,-9.775702186922099468e-01,1.924034599901691678e-01
2.685887447168818767e+02,2.891615947501320989e+03,5.005891541275270242e+02,-7.619688218123055190e-01,-3.850453901907519016e-01,-5.207144726995962536e-01
9.677185833862212121e+02,1.060360004856101796e+03,2.202437116306435030e+02,-9.195657678439008720e-01,3.556679500147321704e-01,1.670302605577061172e-01
6.381756976657201221e+02,7.094458747815691595e+02,2.859411566613008290e+03,2.390660537483008368e-03,5.571265395453172120e-01,-8.304241709370306923e-01
2.894461668787434974e+03,1.579007657290855377e+03,1.925623272608088655e+03,3.603755567986702962e-03,1.277016139467979094e-01,9.918060852511387804e-01
8.466505884242856155e+02,1.477529487809583543e+03,2.060961079951066949e+03,6.661984121739634723e-01,-6.074255054639018381e-01,4.326822516914845540e-01
2.947482861546545791e+03,7.143472121650715962e+02,1.160636878959637443e+03,-3.270498677259346676e-02,-3.416834098243911461e-02,-9.988808278842438160e-01
1.079186553044941661e+02,2.275702718492892132e+02,6.325990543288181698e+02,-5.605417640948515308e-03,-4.210157631691776592e-01,-9.070360006395256081e-01
1.536969108133602731e+03,1.515134930343758469e+03,1.425857587121262441e+03,-1.990040926142462845e-03,-2.439729956643575948e-01,-9.697799838745239098e-01
1.021442359575555429e+03,1.055915774479030233e+03,2.080649004566034250e+02,-1.326286695289761730e-01,-1.773957054803832964e-02,-9.910070351191987426e-01
1.492739600010023878e+03,1.418532672414280796e+03,1.520733395088544057e+03,-1.312888291032540634e-03,-2.502580558541342981e-01,9.681782799693681163e-01
1.521645749597427539e+03,1.565824389733930047e+03,1.449953730839566788e+03,1.520466857789486981e-01,-7.371270415510753349e-01,-6.584265562367581648e-01
1.958855835932756918e+03,1.241921433050274118e+03,2.499150798659175052e+03,9.228405689566674397e-01,-2.328010268103594127e-01,3.068696241138518244e-01
8.934818777710011091e+02,8.892270632860235082e+02,1.016792144553301455e+03,2.568526774447262850e-01,-8.751339646763426350e-01,-4.100819990676758398e-01
1.672381385080516793e+03,9.965444771037290366e+02,2.348587598581053498e+03,-7.716998474414926701e-01,-1.141048054157261377e-01,6.256671949525691723e-01
2.404294638494837386e+02,5.563347799134122624e+02,0.000000000000000000e+00,1.219641303452130001e-03,-2.271894110444631631e-01,9.738498261972226011e-01
3.000000000000000000e+03,2.000943960799008323e+02,1.952253753462830218e+03,1.385310920897888168e-02,-9.261828421423423663e-01,-3.768201617302040507e-01
1.584629278689337752e+03,1.542768255671143152e+03,1.430209273753108391e+03,1.747394712153132190e-01,-9.721443116874014523e-01,-1.562099691224000109e-01
1.505770998817130931e+03,1.553586445937284680e+03,1.547654348116409892e+03,-4.458872694836145769e-04,-6.097460116633703908e-01,7.925967464260472717e-01
1.494009276950549520e+03,1.519062948371808488e+03,1.504900103544056492e+03,6.133385964502370753e-05,8.689359321751840559e-01,4.949245821466151662e-01
1.226321387233509341e+02,3.374818744322624866e+02,6.305619150496181646e+02,-6.345933933691852991e-01,-6.238216673044675309e-01,-4.562211662052265138e-01
3.140324638720347252e+02,5.385205675914862695e+02,0.000000000000000000e+00,4.128199358756513143e-02,9.017309647377489412e-01,4.303220471211821607e-01
1.985848074017379304e+03,1.601598342673785055e+03,1.446637716563762751e+03,-7.341989544646604360e-01,-1.572380105824971730e-01,6.604756644200132643e-01
1.040281045621432213e+03,9.836749760862134053e+02,4.815044622608740497e+02,-1.252279810753450795e-01,9.768038105278886718e-01,1.737016652021208529e-01
1.841600797739958352e+03,2.633762078872866368e+03,1.293993011982374242e+02,-6.929775498437621035e-03,-9.921391394646795758e-01,1.249476136379813057e-01
1.743198983630398061e+03,1.776020785348168602e+03,5.208762314509243652e+02,-9.352599725092199945e-01,-2.959142705390109263e-01,1.942254574287783087e-01
1.826501968305649825e+03,1.029784810573197092e+03,2.598804115452906899e+03,-9.733002337974235030e-02,-7.590644739314140743e-01,6.436986802566277976e-01
1.553008740039796749e+03,1.411658230732495213e+03,1.531014980035829922e+03,-3.620341836752161466e-06,8.787637719260560365e-02,9.961313880801045961e-01
1.486259686665062418e+03,1.435271208807954736e+03,1.775754642642942599e+03,-8.098291690758115946e-01,4.608731049894835285e-01,3.630050936437850262e-01
3.133176397914110112e+02,1.864231168512147178e+03,8.399987880857880782e+02,-6.257391627842981974e-01,-2.964688515659142931e-01,7.214961678409619328e-01
4.213590003724455642e+02,2.613680586166865851e+03,1.863942661080485777e+03,8.438531386516896493e-01,-1.590506366799737323e-02,5.363384279887181139e-01
2.698956523586396088e+03,2.223268626424904596e+03,1.587916690897743820e+03,5.158685257817355874e-01,5.943391851330550590e-01,-6.169607743796643451e-01
7.833495662237653505e+02,3.871435181112096302e+02,2.719954375740674550e+03,8.445129498513073152e-01,1.895597700032858879e-01,5.008642242461969207e-01
1.529918953430772262e+03,1.483312359835442294e+03,1.466793296947182853e+03,2.516091931569463310e-03,-1.111121895619649608e-01,9.938046843379929607e-01
1.434703873544255885e+03,1.427012982979881144e+03,1.488056756772641620e+03,-4.449540849564256328e-01,-6.370787182701015405e-01,6.294017548497259362e-01
2.916572912136635296e+03,1.480869704429720514e+03,1.234444431591048215e+03,-7.154603640581309598e-01,-2.408063997452067895e-01,-6.558420124569318554e-01
1.225783589593596389e+03,2.481702547423088163e+03,2.944429576311676101e+03,7.224286043143329783e-01,-6.130070470883468570e-01,3.198738374554415120e-01
1.554778368173021590e+03,1.545590036506339175e+03,1.479705572332210295e+03,-1.265501965846557123e-04,-7.404969154757692351e-01,-6.720597459719777067e-01
2.571506481441734650e+03,3.625827109954539651e+02,4.813641507428837940e+02,-2.486549886844964252e-01,-7.096835700775049327e-01,-6.591812550159175110e-01
1.668937055854778009e+03,1.368065648202545617e+03,2.491911430807213947e+03,1.556142771847345008e-01,8.785175339333716193e-01,4.516537825679087792e-01
1.369677007866133636e+03,1.413499347215677290e+03,1.504499830165327694e+03,-1.710145925374292886e-01,-2.948025008518023737e-01,-9.401305731816087530e-01
1.045848100154804115e+03,1.721621939495571496e+03,4.309787322236404634e+02,7.875298034579117923e-01,5.533334744540258088e-01,2.713279836547988211e-01
2.850803914048768092e+03,7.137744886496163872e+02,1.153696518398425042e+03,9.450479297587661975e-02,-1.211103794164841291e-01,-9.881301129417026097e-01
1.514566252203262138e+03,1.408399002652842455e+03,1.579084704989770216e+03,-3.897084715201947769e-01,-8.476068084459864593e-01,3.601249859443278467e-01
6.288641446213289328e+02,6.236676934435139401e+02,1.452019188296986840e+03,-5.260871828974624798e-01,1.040509107038109365e-01,8.440412809648112358e-01
1.566412191482333355e+03,1.586432310437363185e+03,1.477774507666430054e+03,1.198748270585075770e-01,8.574626870830056591e-01,5.003876158520357276e-01
1.187267701863627053e+03,1.486832366499073032e+03,2.149782622784145588e+03,-4.838641564916062454e-01,-8.740936777254422196e-01,4.284531039772354610e-02
1.594610640823394760e+03,1.504111028927805137e+03,1.508993733050938317e+03,4.853368617750710863e-06,-4.964872584323009597e-01,8.680440093629022691e-01
1.634346739575396214e+03,1.485495058257484743e+03,1.514252605911025057e+03,-9.480027001918593351e-04,-4.964870353392847324e-01,8.680436193135044887e-01
1.433544614079589792e+03,1.414841303265754732e+03,1.554039651502575680e+03,-6.656539052404900243e-03,-2.117574498351447176e-01,-9.772995819743095502e-01
6.313834808611103426e+02,6.489368751020592754e+02,1.546477533355629930e+03,-2.740860750881445318e-01,-9.606998373718415030e-01,-4.396186889218189897e-02
2.732062076329371848e+03,1.460991033617875246e+03,1.856871115595656192e+03,-3.559182906077640578e-03,5.979556164171416777e-01,-8.015213116394580561e-01
1.663713438499245285e+03,1.042601907933579469e+03,2.529179146488607785e+03,1.504025533986460550e-01,7.643079967885811621e-02,-9.856659701905193804e-01
1.389054555443271738e+03,1.395912939938231148e+03,1.472111650958687505e+03,-3.789235079838555037e-02,-2.703168246038123446e-01,9.620254591678349954e-01
1.716836628882745572e+03,9.455946481768123704e+02,2.187144647500921110e+03,1.030065534950173750e-01,-9.750722199580248439e-01,1.965294273212218612e-01
5.672513473700055329e+02,1.222474580121504459e+03,2.485223498040194954e+03,-7.751409896154516643e-02,9.380633769436143021e-01,3.376813072992380649e-01
1.571567939322698066e+03,1.455691276842272828e+03,1.470438408953810949e+03,-1.870076201771262543e-04,-9.858589675320206247e-01,1.675770305407289218e-01
2.638828795362451842e+02,5.195895952182045221e+02,0.000000000000000000e+00,-1.269767602528641404e-01,-8.951951992557799498e-01,-4.272030636419769101e-01
1.306025111180679232e+03,1.615770839574715410e+03,1.917130211863189970e+03,2.779301410412853349e-02,-9.976528331757097412e-01,6.258093019033128535e-02
1.495950045064526876e+03,1.339520950645468020e+03,1.523963805980842835e+03,2.653340595770714911e-06,-7.214573612084572707e-01,-6.924588622807056337e-01
3.153978054855834330e+02,1.915634529724088679e+03,8.636502656292688016e+02,-6.253871059190853066e-01,-2.965761415562704340e-01,7.217572722250507056e-01
1.642501481451127347e+03,1.553982702354506728e+03,1.431314378570270492e+03,3.674572735046482408e-01,-1.033391527204081672e-01,9.242814353126207472e-01
1.394338899402834159e+03,1.384643034963440641e+03,1.529301331668792045e+03,1.932856457097259506e-03,-8.737250129954540201e-01,4.864163501898450259e-01
8.033471427553412241e+02,1.179995970574330386e+03,1.793528674849658728e+03,3.013460627308137130e-01,7.995577637017682315e-01,-5.195170189520876836e-01
1.521334805125278535e+03,1.486138037527666938e+03,1.491057987924298004e+03,-2.409179808751835434e-05,-7.332913460279512352e-02,9.973077947343992333e-01
1.516363583937703197e+03,1.454672770764889037e+03,1.457806481369923858e+03,-2.358236146530033215e-04,-9.922341680686952436e-01,1.243836810206513099e-01
2.025826941637036725e+03,1.986185273596580373e+03,2.946874759240078674e+03,1.486334788102675053e-01,9.875124208131751402e-01,-5.222363178160249753e-02
2.383642498049883613e+02,5.741324703961649902e+02,6.894879218622129713e+01,-3.683008988136678430e-01,-8.514930636396387253e-01,-3.732479209675876319e-01
2.112480447765986469e+02,6.096588073831926522e+02,1.519885739773264390e+02,3.149616943724492697e-03,-9.893939202622026308e-01,-1.452231058106730199e-01
4.431075246653771273e+02,6.970917687757332715e+02,1.155536276441800965e+03,7.735415308097031220e-03,-9.477619363433492650e-01,3.188847368073868260e-01
1.332323944150370778e+02,7.471671323584296260e+02,1.564525344712410970e+03,-1.074115342290358627e-01,5.058214994859719926e-01,-8.559248640928288632e-01
1.239954303972742082e+03,1.918148719369738956e+03,5.989929790999935904e+02,7.360468666058897491e-02,6.138385224827861419e-01,7.859927597743802119e-01
2.824624227091368539e+03,2.307735957653804689e+03,2.679480270725523496e+03,1.484236404244795859e-01,6.415509903158084226e-01,7.525840483214816246e-01
1.363282141328135140e+03,2.938281930056178680e+03,3.114695834944877220e+02,-1.416236395010680993e-01,-8.441273802061568521e-01,-5.170993238448120533e-01
1.562388602712068860e+03,1.525840736739842441e+03,1.429209857443179317e+03,2.444831725238421349e-01,9.369272167911639748e-01,-2.497906499223712939e-01
1.502852001698204049e+03,1.539961979408735260e+03,1.572078963575739408e+03,1.483285784507986926e-01,-2.238014702314111704e-01,-9.632816487076996115e-01
1.649599097480381261e+03,9.906138707826434029e+02,2.519313080502299272e+03,-1.856508866985018540e-04,-9.971006700721924965e-01,-7.609349036108806197e-02
9.718566684912910887e+02,1.517459426925845037e+03,8.181141776994006705e+02,5.773697764493190832e-01,5.951183938737287793e-01,5.589975299730909342e-01
1.565550192245290418e+03,1.416684046795807944e+03,1.546490782087615798e+03,-1.862189414735978621e-03,-6.017608853769214339e-02,9.981860400841556791e-01
2.187008473703855998e+03,2.234748047651170964e+03,1.836334693269902118e+03,4.432633337702482357e-01,5.607781433581078279e-01,-6.993178754091153859e-01
1.486598462388559483e+03,1.471819633654600921e+03,1.480230626201132054e+03,-4.076851023722075640e-01,6.402198270493758558e-01,6.510848104176827356e-01
3.057563271258112536e+02,2.056215286946155629e+03,3.817130834642089781e+02,-1.931588285699907814e-01,7.954563108703615049e-01,5.744031027440430481e-01
1.463950410717593741e+03,1.453765764094305950e+03,1.520086428508159315e+03,-3.610572909051588952e-02,7.228825547597952372e-01,6.900269475540748987e-01
9.282988121608948404e+02,1.330002686820358122e+03,8.659318648258684448e+01,5.162994510171359935e-02,1.776768648418317886e-01,-9.827335755273508555e-01
3.493519675188396718e+02,2.898099431442071364e+03,2.742926653844375323e+03,-1.826375601958294959e-01,-7.424359642734699172e-01,-6.445404258532103636e-01
1.843565456198946094e+03,2.010771920281139955e+03,1.315097212264819063e+03,-5.142892977070910865e-01,-8.372611795634795628e-01,1.857423900457784438e-01
8.082249718845051802e+02,2.408438532162305819e+03,1.337344929312543400e+03,6.378794711739836643e-02,-8.724960426098429256e-01,4.844396282641534324e-01
1.591366467093640495e+03,1.527314200099933487e+03,1.493735019909309813e+03,-9.534028904764216772e-07,-8.685601359822263390e-02,9.962208755596905219e-01
1.559613055615725216e+03,1.462588039887663626e+03,1.430075919892883121e+03,2.490113135710993620e-03,-9.905678073487675928e-01,-1.370007970079967219e-01
1.879299377016089693e+03,2.590597046438240795e+03,6.334347292091953818e+01,2.408784712351351442e-01,9.264307017011734757e-01,2.893159467448959687e-01
1.666927857025906405e+03,1.658801214444746961e+02,2.887101928050081369e+03,-2.621729626226775023e-04,-9.412116584380758599e-01,3.378173253188542224e-01
1.478157316300707862e+03,1.625558480262502144e+03,1.629305459934227656e+03,9.032016910873598252e-05,-6.163313039160762674e-01,7.874869622129475610e-01
2.259928053274776630e+03,8.665014318910235716e+02,1.800531510696909891e+03,3.445678284161938221e-01,-9.375690374785450310e-01,-4.730022814007495136e-02
1.838816218287822949e+03,2.429270076370910829e+03,2.415478722811126318e+03,-5.816097217724927049e-01,-7.645298279529542107e-01,-2.778925578527607354e-01
4.715806154181483976e+02,7.073859639696445356e+02,1.210923966277575119e+03,5.441022662416410416e-01,-7.995939659257919052e-01,2.541696550058127890e-01
1.625875357627401172e+03,1.766706102565349568e+02,2.894830440154967619e+03,-7.460409328267465442e-05,5.601956564874100569e-02,9.984296683786774151e-01
1.893018184295277706e+03,1.847215102655060946e+03,7.312609465525249561e+02,6.882699589894678005e-02,2.612403505798926995e-01,9.628168693289607116e-01
1.019106199059140636e+03,1.282291491629912343e+03,2.332209868504094175e+03,-1.454252029868110911e-02,-1.248948011361777494e-01,9.920634071230111095e-01
1.712962804432441544e+03,1.809236103023357146e+03,5.367229855860617818e+02,-9.775971792443153285e-01,-5.556616473482742236e-02,2.030176260087285245e-01
1.492662354275708765e+02,2.506385355864539974e+02,6.388160675216437312e+02,3.083548018014512925e-04,-6.602941146707157483e-01,7.510070486010979041e-01
1.644549086181393932e+03,9.461480547459227637e+02,2.256366086360084864e+03,-4.252810179725936557e-01,-9.047148291080359117e-01,2.504263852336641519e-02
1.512758022852973681e+03,1.466904556267498265e+03,1.457420203385954210e+03,-3.433149225617049705e-03,2.968863685961209073e-02,9.995532993931902643e-01
3.937273632856480958e+02,7.854429181832839504e+02,1.118219206506887986e+03,2.412907057227377239e-04,1.622702861826461895e-01,9.867463179566455800e-01
1.011851885240068327e+02,2.208359601890184649e+02,6.142250772206172087e+02,3.023422056390233648e-01,2.450830175738100969e-01,9.211533559545044270e-01
2.766865008772168721e+02,1.819820024952670110e+03,8.484868317910290898e+02,-6.018323400061466044e-01,-3.035344332537185386e-01,7.386911955290044185e-01
2.349507951645429785e+03,2.809074461263639478e+03,1.673491462188334253e+03,3.969426389866201887e-01,8.159442148657176652e-01,4.203231846823409779e-01
1.625217981531076020e+03,1.543168802176811369e+03,1.504763152199629985e+03,1.112373375162404606e-06,7.311439366573577736e-01,6.822232361096653985e-01
1.492469573798503006e+03,1.563182308234581797e+03,1.478243323489116392e+03,2.531269643122538784e-03,5.105377357246734110e-02,-9.986926979196378840e-01
1.532882402091071299e+03,1.520830137157311356e+03,1.408855152572436054e+03,2.563217162890268908e-01,5.329409137465951352e-01,8.063951638084096984e-01
1.401692148992450029e+03,1.367345088411101869e+03,1.472577933983954154e+03,-1.248297659659758667e-03,9.253404427955770339e-01,3.791352089688301841e-01
5.348719433860215986e+02,7.065629445606548416e+02,2.058667239115961365e+03,3.872003627154767258e-02,9.622863990042394011e-01,2.692687228078745054e-01
2.295128009127383393e+03,1.939444222150522364e+03,2.328420468740243905e+03,-4.932627279454920854e-02,-2.398647341738404937e-01,9.695523854397505303e-01
1.750172655861477779e+03,3.226299668959586597e+02,2.688339324706449815e+02,2.477991285686243893e-03,8.234375962790381198e-01,5.674014316102736766e-01
1.454432884261822664e+03,1.305041498346919525e+03,1.510606785998033729e+03,-1.263526945803117862e-01,7.156751555014501109e-01,6.869090684874306074e-01
3.191499737392738894e+02,6.667117946424399406e+02,2.971113413173857225e+03,4.128182705732082458e-01,-5.989276715615517999e-01,6.861972892097456533e-01
1.728555419047514988e+03,1.331485727558406552e+03,2.468588312017795033e+03,-8.143263791603294610e-01,-3.242769655617963043e-01,4.813699178486967600e-01
1.778785887376550818e+03,2.436935679250401790e+03,2.392009338315658169e+03,1.266242373620590222e-01,-1.669718329561920289e-01,9.777968651574449055e-01
5.487745955817684944e+02,1.126126618453708261e+03,2.474452302407813477e+03,-3.007570181426609621e-03,9.687381634262440810e-01,2.480671788914273201e-01
1.618659355898525973e+03,1.484133693824709553e+03,1.502086315692245989e+03,-7.865167909615577990e-02,-7.288789685379266636e-01,-6.801098165726204847e-01
1.477588799699732590e+03,1.415645255917549775e+03,1.502046797891985534e+03,5.956513731691212565e-02,-4.160809387119991376e-01,9.073745901539006509e-01
1.603969362056881209e+02,5.218779849004387188e+02,0.000000000000000000e+00,-1.232753530435642736e-04,3.237082802573488238e-01,-9.461569288949994716e-01
8.746421027108241333e+02,2.462302457867939665e+03,2.180381960762194467e+03,-3.266542316111148425e-01,-7.566276249774255567e-04,-9.451436083924967813e-01
3.498455071065927768e+02,2.316913152365956989e+02,1.263754143342555153e+03,4.089135510768812654e-01,-2.762149282202723821e-01,8.697672224072166003e-01
1.613892294450082829e+02,3.254077010692336671e+02,6.119395293603200798e+02,5.529259979109914236e-02,8.342907940998951499e-01,-5.485449838331472039e-01
2.040992116403049863e+02,5.759178589010568885e+02,0.000000000000000000e+00,-1.391576449946361170e-02,9.317172726326353738e-01,3.629177253543824921e-01
1.529714457009161606e+03,1.557808008546435076e+03,1.488970748847872301e+03,-7.245518311552404112e-02,-5.999683004474486436e-01,7.967360195810755386e-01
5.186581780212073909e+02,2.172174276029824341e+03,3.643103650607718578e+02,-5.606706557085998632e-01,8.189576560052711507e-01,1.222978883613323881e-01
2.486541852490509427e+03,3.181299053945413107e+02,9.455374974130018018e+02,-3.169614243416802313e-01,4.320022093023110910e-01,-8.443397104466989767e-01
2.025588012178670169e+03,4.996041810574591580e+01,9.973721204787391343e+02,-9.581007028300349282e-02,-6.544385826415377583e-01,7.500203810447427788e-01
1.518828104062740977e+03,1.488129629905603451e+03,1.773897162700108538e+03,1.329582107751072217e-01,5.346968480501432808e-01,-8.345186605898782251e-01
3.134599215337274813e+02,3.803917928620367661e+02,2.270173292131980361e+03,2.827875551913026086e-01,9.590648207029653927e-01,1.502891609247825923e-02
1.441142543045636558e+03,1.414718226033035080e+03,1.473431694399497928e+03,-2.354633227169458110e-01,4.051013785443221549e-01,-8.834307537982731828e-01
1.992673264394480384e+03,1.264224158251418203e+03,2.524175135449869686e+03,-1.867568437010572735e-01,-3.174391293070531750e-02,9.818931740890486370e-01
1.143414279687015096e+03,2.509971519691048343e+03,2.011760773603397638e+03,-1.346080744162648536e-02,-6.184370764722580960e-01,7.857190268203169126e-01
1.479184830586626958e+03,1.470137833036353868e+03,1.510858504620924350e+03,2.169173703518899876e-01,-8.482465417827032006e-01,-4.831404131236652355e-01
2.722931679953793491e+02,1.892811877091981842e+03,8.882866933283581830e+02,1.776955972641955095e-01,9.711016526929419079e-01,1.593293910424494753e-01
2.034549679893824759e+03,2.015084520708427362e+03,3.000000000000000000e+03,2.609649661172837309e-02,1.213937794246063850e-01,-9.922613179911852210e-01
1.098104390940541180e+03,1.564846941871569015e+03,2.079417037450807129e+03,-7.908657712833904174e-01,1.202179726018035161e-01,6.000658054545684461e-01
2.325746471798243419e+03,1.989961838990365322e+03,2.228572682201482621e+03,8.156323567405490138e-01,-3.983603397982984351e-01,-4.195865802354050711e-01
2.310577477077135882e+03,2.823201206748562072e+03,1.698028656393198162e+03,-4.161967286842463420e-01,-8.083267010749868309e-01,-4.163991202701572414e-01
1.553674787665093504e+02,5.321183640402205128e+02,2.175785141734658282e+03,-8.056111424635912233e-01,1.019566652456357775e-01,5.836056250161547609e-01
1.496792869575656141e+03,1.556341038239173031e+03,1.417788900977600861e+03,-4.289443881534067693e-02,6.125634218593307700e-01,7.892566891187584588e-01
2.647094864558301651e+03,1.298910228664321380e+02,2.240045963931213009e+03,-3.441020671521636820e-01,6.536446025662011605e-01,-6.740493312196673692e-01
2.610195540314685786e+03,2.489288930170411618e+02,1.603000499211507076e+03,7.711932474420214456e-01,1.243523184096728545e-01,-6.243376298173676231e-01
1.555873983028709290e+03,1.450823126992812604e+03,1.517673147654923923e+03,-2.313443832829314723e-03,-9.962062697112465948e-01,-8.699262132868142150e-02
1.982877181077116575e+03,2.409825161306162045e+03,9.992256741309394101e+02,5.609886759625745123e-01,-7.742764207808716659e-01,2.928954244513224947e-01
1.721897149343392130e+03,9.850883762109970121e+02,2.269066043217963852e+03,-2.787576772547503690e-02,9.986420189022189309e-01,-4.401203990518606085e-02
4.824646597038553750e+02,7.615422031111794468e+02,1.190215996943181381e+03,-3.880915647463956675e-01,8.783144722079924138e-01,-2.791928102274303103e-01
6.810449064059537250e+02,4.102152529004407029e+02,2.970147826742479083e+03,3.873344349116046303e-01,-6.623420658566185892e-01,-6.413072768404354251e-01
6.809917742127374822e+02,3.993928424121866101e+02,2.922312905445285196e+03,-3.884578234363855742e-02,-6.256734632252904937e-01,7.791172714102683194e-01
2.342905656957752853e+03,1.390169419175954090e+03,9.527590291719504876e+02,7.556246563886074297e-01,-5.217269526887948761e-01,-3.960206629655362853e-01
1.519258838182588761e+03,1.505778841112904502e+03,1.546993773827806990e+03,-5.135716292444351266e-02,-3.448991492990536867e-01,9.372337054487217545e-01
1.026124792305865867e+03,8.413334220813650290e+02,6.988434052055361008e+02,-9.646310982478294438e-01,-2.613944968268686608e-01,-3.405526863518693742e-02
1.456424567939594453e+03,1.445018202473217343e+03,1.450201510777738122e+03,1.625226974225349175e-01,2.154412587538093171e-01,-9.628974176147100383e-01
1.919485677839822074e+03,1.257353248476081262e+03,2.476584410692334586e+03,-3.010913370129412181e-01,-3.635011224452611069e-03,9.535883773773449201e-01
8.666133999969221122e+02,7.053010127395998552e+02,2.440522778035198826e+03,4.569945731472323247e-02,-9.927823967945792472e-01,-1.108813429570123521e-01
6.912164234719814431e+02,3.720836683787437096e+02,2.878616787079063670e+03,-9.447355254114071510e-01,-3.271062740678754577e-01,-2.182366813953718135e-02
1.572252299006073144e+03,8.959078219540043619e+02,2.548193000667475644e+03,-2.229089081906741442e-03,-9.955921822598585713e-01,-9.376160080180777345e-02
2.335066726043733354e+02,5.317639646427173830e+02,1.057133785771836187e+01,2.546910912064369592e-01,9.198270911573971365e-01,2.984134220054383002e-01
2.609963557038090585e+02,2.844933396682547482e+03,5.235826813804151243e+02,6.263846745982028230e-02,-7.696765357786936601e-01,6.353538011737982494e-01
2.328456762192386577e+03,1.941993851016727149e+03,2.358317393906891084e+03,4.133111516107465001e-03,9.874188610569823998e-01,1.580724840638853546e-01
2.596167727325213491e+03,2.560380939515476712e+03,3.953341785939341548e+02,-5.818966972686916428e-01,6.374454884299494140e-01,5.050341404183402716e-01
1.451761588150603757e+03,1.453952816102747420e+03,1.516226259760823723e+03,9.773106391173254359e-02,1.634137799469782826e-01,-9.817049330985972988e-01
1.149901831168374883e+03,1.071675617096243798e+02,2.729714779568226731e+03,4.917915521647385213e-01,-8.404614852212620724e-01,2.275204629897442654e-01
2.888860782050674061e+03,8.050059186219452840e+02,1.099796078560744036e+03,-8.154758459803884696e-01,5.771688430709460693e-01,4.330440174757566041e-02
1.689175094310572376e+03,2.058060615207044066e+03,1.931275927005845688e+03,4.577845502693714264e-02,-9.743282266157735627e-01,2.204287637199571770e-01
1.128313731659317369e+02,2.224743529452049700e+02,6.949810429184892655e+02,-9.708805475653636829e-01,2.394927768730851503e-01,-5.845697973577258268e-03
6.185277316762309283e+02,2.287632233011869630e+03,4.776512558453956672e+02,7.895322939549133112e-01,-2.428453133650579354e-01,5.636176989581849206e-01
1.345520833214701781e+02,1.783678744654848515e+03,2.897985089528889603e+03,1.783637879395472969e-01,9.815964519439682734e-01,-6.822583588985220437e-02
1.121305550116819404e+03,8.765560918843493710e+02,2.026289093415145317e+03,7.381381697263056374e-01,-1.184520782396577543e-01,-6.641695171820261034e-01
4.354113916824120167e+01,1.306807444130731483e+03,8.308260733200138475e+02,-3.261908944336361360e-01,9.119875876739775844e-01,-2.487531714716086917e-01
2.988376444942053695e+03,2.054799104622144114e+03,1.355270521518237729e+03,-1.624949001982554583e-02,-4.872953667061667438e-01,-8.730860093145451639e-01
1.511699006362273167e+03,2.045341594332478223e+02,4.090132889602508044e+02,2.719049095822170248e-01,5.038486995256403755e-01,-8.198806060222472158e-01
5.074670865693161659e+02,1.493432547732369585e+03,1.017743420933109178e+03,1.077560553218043504e-01,9.631427967153768921e-02,9.895009813400070797e-01
8.545641085387557041e+02,1.019512775727038274e+03,1.656888704935544638e+03,6.403578231329817294e-01,-6.363870830227414954e-01,4.300620175209564633e-01
2.624822059236093537e+03,3.012967361491058114e+02,1.631938548494024417e+03,-5.893972952908385632e-02,-9.873713849643800389e-01,-1.470505234147794493e-01
1.996208051025745362e+03,2.394132750078028494e+03,2.594881256247956571e+03,1.831822299102966733e-01,6.022507321709384964e-01,7.770060014212629707e-01
1.193727195957389711e+02,2.342233004750713121e+02,6.176640825940074819e+02,-1.587500204789026870e-01,2.745465823282462747e-02,9.869370155887693397e-01
1.991352162982300115e+03,8.537818299256819898e+00,9.776671611376602868e+02,-8.267692725428059386e-02,-6.552122647743837680e-01,7.509070606866159459e-01
1.438719273085316445e+03,1.462238895532082779e+03,1.570609782560370149e+03,-4.870379105043736714e-04,-9.901953579720130794e-01,1.396886389251133231e-01
3.373196053154697438e+02,1.873850953878768451e+03,8.405336122115098760e+02,-7.267799396334251316e-01,-2.610605409943851374e-01,6.353253601755196600e-01
8.749729587052438546e+02,4.117779800520635831e+02,2.546322336953964623e+03,-8.733998784063116139e-01,3.708212204539000356e-01,3.156964916829459455e-01
2.753040577893692898e+03,4.587719471576533579e+02,2.206164398557015375e+03,-7.044414103407059535e-01,7.024948150276922876e-01,1.013081154518504501e-01
1.426569729688712414e+03,1.368746727502270232e+03,1.361056371811627969e+03,3.142254207245552822e-01,9.035869135139592556e-01,-2.911925045340164053e-01
6.933937007609569037e+02,3.890406690089395170e+02,2.841428695054604759e+03,3.791585197938614378e-03,9.921461250090645168e-01,1.250267591805225564e-01
1.396348267534594072e+02,1.769972321539784389e+03,3.006230410729501159e+02,8.196080558189412502e-01,-3.247286605817824023e-01,-4.720105208927622975e-01
1.702783444935315174e+03,2.018085694504959520e+03,1.979564492407206217e+03,2.256554383510562395e-02,-9.569446825204378504e-01,2.893918983442422266e-01
1.460418151440376562e+02,2.537298527185920420e+02,6.326916431048432514e+02,-1.334160843743325241e-03,-5.736778450423022369e-01,-8.190799412282436798e-01
1.676199758128669146e+03,9.951020075331791759e+02,2.568768442600810431e+03,-1.899316608989779206e-05,-1.777034297710706756e-01,9.840840872033537190e-01
1.706210338670180363e+03,2.052573333391890628e+03,1.955527489701386003e+03,1.346080758847091260e-02,9.182291001320280754e-01,-3.958208260435422399e-01
1.445005143541334519e+03,1.425035247528782520e+03,1.486376208438252888e+03,3.543267757537216789e-01,-8.388312123376169271e-01,4.132973907396171320e-01
1.521545412561328476e+03,1.494987893794033653e+03,1.526856192157533997e+03,-3.725779867732438300e-01,6.768881072669146182e-01,-6.348292164138403804e-01
