x,y,z,nx,ny,nz
1.919979723645779131e+03,2.941305734375076554e+03,1.838653535000634065e+01,-1.081415796795276798e-04,-9.577838306905572807e-01,-2.874893423644097612e-01
2.854060036479283099e+03,3.189341341934869547e+02,2.927982512202227099e+03,5.805223597877754438e-01,-7.728134415244292121e-01,2.564238178984168948e-01
2.401507194256177172e+03,2.864244255295270705e+03,1.608963700691074337e+03,6.488618846582255850e-01,5.963223655364027209e-01,-4.726287031051377152e-01
2.250132387859723906e+02,3.897755986104867247e+02,9.109734007447149224e+02,-5.164031621347419613e-04,8.519122539027886853e-01,-5.236842989607810583e-01
2.456974525526177786e+03,6.030794669254960354e+02,1.153799319517990853e+03,-4.388446661158653672e-01,6.190641163324309693e-01,-6.512871708326528619e-01
2.816768567604816781e+03,2.825671627392926894e+03,2.535356020864568109e+03,5.548581125046524454e-01,1.642498197953184136e-01,8.155700286823810430e-01
5.460762083915938092e+02,2.298078455532770931e+03,6.017602773194814745e+02,-5.556217536142632474e-01,1.743822602060976779e-01,-8.129423683361716169e-01
1.558773580652234841e+03,7.724098788238267161e+02,1.437469362889863532e+03,8.253479426336389349e-04,-9.615607332314889399e-01,-2.745911052967577315e-01
1.317919394983940435e+02,1.195696105600663714e+03,2.258667283305291676e+03,-3.895551652497799416e-02,9.508428958231411876e-01,3.072136963010198007e-01
2.424570192912340644e+03,4.368756630540005403e+02,1.236018170588949943e+03,5.858971888119562238e-02,9.960660654936233094e-01,6.648035810279273594e-02
1.905656099671469747e+03,1.524829509106066610e+02,6.939566255501093792e+02,4.308996833577089999e-03,-9.516033943359906155e-01,3.072985721322333275e-01
2.847737370088559146e+03,1.313273958589552421e+02,2.926977536719713953e+03,7.113711571442202786e-01,5.257310484011709084e-01,-4.664310683587647999e-01
1.976073578165274967e+03,2.757036557658860602e+03,4.197984658519105494e+01,-5.008164105143438904e-01,-7.333082016156983185e-01,-4.598282335858452918e-01
1.159488998644283356e+03,6.860947575131060603e+02,2.432708346462902682e+03,4.917401081305952104e-01,-5.465999242148171788e-01,6.778054211232502624e-01
1.682308557933878774e+03,2.645340539650919709e+02,1.068207498168517986e+03,-6.696556940919179413e-01,7.410477330755749215e-01,-4.908674641716715553e-02
2.585960295162264629e+03,2.896921075321145054e+02,3.933698004614834076e+02,-5.207647541334526897e-01,-3.086156204869215380e-01,7.959651183587110879e-01
1.441156056575515777e+03,4.257819423196574462e+02,2.381374423963769004e+03,-3.364977755772312340e-02,2.669556357268501046e-01,9.631211663253950173e-01
2.881407376047963680e+03,2.143761225206928884e+03,1.742278317849431630e+02,-7.684767831957750595e-01,2.729783603944002657e-01,-5.787281299932280909e-01
1.377170370118444225e+03,1.510006468461200257e+03,1.507299219863305552e+03,-3.771393686689488156e-01,3.947515861638045166e-03,9.261481057144742568e-01
1.749601818851591304e+02,1.044161262262812443e+03,3.468608959356996024e+02,-1.201416057651486652e-02,8.616561820215027367e-01,-5.073502576423596366e-01
1.463855736227966418e+03,1.884877588764167285e+03,8.161403555904372524e+02,2.905385926760378767e-01,3.414697023409635768e-01,-8.938600385681201299e-01
1.063073089956168133e+03,1.159040107029428555e+03,1.937597560222688571e+03,-5.671761193290694170e-01,7.688397697594462343e-01,-2.952908025981486606e-01
6.280785213775367311e+02,1.651250815489290460e+02,1.309179019100107553e+03,2.346751152048808520e-01,-6.670614422413989608e-01,7.070761080523091380e-01
1.315093770380453634e+03,2.912974459438785289e+03,2.838443064220021370e+03,-1.521932146238443376e-02,-9.997933246285846121e-01,1.347888283005581334e-02
2.512449272746232509e+03,1.718787764495110650e+03,2.430363714591599546e+03,-1.123196575761765265e-01,-8.644356067442997560e-01,-4.900360969506070696e-01
1.538398224557743788e+03,1.664770880375886236e+03,8.261732568990745449e+02,2.172039535355341500e-01,3.290543111373150365e-01,-9.189916772694302072e-01
1.619094560306059520e+03,1.480522024593719152e+03,1.550178162718686963e+03,2.815479318588618995e-01,8.287370603136930969e-01,4.836586057630071767e-01
2.520572167907436324e+03,2.208590299198349385e+03,8.405118128351607538e+02,6.145573141736800915e-01,-7.731395475269033923e-01,-1.567627112725717975e-01
1.954064858487424090e+03,2.824804964018617738e+03,0.000000000000000000e+00,5.579230834151802654e-01,-4.702331135173178911e-01,-6.838147789747652805e-01
2.348322907687494080e+03,2.018631722170338435e+03,1.109113684762747596e+02,-6.167749421429927562e-03,-9.466884655166853957e-01,3.220914592545695565e-01
2.280478008661206786e+03,2.064733857469158920e+03,2.070489159841862147e+03,-7.244020721942574835e-04,-8.781841628421753754e-01,-4.783221209340265956e-01
2.197317452751674864e+03,3.165299212843719943e+02,2.394027494273035700e+03,-2.759864816254805481e-02,8.658062901639373976e-01,-4.996176363301838008e-01
2.294550199963249270e+03,2.423125574315891299e+03,6.967641417201568288e+01,3.071433699648583662e-02,-5.197458518843119935e-01,8.537686331506428861e-01
1.666773538316096619e+03,2.992848069698282870e+03,1.238214431724486985e+03,-9.783669504794376692e-01,-2.140450845386529521e-02,-2.057667544269821125e-01
2.097155060762755511e+03,2.915854904733813783e+03,1.311772006490573972e+02,-2.880649879905833669e-02,9.604511702398724760e-01,2.769543919344831795e-01
3.733331187796988502e+02,2.570337080326045907e+03,9.665748817977209910e+02,2.143102346504991984e-01,-1.133446814637165817e-01,9.701670508257516090e-01
6.522141615109591157e+02,1.795667272564312725e+03,1.557067775879007968e+03,-4.878628694127410403e-01,-7.460215808441111873e-01,-4.532566839697126926e-01
1.360734605835232969e+03,2.986529267956919284e+03,2.094905479456285320e+03,-6.035902753152208589e-02,-2.354646865439229131e-01,9.700067882165677169e-01
2.949998304165936133e+03,1.148361696740927073e+03,1.686997661668568071e+03,-4.982392180982834345e-02,-9.927571361293737739e-01,1.093199226110790206e-01
1.511625306400504996e+03,1.445895813315836904e+03,1.498370854471361554e+03,-4.855885596616549456e-03,9.845911276266078316e-02,-9.951292496399963827e-01
2.540334140440307692e+03,2.270822297655765396e+03,1.405192138441173483e+03,-9.813526041236894093e-01,8.642205264312241564e-02,1.716924436211528793e-01
3.454751708663310978e+02,2.154663973454681127e+03,2.443063475996590569e+03,6.204107606147846871e-02,9.378011790006877124e-01,-3.415843286013775515e-01
5.930158011046586353e+02,2.828651617930888307e+01,1.715868216149465752e+03,-9.440273256091002985e-02,9.159832436126965627e-01,-3.899523323507589900e-01
1.683335796908288103e+03,2.633156139053780407e+03,2.245231276708548194e+03,1.803767792376769485e-01,-6.202466106601499662e-01,7.633861142806036559e-01
4.510308183975917586e+02,2.194090605294806664e+03,2.012737521217666199e+02,3.189040131495629038e-01,-6.222650946648485004e-03,-9.477665899430617324e-01
6.691788600040406436e+02,1.792775125457016884e+03,1.527341842420633611e+03,7.849885555681614946e-01,4.120356585214804412e-01,4.626225067306837802e-01
1.337713535035512450e+03,2.795416004245813042e+02,2.524969189246186488e+03,7.696009330153794070e-02,4.119074975251792864e-02,9.961829481444882672e-01
1.713816882954150458e+02,1.586598133185061670e+03,2.627778381844618139e+02,1.508995249581469855e-02,-3.163858609204509564e-01,9.485105588992138737e-01
9.650870904611067544e+02,2.120161949224398541e+03,1.858622210959559425e+03,-8.003238668132394600e-05,-3.959122891998300697e-01,9.182883277355577967e-01
2.159506493718799447e+03,1.181590771828467496e+03,1.016156562312093342e+03,-4.446026534301396604e-01,-2.856094354887125375e-01,8.489733393474133694e-01
1.109521088238877610e+03,1.705825961575969245e+02,8.310962499831570085e+02,-3.591462656792541314e-02,-7.860077043603921343e-01,-6.171726081774796535e-01
2.689184827995941305e+03,1.276910399119433578e+03,2.984664967443672595e+03,-2.253866325772026780e-01,-9.741761348076645177e-01,-1.348051285033546876e-02
1.225299215384311083e+03,1.362289359756633075e+03,2.408398053532683321e+02,3.764858800947367135e-01,-9.263859196369095272e-01,-8.216446176363634279e-03
2.538736056397801804e+03,1.901097497764987565e+03,2.386261793126704561e+03,-1.761230522200398982e-02,-3.067858084132479846e-01,9.516156127665187370e-01
1.952982348412511328e+03,4.576411099962164144e+02,2.482494408366878815e+03,6.510654889561371880e-03,1.027502885793379478e-01,9.946858748216804713e-01
2.776409914038797979e+03,1.198124961679667649e+03,2.851138736576203428e+03,-1.060570699753498741e-01,2.563503534240669790e-01,-9.607478307066842360e-01
1.433871677390272225e+03,1.448571614482053064e+03,1.487153265100992712e+03,-1.089994855308722560e-01,9.463215094514677572e-01,3.042937937314870722e-01
8.102169203888200855e+02,8.648212938339338507e+02,2.123903237354906651e+03,-2.760130768396183987e-01,-7.950332082720399374e-01,5.401286690763545950e-01
2.297295002645811564e+03,1.111527747683994903e+03,2.466406708071059711e+03,6.306992398957925183e-02,-9.317909735857922149e-01,-3.574741476414626251e-01
2.263406873350038040e+03,2.077312199994238654e+03,2.117357615675097350e+03,2.474635147046454903e-02,2.163213937741131909e-01,-9.760085412969117247e-01
6.763938316149641423e+02,4.989148824989918012e+02,1.013996725554249451e+03,-8.039097753775421573e-01,5.002034652691338401e-01,3.217538910179333911e-01
2.465339841606898972e+03,1.567732151489746457e+03,1.714649665684027241e+03,3.124420508999113351e-05,1.298597082272960890e-01,-9.915323772842323802e-01
2.017162290354775678e+03,9.576390269365139147e+02,1.820868015105096219e+03,-5.855472060436794912e-01,4.894520302045298754e-01,-6.461974772645779908e-01
2.365267651335450410e+03,1.458516302993507679e+03,1.387842997827787713e+03,-7.219474418716664843e-01,3.469294714236185739e-01,-5.986917679680300308e-01
1.439316064435973203e+03,1.399834847932463617e+03,1.436098065305775435e+03,1.398242611290253512e-01,9.901038452069109708e-01,1.198130653190309161e-02
1.326150997446123938e+03,1.495910482493337440e+03,1.271180543553158032e+03,2.264737751233882324e-01,-5.977058127444480062e-01,-7.690626701334943860e-01
1.434467850996859397e+03,7.022428856457668189e+01,2.238122971244457403e+03,3.520920707057666188e-02,-9.993347002664222378e-01,9.511497299656975282e-03
1.319206840051376957e+03,9.590507529490106435e+02,1.871673123682488495e+03,-1.485037005244402818e-02,9.985810359277376147e-01,-5.114079775279181672e-02
2.303871596218732066e+03,1.563092255075142020e+03,7.656731305737000639e+02,-2.529096419928770212e-01,5.042907682897449506e-01,8.256679320433691904e-01
2.527481967219770013e+03,1.030683923843438151e+03,9.340811136273399597e+02,-2.001691753685698738e-01,1.488408560055992924e-01,9.683897463396580196e-01
2.086671206131417875e+03,2.908714958496826512e+03,1.820020030175904537e+02,-1.039297205747669213e-02,6.049254281647350462e-01,-7.962143006072702756e-01
1.922763478627426821e+03,5.947203909991733326e+02,8.068975173857062373e+02,1.149479960637678688e-03,9.937519760588650053e-01,1.116050571207278796e-01
2.080778740778715019e+03,5.270014187399865477e+02,1.416935676487581759e+03,-4.169464321790172234e-01,-5.617447987837091983e-01,-7.145617214297435016e-01
1.802039956745093377e+03,2.621520009034942177e+03,9.970254639171846520e+02,3.825226853424854023e-01,5.388157414582235294e-01,7.505691120444532016e-01
1.469848085887168736e+03,1.598703374303720238e+03,1.269596450595099896e+03,-6.352190480575886644e-02,-9.903340241882110373e-01,1.233024255439936628e-01
1.523076439593261057e+03,1.583392942895399983e+03,1.515828539215107867e+03,-2.652684244036771465e-03,-9.999489081941215218e-01,9.754192313363290248e-03
2.286033684387286485e+03,1.583804497037809597e+03,2.104091884534072960e+03,9.792935735899769290e-01,-6.986025042417310423e-04,2.024440877870072875e-01
1.899068168675559036e+03,2.516636471493004592e+03,1.007640845124019393e+03,-6.421554868492649337e-01,-3.264701660607569611e-01,-6.935802486963174029e-01
1.877973675026965566e+03,1.293968040356296001e+02,7.433504005351128399e+02,4.839912290327881561e-03,5.165637661703883499e-01,8.562350440906318916e-01
3.148334283606054100e+02,4.651797260157492815e+02,1.376172332330632571e+03,-7.306247096327485313e-02,3.472888614219959980e-01,-9.349076543001209050e-01
1.297149900124186161e+03,2.194366056912869226e+03,1.907952873471823523e+03,-4.500879104221962579e-01,5.861444972881678650e-01,6.736879850424690730e-01
1.647323200664966123e+02,2.633633365550188500e+03,2.575596836032750616e+03,9.137231884305641039e-02,2.189312548729876462e-01,9.714526262196123696e-01
1.965345929923039421e+03,2.784427392421257082e+03,0.000000000000000000e+00,-4.608355203663545949e-04,1.638281202201838649e-01,9.864887909427780821e-01
1.922845911123233009e+03,4.167189995413581300e+02,2.530576250172337495e+03,-3.407506832125172802e-01,-8.939734073616685539e-02,9.358937372156651557e-01
1.507778098049051323e+03,1.640260570848362704e+03,1.418825514329053931e+03,-4.100071456389050573e-01,-1.799564859801668082e-01,-8.941531209355072507e-01
1.374617966099383011e+03,1.524607547121025846e+03,1.283816756390855517e+03,-7.966043142176534309e-01,-4.471280203391632679e-01,4.068145769234468023e-01
1.561367867901382624e+03,7.889164655789414837e+02,2.512023060413112034e+02,-6.604408998381534543e-03,-8.602467227739650779e-01,-5.098352260666526581e-01
1.893079002160065158e+02,4.926962431217681910e+02,1.685511890069313040e+03,8.752055754110351637e-01,-2.297181404753626255e-01,-4.257285246562418912e-01
6.157127926522720145e+02,2.861199226028697012e+03,2.978392868319793706e+03,-3.141846046958012839e-01,-9.476349247634514583e-01,5.723708186753317939e-02
2.978329347817340931e+03,2.977682991774884613e+03,7.207962666645837544e+02,3.556432731011098247e-01,-9.332510469687963495e-01,-5.059985799955279973e-02
2.376083460170512808e+03,4.649637822716388200e+02,1.123280340229734065e+03,-1.069876652060879237e-02,-9.999225381521806844e-01,-6.360352996360075714e-03
2.435099554442243971e+03,2.406623586649982826e+03,2.064722174322586312e+01,1.102981775283073257e-02,-9.998475925595061709e-01,1.353272970613685587e-02
1.360748098611407386e+03,2.829007496222639020e+02,2.573114814732703962e+03,6.480326247832148695e-03,9.990662488691270937e-01,4.271575519984791014e-02
3.471348940611252942e+02,2.338285471028402753e+03,6.941103657892394949e+02,-9.312776707061790615e-01,2.970380057055532763e-02,3.630972105039340647e-01
2.428561305395896852e+03,1.718413733983097700e+03,1.737025290236979572e+03,-6.502842522371361511e-01,-5.032974537064111020e-01,-5.690536568593790312e-01
5.893560408396468802e+02,1.050001154101872999e+03,2.897403518518032797e+03,4.423001436033202616e-01,-5.835316530178973338e-01,6.810737059193245901e-01
2.466835376288695898e+03,4.634682038759615352e+02,1.091130477912220613e+03,8.538676600323479927e-05,-1.401043957219891278e-01,9.901367334911256313e-01
1.995842730163586793e+03,2.817385125660739504e+03,3.284459886136523465e+01,-2.215500202203448126e-04,-4.904527327430495132e-01,-8.714677663921158723e-01
2.466012620952398265e+03,1.735844086155306741e+03,1.854589198951352955e+03,-1.609172899543318599e-03,9.754515934368682695e-01,2.202080821043001790e-01
2.003683805942079744e+03,2.852873564321589583e+03,0.000000000000000000e+00,6.208885086236029744e-05,-4.011474311197222448e-02,-9.991950778151557078e-01
2.100654238414242627e+03,2.860065253463872068e+03,1.805762046219648198e+01,8.407882138471595157e-02,-7.569219928476034198e-01,-6.480739529854364633e-01
6.089393237224156792e+02,1.724296066012960409e+03,9.572694707788618871e+02,-7.748408509705745351e-01,3.993612284497007336e-01,-4.900329222392530992e-01
1.443524231736365209e+03,4.343200406727876270e+02,2.430111122323202380e+03,2.663408478889798398e-03,9.395137788228111742e-01,-3.425007527836346766e-01
2.289336438306555920e+03,2.122390578642024138e+03,2.080415828577979028e+03,2.654848565651545811e-01,3.032095901303716867e-01,-9.151949166093260590e-01
1.541681284168891807e+03,1.532393735494763405e+03,1.482230885003729099e+03,-5.080401389635840620e-02,-5.885743501232693076e-01,8.068452060643291901e-01
2.193527630823607524e+03,1.352401166484636406e+03,1.987907339558274316e+03,7.278491963297067935e-02,-2.089638056524454612e-01,9.752109942988076430e-01
2.535028788022724257e+03,1.854412964581645156e+03,2.354049239251960444e+03,2.173374067277634158e-01,8.028843943396030136e-01,-5.551045856077749807e-01
2.432810777775264796e+03,1.660223720445827439e+03,1.700523155930889516e+03,7.411733691573888505e-01,4.924344064163721502e-01,4.562569366368474100e-01
2.338316135093901948e+02,1.798362166884931639e+03,1.725388930863994801e+03,-7.887500575095155939e-03,-7.410946809648830680e-01,-6.713541994954943526e-01
8.674506594094602008e+01,1.124509960801305397e+03,2.268448845000042184e+03,-5.390925960101513592e-01,-8.199792085833085276e-01,1.923883323336604001e-01
2.478042088955225609e+03,4.985609824076660743e+02,1.189081090498729054e+03,-1.890628076621439502e-02,-9.893811333442412703e-01,1.441094220724433994e-01
1.509590939215421940e+03,1.446518544640113078e+03,2.234141206989640068e+03,6.565527675804968544e-01,-7.487825847505867882e-01,9.090161800881468857e-02
2.459546059363348832e+03,5.210490575800009765e+02,1.125761805388152652e+03,-2.093981925730555721e-02,-9.868844836000195686e-01,1.600641746269107768e-01
4.352482239932298285e+02,4.204335853098662028e+02,2.792595626390398593e+03,9.140884991683049243e-01,-2.985212382553527610e-01,2.744581680306247273e-01
1.323152085875273315e+03,2.695426712881115350e+02,2.471290525469976728e+03,3.643270774575643663e-05,9.991656297263656894e-01,-4.084168270496255776e-02
2.459839145335374155e+01,2.382403722522935823e+03,1.500166565982722886e+03,-6.232006826934455290e-01,-7.650784198283763216e-01,1.620984904412696992e-01
2.164681884880197231e+03,1.525306737158162150e+03,1.560962117832449621e+03,2.063910380615075271e-02,-4.114253730674123366e-01,-9.112097397363679852e-01
1.440601839158129678e+03,1.484189553575013861e+03,1.471098811513228611e+03,4.267670310735607320e-01,5.829185537540485518e-01,-6.914303008098119374e-01
2.704943401873285438e+03,2.861533878617548453e+03,3.497409955587265245e+02,-6.858388251207067077e-01,6.489986655650141489e-02,-7.248538564966023889e-01
6.844971243888539902e+02,1.871716046749170346e+03,1.523789800376297990e+03,-7.756672477514058028e-02,-6.574313561614762991e-01,7.495114509754602361e-01
1.556940441283990367e+03,1.764017367516610193e+03,2.057820369049199599e+03,-6.016462340443078094e-02,-9.929272493584876402e-01,1.023508454874244161e-01
2.978641241533338871e+03,1.798852034381806106e+03,2.452060683221973250e+03,9.998120513055609448e-01,-1.427271694407363303e-02,-1.312065605070245229e-02
7.587831409475260216e+02,9.195290859903554974e+02,4.773027207298277972e+02,3.364475447234401839e-01,-3.656340787150319516e-01,8.678218539146029809e-01
1.931114326694508691e+03,4.575450920525320839e+02,2.516186865055983162e+03,-4.850318792126433881e-02,9.726075109970957477e-01,2.273369092635615374e-01
1.150555589264654600e+03,1.464172961518529519e+03,2.320182909080363515e+03,2.727159169102181049e-02,-2.679883354436244924e-01,-9.630360908879758153e-01
2.108423827107832039e+03,2.964800322577409588e+03,1.438941474047657891e+02,-4.383377041233118090e-04,-9.373064277268569056e-01,-3.485060521740983575e-01
2.568788179024526016e+03,5.626246476318344776e+02,1.228672795846982126e+03,9.988722645136447324e-06,7.851387647145341431e-01,-6.193198850697115843e-01
1.187524937113367059e+03,2.086260032357660066e+02,8.984622161045128905e+02,5.108776838954104002e-06,5.300300388308729627e-01,-8.479788664293725908e-01
1.208912923326520968e+03,7.088973905101061064e+02,2.453197784499075169e+03,1.788634859523322018e-01,5.262845268776007446e-01,8.312836159591983076e-01
1.725852237579063058e+03,1.151040984111739590e+03,2.092410622174940272e+03,1.850886044355563309e-01,-8.642160200387557500e-01,4.678385183121107627e-01
3.576783494337768161e+02,4.836155366922638450e+02,1.403842929126671834e+03,-1.902210503607336747e-02,-8.146666360083932856e-01,-5.796174873955795004e-01
2.573994965527719614e+03,1.037584030364258979e+03,9.427455307058297649e+02,-4.704506709111565543e-01,1.340541604734058478e-01,8.721844118642645416e-01
2.226958569672807243e+03,2.651970594276045290e+01,2.240357127794200551e+03,4.100142591767728661e-01,-5.487209053960285798e-01,-7.285558834112074722e-01
2.373979237145083971e+03,1.225478293013366283e+03,9.211434055081728900e+01,3.229123911694792987e-02,4.740733323811820443e-01,-8.798930340679447237e-01
1.117862544413886553e+03,1.579196201524652679e+03,6.161493284971686535e+02,4.719275562107545091e-02,8.139459274480153050e-01,-5.790206136293247763e-01
7.272524418644214848e+02,2.193516461107637497e+03,6.843196932749223151e+02,3.810233129871591906e-01,-2.670756616655532989e-01,8.851507362625850028e-01
1.386702366250184014e+03,9.503414324208234802e+02,1.024162663820937041e+03,1.254463648464454184e-01,2.416928664347991161e-03,-9.920974589235898033e-01
6.287335271106321670e+02,9.981700903087443066e+01,1.131840406625722579e+02,-3.339829126960814354e-01,-8.749051023712465236e-01,-3.507085340732392642e-01
2.079004442343663868e+03,2.832936216729213811e+03,0.000000000000000000e+00,-4.802557700492969019e-03,-8.846925225220122480e-01,-4.661502719436858566e-01
1.051796525830951396e+03,2.480321392316406673e+03,2.754384067056090316e+03,-2.785040279666238239e-01,9.131559025999630430e-01,2.976269543458943123e-01
2.482877538252933846e+03,4.011233634845004872e+02,1.148920878043075618e+03,2.126841785940485063e-02,-9.708311497794631650e-01,-2.388190382269458067e-01
6.678523247143863273e+01,6.179217010910823547e+02,2.720666983866565715e+03,8.783843144634168043e-01,-4.740282383123258780e-01,6.114102867262038998e-02
2.132304443503013317e+03,2.921671781205515344e+03,0.000000000000000000e+00,4.006804614478233148e-03,9.821029733768078529e-01,1.883021380686222546e-01
2.287800952778535702e+03,1.989525893288672705e+03,1.619890892795458285e+03,-2.100587982000612086e-01,-4.341461546951022044e-01,8.760093707616388725e-01
2.546882761714545268e+03,2.221621878515577009e+03,9.679368021974657950e+02,-5.458844326425852378e-01,7.091707666442719216e-01,-4.461916739873779125e-01
2.887825069712679579e+03,8.450110449822377632e+02,1.292540052138635701e+03,4.742929978202654190e-03,-6.328259310600130583e-01,-7.742795655273677635e-01
1.553512798023606592e+03,1.505529213060644906e+03,1.504783390049598438e+03,-4.750747921899171194e-02,-5.832889974039232595e-01,8.108742102976165267e-01
1.937915789017006546e+03,1.878321329470965964e+02,7.579405350748171486e+02,-4.581002030367077593e-02,5.727476308096864921e-01,8.184507275588851494e-01
1.449439674315352249e+03,1.344291724526333155e+03,1.830317251375665251e+02,-2.378978531621892267e-01,-3.590087101816633042e-01,9.025061537045162563e-01
1.546907846696222805e+03,1.489776254877665906e+03,1.515485273823025182e+03,7.314199893576924794e-01,1.345462284686613219e-01,6.685223343859589828e-01
1.499051940372331273e+03,1.560444682806304172e+03,1.410488598535079518e+03,-3.575403836230922616e-01,-2.802222044713130744e-01,8.908649674332747015e-01
1.505939232915181037e+03,8.981255441271652273e+01,8.800534283930161337e+02,1.346047540984045450e-02,9.864967814499024934e-01,-1.632265780769921737e-01
2.807484462921489012e+03,2.965686277259725102e+03,2.698229389897165220e+03,-7.251064380879761462e-01,-3.288571620503951687e-01,-6.050401808239913581e-01
3.993756042483788065e+02,3.141781339449474331e+02,1.784334484448921785e+02,-1.811648533540826667e-01,9.631873016252809894e-01,-1.986190270266261493e-01
1.287998645476489628e+03,1.386758253914025545e+03,1.002535579251898071e+03,-4.812600886851318288e-02,-4.589371370675842526e-02,9.977863770931080234e-01
1.813018296633968475e+03,2.357014228725448447e+03,7.228629693802417933e+02,-8.761230589865717233e-01,-3.939167577981002588e-01,-2.779172060845549463e-01
2.360542792369953986e+02,1.172715258532127109e+03,1.094693545991161955e+03,4.085454245947799379e-01,8.923685006851552748e-01,1.917526923607568712e-01
1.521135712849290940e+03,3.239936791546921313e+02,8.773137220395789200e+02,-1.044632431456591348e-01,-5.635920023553908642e-01,-8.194214335203418020e-01
2.237875102823575617e+03,2.144418502355194505e+03,2.086671003609623313e+03,3.649560658650018163e-02,-8.985654733010058903e-01,-4.373192894113208107e-01
1.095406908726137772e+03,2.293894814980018964e+03,2.371958302661359994e+02,-5.607368337563927163e-01,6.400937563674251596e-01,-5.252182273382131061e-01
1.492873397956943563e+03,1.519806376187152637e+03,1.552537584589592598e+03,-1.366836470765732392e-01,9.491260850739481336e-01,-2.836851340025545176e-01
7.060545626188170445e+02,4.972815717257460619e+02,9.632755535318299280e+02,-2.468988547321454008e-01,1.107041732168638631e-01,9.626970144154003428e-01
8.970784726552296888e+02,2.142444399340271048e+03,2.016028014875401368e+03,-1.756809818793740041e-01,9.842704098223267195e-01,-1.865349710075903458e-02
2.587656009882083254e+03,1.100899545208250458e+02,2.830623181586051942e+03,-5.965100299554210173e-01,-7.703424588052578681e-01,2.252737896970094245e-01
1.435773134548152484e+03,1.498878305819061325e+03,1.297486109334038701e+03,-1.667994403252625324e-01,9.832141941179558531e-01,7.394454132765918009e-02
2.575061077381793439e+03,1.475431674833898569e+03,7.988169141924726091e+02,6.766748604777670373e-01,-6.984410382794790095e-01,-2.330048266548956359e-01
1.173821799528313221e+02,6.071771382424531112e+02,2.720065921205223731e+03,-8.671479865329609904e-01,4.939586919671842269e-01,-6.371169501669404767e-02
2.424977092491599706e+03,4.296590562665036259e+02,1.188784901351142707e+03,-4.320188593915579855e-01,-8.998625268547340017e-01,-6.005945298311101549e-02
1.920562570902429570e+03,2.431979084803126170e+03,1.038498464147422055e+03,8.213692747076858924e-02,9.185836119301259428e-01,-3.865975595358378536e-01
1.859647553790872735e+03,1.568488567830465001e+02,1.250632426726105678e+03,-1.042254660280303468e-04,-9.167969619937543779e-01,-3.993536272729658054e-01
4.715732072647086284e+02,1.619644376909985795e+03,3.146756310321763195e+01,-7.021289464061261087e-01,-4.466336604394729459e-01,5.545568645153183818e-01
2.233849179064913642e+03,2.122690450476538444e+03,2.177744299450820108e+03,-1.728745791478920662e-03,-9.887173937412213620e-01,-1.497829321102878697e-01
1.108935035324485398e+03,1.933765208685914104e+03,2.184726173188752909e+03,-7.466799912749687296e-02,4.381323418067054054e-02,9.962454970623083605e-01
3.845448885849306180e+02,9.148628594460855084e+02,1.289730994909672290e+03,-9.326472835977772657e-02,-4.855485535483977100e-01,8.692205086116155943e-01
1.103738752249064191e+03,1.528318216190115663e+03,2.342701824693394428e+03,1.423174176197304804e-02,-1.737499928791655934e-01,-9.846869540625133865e-01
1.702748905157921513e+02,3.434945480040125858e+02,9.471143146786489524e+02,-1.926510241828203280e-03,7.516423600170369923e-01,6.595680792657473424e-01
2.356893197330829935e+03,1.949415073038143191e+03,2.197271525210627715e+03,2.917583308943769160e-02,7.081537185533388623e-01,-7.054552300909080476e-01
2.366448192326638036e+03,4.066584757696172687e+02,1.057159562656330991e+03,-8.672073507537831905e-01,-4.953282404964011731e-01,-5.100338190105047076e-02
5.628546696398709628e+02,1.692901686946789596e+03,9.360127613983705714e+02,-1.076422216264119741e-01,-7.121802195647056744e-01,-6.936948082435805407e-01
3.981522009765611188e+02,1.991891393807514760e+03,1.172353773853715353e+02,6.352734770250628715e-02,2.594892374621917686e-01,9.636543009477908095e-01
2.512047355759720631e+03,4.216826738927956058e+02,1.160180135753384093e+03,4.206652313682696098e-02,-9.846584472413634215e-01,1.693462426728327141e-01
2.225417630909200398e+03,3.263483154538464532e+02,2.911281358978660137e+03,1.179790445974494839e-02,6.836674998223143396e-01,-7.296982658174984149e-01
1.578996431352381478e+03,1.457752744600019923e+03,1.481408375807978018e+03,-3.934004423223568840e-06,9.419474650608359312e-01,-3.357602910559687182e-01
2.298064651435576252e+03,2.131745103071687936e+03,2.097846401265362147e+03,-3.580528083550933438e-01,-8.395510813056515920e-01,-4.085978075168075763e-01
2.860842113805057920e+02,2.616038357002974521e+02,8.463342611517010710e+02,-1.030865014722965739e-01,-7.337087702562150593e-01,-6.715985509687426580e-01
2.231803849123601253e+02,2.118198800884376396e+03,2.865441892328540803e+02,2.254375494584724970e-01,2.636007755860946856e-03,-9.742540545244191552e-01
2.727253610320395865e+02,5.070197681823463540e+02,2.224598966012147685e+03,6.255260516587203279e-01,-2.165841098126476960e-01,-7.495388462734370316e-01
2.419454416148137810e+01,1.181288843187365273e+03,2.182104779000516373e+03,-5.820621285478413259e-02,6.263836491435875731e-01,-7.773387684083861160e-01
1.670299883907274818e+02,1.128829134603812918e+03,3.986262771215126008e+02,-1.711560367545398404e-04,7.166133186814065414e-01,-6.974706604539233634e-01
7.937897212955610371e+01,2.269225849277178895e+03,1.582099762132884962e+03,1.833990782634081218e-01,-8.013613621343055327e-01,5.693722379694875491e-01
1.287254265734803766e+03,2.877285126521237089e+03,2.815192171083144331e+03,-2.462470346780741733e-03,-1.484626953306993624e-01,9.889149429222592325e-01
1.826674955070842998e+03,1.595047123155988231e+02,1.246332457311383450e+03,8.563745803703968660e-05,-7.895603691859610640e-01,-6.136728901272685555e-01
6.430880382782214610e+02,1.694363659475272698e+03,9.794618390777486638e+02,-7.298489302032079573e-02,-7.341130819739568603e-01,-6.750934663181913375e-01
1.507072807941304973e+03,1.481175620786625586e+03,1.524891202447396608e+03,-1.592493974419845540e-02,-1.738403153938794243e-01,-9.846450837930894595e-01
2.649567209684196314e+03,1.209960500070320222e+03,1.527328801483758980e+03,-5.321674781316362290e-01,-3.742319370049458915e-01,7.594394199306095938e-01
2.424939629977438017e+03,1.853669482000658491e+03,1.542720049482510376e+03,9.133583458914203146e-02,5.390350271135946336e-01,8.373165499765015118e-01
2.794094327670188704e+03,1.077796951495528447e+03,1.018417491226679090e+03,8.825676367468837658e-01,4.500923632291246590e-01,1.359824662588620392e-01
2.426293839809636211e+03,4.951795530772776033e+02,1.203702639460873115e+03,-6.409924704434523390e-02,9.957281990064252852e-01,6.645780790673851135e-02
1.956933819997410637e+03,2.766367982059077804e+03,5.883326013364657570e+01,-1.399406466476432222e-02,3.429957450788832518e-01,9.392327107868103653e-01
5.282777809273610501e+02,2.364693701395009157e+03,2.064596678540904122e+03,2.128240705119521792e-01,1.540942655646201920e-01,-9.648631365799109627e-01
3.779677462772656895e+02,9.319750186495323874e+01,1.345748030893759051e+03,9.535140559113840508e-01,-9.308160256952346945e-02,-2.866125615574298124e-01
1.831597883679852885e+03,2.475013765583768873e+03,9.591771210872634583e+02,5.790367262218563127e-01,3.472221330552482388e-01,7.376674453999162440e-01
1.496689526835787774e+03,1.385793061443120905e+03,1.543341159493054420e+03,9.728686705773328947e-03,-9.996764226960989097e-01,2.350324574418287057e-02
2.517168026592567458e+03,5.349736719443593529e+02,1.233178468789319822e+03,2.051515158203029432e-02,2.413991300137852125e-01,9.702090437550837665e-01
1.606054521590892136e+03,2.813097756090172879e+03,4.264075256363482822e+02,-2.542666366515543286e-02,-9.975879204260387212e-01,-6.458967250970205909e-02
1.916453341008788357e+03,2.804749164452723107e+03,0.000000000000000000e+00,-5.576070868778124773e-02,-9.920520644846484437e-01,1.127982478515661274e-01
1.126081328153644790e+03,4.447794704743781722e+02,1.052573073767101278e+03,5.457820086608649035e-01,4.622499071716499319e-01,-6.988898499348181748e-01
2.191273368773513539e+03,2.654462303426670587e+03,5.445727580861413344e+02,-6.007217045235909575e-02,7.982311566923520063e-01,5.993482750644507639e-01
1.024684215233619398e+03,1.619107660599737756e+03,7.889375560567411867e+02,5.864645696452764484e-02,-9.918520068439238280e-01,-1.130937204498499715e-01
1.401473288848860420e+03,3.214086916946624228e+02,2.514334725757709748e+03,9.317957934027788769e-02,4.841433101441849352e-01,8.700131155543577854e-01
7.334120328895032515e+01,1.948996483258648141e+03,6.685432571145993279e+02,2.139387805384806440e-01,-3.892711789916626919e-01,-8.959342316197929090e-01
1.018133455576316351e+03,2.988440792755380699e+03,5.283235421539540084e+02,6.520075925845053577e-01,6.047450577088117063e-01,4.573505377595217247e-01
8.290108177600736781e+02,1.921784524485269230e+03,2.037513123907473300e+03,1.507082174048140211e-01,4.007861960249708422e-01,-9.036910192551971255e-01
7.302385468216223217e+02,1.843080494811605831e+03,2.383618348611812962e+03,-9.208777232959067249e-02,3.040700643879825082e-01,9.481883980151105673e-01
2.347787058706296648e+02,3.738365293198214090e+02,8.262747104873835724e+02,6.911891568456442203e-02,4.744831554518340044e-01,-8.775467569805387447e-01
2.532547020707185766e+03,3.949582427011228560e+02,1.129342114923527561e+03,1.576553111566991738e-02,8.545017451614281834e-01,5.192092213594770023e-01
1.494889443942999151e+03,1.609696045507402005e+03,1.500913815039899418e+03,-9.769679749654430409e-04,-9.975043968379797565e-01,-7.059761909918982337e-02
2.300542224077297760e+03,1.965047943163447826e+03,2.037072715593890280e+03,2.644003658900445641e-01,-3.510776798066078674e-01,8.982410084486343038e-01
2.501309116143578649e+03,5.798845244541593047e+02,1.157040995527275754e+03,1.973322504925081877e-01,6.221599853955267490e-01,-7.576126553115384299e-01
1.625172992113308226e+02,1.125454198184434517e+03,3.413643147467010408e+02,-7.991552381372372116e-01,4.967853173596958327e-01,3.384601214525013724e-01
1.867006405380564274e+03,2.906565565424842134e+03,2.409391688793589736e+01,7.458856718854603050e-04,-9.886873879479635141e-01,-1.499889748188103500e-01
1.223279725684758887e+03,1.669585835766217485e+02,1.949039768516384129e+03,2.635787369400922064e-01,3.361291675900804354e-01,-9.041810837040693549e-01
1.508376616325749865e+03,1.562868076200282985e+03,1.411852705127135323e+03,8.903383068103244355e-03,4.303805416343332024e-01,9.026036334695759500e-01
7.627749930040521065e+01,1.132001706667929511e+03,2.320271643817980021e+03,4.028629693253829580e-01,8.910626736867769404e-01,-2.090663519280619165e-01
1.781973924811159350e+03,1.816460135175346693e+02,1.266158532897974283e+03,1.943703403741486868e-01,5.338711335186725471e-01,-8.229227081435566138e-01
2.314436264990154086e+03,1.995757776398789247e+03,2.142394688632896759e+03,1.383300231794212451e-02,2.645893187167244753e-01,-9.642619667226803859e-01
1.775296608101820766e+03,2.879553692854910878e+03,1.375693876137397638e+03,8.533852959933942162e-02,3.069476902580695055e-01,-9.478926367532659603e-01
5.891750084590826191e+02,1.523892150681264752e+02,1.302432228735297940e+03,1.201454779415822988e-01,-9.508114697105137791e-01,-2.855216510128812391e-01
2.961319007960197723e+03,2.027781599982840817e+03,1.445553266710386879e+03,-3.571219660307083377e-01,-8.827628273214523924e-01,-3.052764191315753828e-01
1.420310999969173054e+03,1.519399883982026950e+03,1.207905957079495465e+03,-1.298467552221229671e-01,-9.817103626186124421e-01,1.392285318658446625e-01
1.922895470441247426e+03,2.848550320823949733e+03,0.000000000000000000e+00,9.603153520449122516e-01,2.770228822501075161e-01,3.244606812387851313e-02
2.517975679783750820e+03,1.178439754517773054e+03,4.864844767651251800e+02,4.799892181322421569e-01,-8.772673938731934129e-01,3.502873639502190883e-03
1.153248922023286696e+03,1.732712041475827391e+03,9.737443802727274544e+01,7.757959949475863592e-02,-9.298865144321181164e-01,-3.595726296862973292e-01
8.228279041239861158e+01,8.297357772522799451e+02,2.854956311177925272e+02,3.407963411385380170e-01,5.385760150439960342e-02,-9.385932093440578772e-01
1.009323850253196468e+02,2.125965900525968664e+03,1.396377326333617930e+03,-3.343865895820769540e-01,-8.644190268667486521e-01,-3.754535320095029327e-01
3.913859308483812924e+02,2.054600668178850810e+03,1.781490481057392969e+02,7.093697812319168898e-04,9.577217483323464675e-01,-2.876952373011190112e-01
1.034222494966162230e+03,4.288035395805736272e+01,3.093481215867109881e+02,1.734614661014164533e-02,3.374505758287845714e-01,-9.411834146810074131e-01
1.960051563638368407e+03,1.881148039658418156e+03,1.951990308649249982e+03,-3.781561597092994997e-01,-9.233491406050838846e-01,6.651528709828991026e-02
1.586383046260708170e+03,1.441767376114138415e+03,1.586584065224129063e+03,-9.001649003917135961e-01,-4.264691836582527040e-01,-8.847139364020395469e-02
1.468374135518541834e+03,1.401597800459830978e+03,1.451581842798608704e+03,2.158038475937410980e-02,-4.256029075963276842e-01,9.046526692820781035e-01
1.418365235495096840e+03,8.872438660849254575e+02,7.762642902705659935e+02,-1.928015688794439478e-02,-9.951366235334637711e-01,-9.659904788761378147e-02
1.496945154275692403e+03,1.462027687598452985e+03,1.450053134818619810e+03,6.810204033349167574e-01,1.444778985186965237e-01,7.178700070912341635e-01
6.593568297963581699e+02,1.917853738691318085e+03,1.527815951953031799e+03,1.566326358637658289e-01,-8.440786642065134515e-01,-5.128327466277060598e-01
5.352250386019668440e+02,1.458157431269224844e+02,1.276232615429071302e+03,-2.178165722116389910e-02,-1.104626185132140948e-01,9.936415698429207355e-01
7.903521494149259752e+02,5.061670599368737271e+02,2.122295553618366284e+03,-3.330036361818121127e-01,-7.593650403919605107e-01,5.589931249310743366e-01
9.336944056182025520e+01,1.150043205520764559e+03,2.207689142027710659e+03,-1.371938415218933172e-01,9.654782912671397987e-01,2.214261026626033468e-01
2.382223080829685387e+03,4.934914736102244888e+02,1.063164731983346201e+03,4.574057303149034817e-03,-5.067101142602987718e-01,8.621043661333019914e-01
7.818699043184046786e+02,1.653221477655481522e+03,1.968026880573871495e+03,-5.052373124247924174e-01,-5.111683823813695238e-01,6.953000381039733391e-01
1.341243423589376562e+03,3.000000000000000000e+03,2.001344974234302526e+03,-7.037365293846593595e-01,-2.480637720147325087e-01,6.657471458620437543e-01
1.198981195388753804e+03,3.477358285787258865e+02,1.828847023123722693e+03,2.941734418402672802e-01,-3.986687119014649117e-01,-8.686341256632033048e-01
7.303198613105487311e+02,3.401521926038123524e+02,1.247641513630290092e+03,8.222807126276345802e-01,-4.082968115154813060e-01,-3.964191510849104927e-01
2.479714816370339122e+03,6.476278323543641591e+02,2.657627697827527754e+03,-7.283990869880322405e-01,6.288757341115661648e-01,-2.719376419708020021e-01
2.755677286087329776e+03,2.192107790624786958e+03,4.577888495314596895e+01,1.559805690958727953e-01,7.140337859542644772e-01,-6.825143328753964234e-01
2.702711517069244110e+03,1.207808460764146503e+03,1.542215146639228351e+03,-6.725225108740850999e-01,-3.271291422817913519e-01,6.638523906996159907e-01
1.983126832094968222e+03,2.791648630236635654e+03,5.412843301855155431e+01,1.623577875510441451e-03,4.092626731281146651e-02,9.991608502331956743e-01
7.613156839132840048e+01,1.182631612808433601e+03,2.081975842984326846e+03,-4.346131302951774383e-02,-5.293504705978127611e-02,9.976517403696187891e-01
1.711048738655066927e+03,2.843595101401032025e+03,1.407773618052131951e+03,1.052206501814461764e-01,3.330995579264512396e-01,-9.370022941725364429e-01
5.190580316339064666e+02,2.196381889240708460e+03,1.029312392315515012e+02,2.704026255922069577e-01,8.324228182852305702e-03,-9.627113416273854751e-01
2.853029879160125120e+02,1.088977810891380159e+03,2.167461968071569572e+03,6.513027945593080625e-01,2.481040210523285938e-01,7.171116123288630018e-01
2.850556485496482310e+03,8.328542626158799749e+02,1.200027408868752673e+03,1.210368762889385639e-03,-9.295121171359541634e-01,3.687895864919373268e-01
2.105392455197108177e+02,2.056717571790789862e+03,2.965971007563603052e+02,4.105273902774889128e-02,-6.567787179833329825e-01,-7.529650644103543788e-01
1.175745826936724143e+03,1.399380155633197091e+03,2.739319546373990306e+02,2.809163727476430839e-01,-9.596945032456500879e-01,-8.511871850082198057e-03
1.453385291282872686e+03,1.502215887241091423e+03,1.452253040305344939e+03,4.289397278755262277e-03,3.125532658075619308e-01,-9.498905500656444900e-01
1.372156820122613908e+03,9.939073293480842040e+02,1.976140133725004944e+03,1.770502759818812222e-03,2.688471096040367936e-01,-9.631812378662348850e-01
2.738757862743639635e+03,2.928874866311803089e+03,3.824531407038202246e+02,-1.584820176017837697e-03,3.182546935960777618e-02,-9.994921849844801143e-01
1.342344066038800975e+03,2.812810704863106821e+03,2.874733093877615829e+03,3.686212918060262356e-02,2.551485419245051456e-01,-9.661989468976209805e-01
1.510776635394798404e+03,1.438372085371292087e+03,1.431545615198499945e+03,9.340232913704187012e-02,-4.238410676644204789e-01,9.009077390459356849e-01
2.213638735203840952e+03,1.974137909922019617e+03,7.562584221728719740e+02,-3.825241983430677922e-02,7.271557214009657377e-01,6.854059448317186831e-01
1.224736052023675938e+02,2.296419724099681389e+03,1.579957108766609281e+03,3.590614171902005713e-01,-7.608264498429494482e-01,5.405719303707312573e-01
7.150247717635709250e+02,2.811925540819650905e+03,2.702020521072801330e+03,9.965980082459282574e-01,4.588224220753615162e-02,6.846334647282102670e-02
2.415523462374432256e+03,4.658410950150582153e+02,1.351912289823625997e+03,-6.525120063912421831e-01,5.114055340613319345e-01,-5.591891104507664689e-01
2.425502668935786005e+03,4.756467912640125064e+02,1.165377362377068494e+03,-1.061741899716002815e-03,4.887389273923419819e-01,8.724294433107594449e-01
1.250984509966072409e+02,1.100396368913383640e+03,3.683255382190579894e+02,-1.251050582207598183e-02,-7.808223084533746743e-03,-9.998912535352721953e-01
1.493085230366359610e+03,1.543254728047122398e+03,1.459345006564145251e+03,4.364332717103579055e-03,8.554636058114649666e-01,5.178445439820535956e-01
1.996907883089143297e+03,1.374065220961612567e+03,2.908641617251360003e+03,7.397922137585165592e-01,-6.560313221383894389e-01,1.494335465537448837e-01
1.998061462283348646e+03,3.753753181169525988e+02,1.179542045569825405e+03,-2.849586841326338330e-03,-5.977771765867022635e-01,8.016572378559707612e-01
1.135874555770058123e+03,1.784420539976998271e+03,2.716594568032823645e+03,-4.901845641611256577e-01,-6.092521168070894610e-01,6.233225098007033615e-01
2.365813459039027748e+03,2.032448841441450668e+03,2.106343872348113109e+03,7.506864990856981779e-01,9.057814314756522378e-02,-6.544198805617058579e-01
3.023717708899774834e+02,2.029902449118179447e+03,1.187802988828140315e+03,5.400768561301492188e-01,-5.060793666935983204e-01,6.724586709081685765e-01
4.138219640122333658e+02,2.151567176493183979e+03,1.627798055140971201e+03,-2.954046451672855400e-01,9.488165841035766102e-01,1.117281761401789503e-01
2.314301027009316840e+02,2.261285609815581665e+03,1.346222804175922874e+03,2.768323512397280126e-02,1.233352515573424846e-01,-9.919788577466548407e-01
1.486834407144248416e+03,1.411498479451852745e+03,1.478463466688691369e+03,-2.928160977031215098e-02,-9.851896296839663947e-01,1.689496401074249421e-01
1.821769538087735782e+03,1.193344880385137230e+03,2.047080639671194831e+03,1.559796507180190002e-03,-5.150632042094490659e-01,-8.571507817790003925e-01
6.524732824945513130e+02,4.066070592530803651e+02,2.143856490210633183e+03,-1.973955158195666859e-01,7.732161889067755700e-01,6.026373167559481159e-01
3.390666970309274006e+02,2.550051358758908009e+03,1.532173090757999944e+03,2.003789275647859247e-01,9.715101892703928987e-01,1.265552746107079241e-01
1.995853199444231223e+03,2.752474830988164285e+03,2.417105241636820168e+01,3.162269156421845822e-05,9.729216477723385825e-01,-2.311351688860067977e-01
2.678747392654481246e+03,2.373594422070262226e+03,1.965200563871167674e+02,7.427331379625967504e-03,-6.999257640132036107e-01,7.141769806001243559e-01
2.407221100495673454e+03,2.388326152586857006e+03,1.346951277606422934e+02,1.214717255179001247e-02,-4.460507002604846560e-01,8.949252588882092851e-01
2.203885831865128694e+03,2.403296595875210642e+03,1.912605304094850226e+03,-9.304290112453711403e-01,-3.263895150722841421e-01,1.666485508003006377e-01
1.141572340218008321e+03,8.397155668779020061e+02,1.922797502833697536e+03,1.972049113017195279e-02,-3.907968798537337918e-01,-9.202656686664841823e-01
1.241428809435556786e+03,3.544438525900649779e+02,1.793028018466774711e+03,6.796588257242471842e-01,4.549129289243645236e-01,5.754286295559107867e-01
1.035379742000419583e+03,1.645967187598401324e+03,8.384541399509272424e+02,-6.485385872495645909e-01,-7.608871325097328331e-01,2.117716764478041330e-02
2.091908650870720521e+03,2.904013245711193576e+03,0.000000000000000000e+00,2.614547889827630684e-04,2.406909441138415373e-01,-9.706017726457030204e-01
1.474013883074468595e+03,1.579611449472311278e+03,1.445423751143017853e+03,4.626381182839500728e-01,2.991088994929024247e-01,8.345656581449003575e-01
1.475375567261971355e+03,6.853274704985110475e+02,1.560312804734808424e+03,1.487312892247775464e-01,-5.905581570926846657e-01,7.931708937529335923e-01
1.053064459522451443e+03,1.636385217158423302e+03,8.741342749617863319e+02,8.359959025116003167e-03,4.384075732200874709e-02,9.990035530880413406e-01
1.367174728475490156e+03,9.997593805766392734e+02,1.894335227203896920e+03,1.987237286944668405e-02,1.047733025870721014e-02,-9.997476253271061486e-01
2.021297227062782440e+03,2.895885658467627309e+03,8.022876514720535397e+02,6.568512200367480902e-02,9.784540366411041967e-01,-1.957374847291419306e-01
2.464531776422737039e+03,1.295409311218259973e+03,2.416070662332218035e+03,-9.505706889754358402e-01,2.729535534537436137e-01,-1.480260886389279662e-01
8.959800828628563067e+02,1.888082504044049074e+03,1.988567610711017323e+03,-1.164873383041532600e-03,-9.390216366675800952e-01,-3.438560875426531771e-01
2.382487711155362831e+03,2.353431144084654989e+03,5.952053035879351484e+01,6.328987283680366227e-01,-7.061608049627255967e-01,3.174525431690817801e-01
1.415738426092822465e+03,1.851734572611509520e+03,8.345572353425604888e+02,8.424603899974562882e-02,-8.585014710846098351e-01,-5.058436804571292411e-01
9.790626791432580944e+01,1.166378863628542831e+03,2.212181841737050036e+03,1.110372289640228737e-02,-3.763031728121636887e-01,9.264300456425939023e-01
1.688987445926852047e+02,1.644881290867210055e+03,2.722792441369518315e+02,-3.699768901116633896e-02,-4.585669215955413547e-01,8.878893790479879256e-01
7.559389070330994400e+02,8.999772902082403334e+02,2.084069448544214993e+03,-1.972977589143673216e-01,5.431329540711797854e-01,8.161373588614124763e-01
7.087631189959180347e+02,5.614335850611365686e+02,9.611197516546698125e+02,-7.626168969075874937e-02,-1.139082407000865105e-01,-9.905599766728523381e-01
1.051791763586419620e+03,2.172232623045928221e+02,9.300732421757975317e+02,-2.750447060931853760e-01,-4.755058878275196799e-01,8.356102921167710695e-01
7.953985434267702885e+02,9.314516196868140696e+02,2.206465024038394404e+03,-1.178417857996764545e-01,-9.319022627452658858e-01,3.430327771653851610e-01
2.264384643707466694e+03,2.095287163889532621e+03,2.122943312564862936e+03,-5.071422181739976276e-03,-8.781731000328856229e-01,-4.783160953341275556e-01
1.941286933010659368e+03,2.855872853972006851e+03,4.751048378695707441e+01,3.977530096453223973e-01,-5.198688796145607416e-01,-7.559952984816700194e-01
2.075612912742803928e+03,5.178992859625039955e+02,1.395222360695562884e+03,-9.378718957735825146e-02,-4.218895662777500388e-01,-9.017833203919622953e-01
1.449906069682414000e+03,2.583112368736576627e+03,1.841926348106540900e+03,3.759949301273950856e-02,5.852248703058151452e-02,-9.975777647065617870e-01
9.833038068616526743e+02,2.282556115281100517e+02,2.461403335680716964e+02,-1.117639925711959477e-03,-5.036189410280301759e-01,8.639251779632318717e-01
1.371274969300395696e+03,1.479887477784568773e+03,1.505482247449538818e+03,1.023769930877775208e-01,9.942055769753637140e-01,-3.277532604550979778e-02
2.448938649396364781e+03,7.880046702058045582e+01,1.648460833051672353e+03,-2.251954006803225106e-01,1.044618430437156131e-01,-9.686974526963200161e-01
2.451278065529596006e+03,2.690115673472219896e+03,6.551349457164124033e+02,-3.318006214551229571e-01,-5.167230193293489426e-01,-7.892437322507892539e-01
