x,y,z,nx,ny,nz
6.125189981886311443e+02,2.494633643163856959e+03,1.995267871356593105e+03,-8.259868023620354771e-01,-3.711119573681719297e-01,-4.242896621673735713e-01
1.028693168603546155e+02,2.939803131581148136e+03,2.780418733138037055e+02,5.440462431679131683e-01,3.461007056917565772e-02,-8.383411169148728970e-01
8.388598687910551917e+02,1.275783036008435829e+03,1.400035579112618507e+03,2.108516193682516415e-01,3.282041596261889294e-01,9.207733837453453418e-01
1.066038040472870762e+03,8.878426645541660491e+02,9.956671168687166755e+02,6.664105120545898986e-01,-6.972154469798539367e-01,-2.641735223594934290e-01
1.276818591443557352e+03,3.705799380429158987e+02,1.939930454080206573e+03,3.387274785891585260e-01,8.135687163131274380e-01,4.726199732186961988e-01
7.431913315079865470e+02,1.945676882891985315e+03,1.452981283730761334e+03,8.997505309577725763e-01,-3.622480895116241828e-01,-2.433624944119057165e-01
1.035411493997358775e+03,2.341176023855859057e+03,1.563880846402496672e+03,-5.552084204281892976e-01,8.270232816371262397e-01,-8.818220634455588292e-02
1.895163944350800421e+03,1.511318336293223638e+03,5.508771313324426728e+02,-1.981554221778817904e-01,-8.878432175897184031e-01,-4.152936908278781480e-01
1.519038311455983830e+03,2.581576564848353428e+02,2.320594156289258535e+03,-1.571737188102367566e-01,5.174651513114738588e-01,-8.411457895594283141e-01
1.058598070294558511e+02,8.903724950358016486e+02,2.667745945258212032e+03,9.776533187133451541e-01,8.763971739519213489e-02,1.910844534326991973e-01
1.005564298921365094e+03,2.507105101430292962e+03,7.621934732740572827e+02,-7.659367209411057642e-01,-4.046324454900540601e-01,-4.996133740911317123e-01
2.638450143589345771e+03,2.019528015673331311e+03,1.922265144190480214e+03,-2.976095877868651374e-01,-1.555641608704261269e-02,9.545609101444805233e-01
2.953952139120851825e+03,1.624324695089996112e+03,1.992031927949112742e+03,-2.516207346068951578e-01,9.099778884325129269e-01,3.295864810331146644e-01
3.773763334760641328e+02,5.888931580158118777e+02,2.236865142624854343e+03,-4.382533357039359312e-01,7.623414456334828282e-01,4.762032486384619734e-01
4.459626665930063041e+02,1.713668434622400696e+02,1.709936705892703458e+03,-9.367514793920207472e-01,-2.885889218100293196e-01,1.980229786297169892e-01
1.077665596745776156e+03,1.575309784138670693e+03,1.753124810174036384e+03,8.099957668899229191e-01,5.828725979005158209e-01,6.454759667957588043e-02
2.592404599998646972e+03,9.141731299169446174e+02,3.624055230435399153e+02,3.219826468075462911e-01,-6.092401236352990024e-01,-7.246748559924324207e-01
4.835950325086690782e+02,7.668916931719197692e+02,2.305451267508131878e+03,-7.438758071648358117e-01,-6.682647665501528778e-01,8.425277593878456942e-03
1.875859755960672146e+03,2.483169138934548300e+03,2.250485530113391178e+03,4.843209649772443892e-02,-3.838716968105588406e-02,-9.980885517992443834e-01
2.291059486265401574e+03,1.306535220835222617e+03,1.346024910737347454e+03,6.191609554426180662e-01,-6.526549269426215050e-01,4.366706511696268334e-01
1.476901197219664937e+03,4.961657012100684483e+02,8.403826320904928480e+02,-4.783379612375108780e-01,7.427601340212028891e-01,4.685084611273806487e-01
1.316429823249572792e+03,6.374790909056317787e+02,1.856431599228823870e+03,-1.589877829335291093e-01,7.244418158052934320e-01,6.707510271260197499e-01
1.378336481172274489e+03,2.768664864202161425e+03,2.439183083566145797e+03,2.849662032568825998e-01,4.524110706451470731e-01,-8.450553154433553260e-01
4.756420558820777273e+02,1.175589574102500364e+03,2.601437960476504685e+01,-3.707280879818409813e-01,3.516806552659478835e-01,8.595821086394492827e-01
1.716594222956058502e+03,2.129779369615726864e+03,7.538322703371736679e+02,5.293220167975073442e-01,-6.501001868766383973e-01,-5.451494745080280868e-01
2.171053811589621091e+03,1.817926384271539746e+03,1.113121842697624515e+03,-3.056015880199965951e-01,-1.675766877166554869e-01,-9.372970303663459291e-01
2.196342245603223546e+03,1.914144495798462060e+02,1.827085791835684631e+03,-2.327557831576350378e-01,5.459577305888257959e-01,8.048322196687798247e-01
2.994970139014107644e+03,4.947440216611454957e+02,1.359670038418430067e+03,-1.916134013270008596e-01,1.116183320695981612e-01,9.751028932260936699e-01
8.100401454545250317e+02,1.837642147108688278e+03,2.089415642978583037e+03,-4.302630539196095061e-01,-5.472158226618931698e-01,7.179335260734371893e-01
1.212120363340252425e+03,2.733706500199206403e+03,1.509811300801847892e+03,5.817406486502550989e-01,-6.293489957952785874e-01,5.152646496699098133e-01
1.344458680267989848e+03,9.139630596626635679e+02,2.460636853020195758e+03,-6.295996841011680667e-02,-5.483449063898102604e-01,-8.338788317340519729e-01
3.968109857313438624e+02,9.137062851184313104e+02,1.924565540126064889e+03,1.168769107013566677e-01,8.082684976364314933e-01,5.770977590265387036e-01
1.787145645863142363e+03,2.049519398795339384e+03,2.377945248019135761e+03,-1.642365262719325909e-03,-9.934236048674623953e-01,1.144851253590601914e-01
2.693198156300040864e+03,2.326232011142785723e+03,2.512892075996272069e+03,-1.627008842437697167e-01,8.700003128785339657e-01,-4.654330003959199491e-01
1.038259664673787256e+03,1.004203060568120236e+03,1.670442254790954166e+03,4.268875202551797865e-01,5.647852966987249035e-01,-7.062468503882456394e-01
2.798028841700464000e+03,8.270765098707144602e+01,1.540375463030492256e+03,1.302647932715492174e-02,-6.059045680739191253e-01,-7.954306790811482841e-01
8.555347669212316077e+02,2.611979831975682373e+03,2.594042180108086995e+03,-8.894605594973499507e-02,-7.640483590833100358e-01,6.389982035288424012e-01
2.561434879081203690e+03,1.266110444812193009e+03,2.848754239142672759e+03,1.395688314025760879e-01,-7.220325452567216695e-01,6.776352594803634055e-01
1.960638204895596800e+03,7.075729288504972736e+00,2.173149777675456789e+03,-7.626115567206359636e-01,-4.539910779203408242e-01,4.607772940639058845e-01
2.877245061195351809e+03,1.835574856059144849e+03,2.851258208505872972e+03,-7.088772625625612278e-01,2.000120925265086169e-01,-6.763787322683771919e-01
2.078541988803968252e+03,1.477090202412343615e+03,2.842614584329801801e+03,7.226015699026749894e-01,-1.667786463935644059e-01,-6.708441356092484931e-01
2.363251281865213059e+03,2.616426891932930175e+03,2.190706172549550047e+03,3.107348530442118340e-01,1.816426835972455300e-01,9.329789850790761729e-01
8.351524928226889415e+02,1.222082620912279026e+03,1.013620565402397347e+03,4.695571158637620868e-01,1.247247302364114796e-01,8.740479715720184117e-01
1.151738395621296831e+03,1.635865720834173231e+01,1.781126042625838181e+03,-6.464970467780473129e-01,-6.856796489651352244e-01,3.344921336927257904e-01
6.650638624036653255e+02,1.647899968354148996e+03,2.094016713275865698e+02,8.341081052539469631e-01,-4.378014707834037567e-01,-3.355496102360409072e-01
2.175560672012743908e+03,1.016546391823973636e+03,2.736051821755635274e+02,4.669581313793723654e-01,-8.152589635053406614e-01,-3.424951473566923976e-01
1.726973518724663336e+03,2.837741315916727217e+03,2.142070369982151078e+03,2.330929043876992790e-01,-9.454863510300811624e-01,2.274274784187899634e-01
2.610570276044888487e+03,1.782577362651863268e+03,2.461617433022910973e+03,7.077177948866480994e-01,4.767483724049210725e-01,-5.213890219500590950e-01
6.242214314456423381e+02,2.251780192283338238e+03,5.507765994988765215e+02,-4.562483817648601558e-01,4.613917529445248356e-01,-7.608909675188194610e-01
1.418571098405969622e+02,9.313179279137435742e+02,2.294985292361022857e+03,6.721681977678607423e-01,-5.469406203022736390e-01,-4.990449596708399493e-01
7.641121184573594292e+02,1.267428443336018745e+03,1.318257900633676911e+02,7.466159914635718264e-01,-3.088884410767572808e-01,-5.891964801830016363e-01
9.614108410622545762e+02,1.372291369567062020e+03,6.538683103590019527e+02,-1.077533665029534182e-01,2.242549684813092692e-01,-9.685550687073642973e-01
2.700652615625839417e+02,2.023455832272869202e+03,1.342323890390772704e+03,-4.168000189840754821e-01,-6.310556133662621470e-01,6.542526706203077858e-01
1.052545295748761191e+03,5.931164140139303527e+02,2.737162376336475972e+03,3.146398336831288667e-01,-8.005917654077474577e-01,5.099554884704735613e-01
1.066732840895173695e+03,5.257411609422237007e+02,6.802202357782437048e+02,3.811400056235526024e-01,-9.207589613289682839e-01,-8.327803579382564436e-02
6.603512637534611258e+02,8.840131519120222947e+02,1.963917962593811353e+03,4.126235153323856153e-01,-1.061968164776396634e-01,-9.046900412653822166e-01
1.301429173689743948e+03,2.628905576826333345e+03,1.983135504617087690e+03,4.145428182924731919e-01,8.691855911236137100e-01,-2.695749617179379332e-01
1.720436749942963388e+03,6.173225210613597937e+02,1.064475461557989775e+03,9.964369509203951925e-01,8.364792258540569569e-02,1.079017551349448385e-02
8.511815220852981838e+02,1.544368240734552501e+03,2.380244678500167993e+03,6.843989050917526074e-01,-6.720629525449522967e-01,-2.827181043473721567e-01
1.445814702380576364e+03,1.348026133151218801e+03,1.904464578978712098e+03,2.327601031425440559e-01,5.425648748658624676e-01,-8.071221041124219120e-01
1.204559805289875385e+03,4.667989752985571954e+02,9.269399670196736452e+02,-2.105794351366376826e-01,6.630447810702148059e-01,7.183508333628392251e-01
3.641777618683283890e+02,1.530644271548844245e+03,1.364874684500155581e+03,-1.892575535883559978e-01,-9.809389771222832843e-01,4.404885437828265360e-02
1.898658904750966940e+03,2.945662250370879974e+03,8.816429676214742983e+01,9.124717810962638120e-01,9.175295857527970833e-02,-3.987187521244706101e-01
2.206705672336757289e+03,2.696761497589502596e+03,2.946247474169483667e+03,3.183195259098516305e-01,3.622490159055466452e-01,-8.760412832167159269e-01
7.066482131312644697e+02,1.337795458554855259e+03,1.127721033161134756e+03,-7.542711639062136264e-01,4.477931025346010840e-01,-4.801628355277010041e-01
5.648617273176763547e+02,9.713971906699150622e+02,4.697755106155631921e+01,3.759074217278894903e-01,1.251144261206606732e-02,9.265727570426705029e-01
1.678992944524097311e+03,2.728720353034848358e+03,4.695249429071985787e+02,8.237460816292642152e-01,-8.917313712683189175e-02,-5.599022634490709027e-01
1.731530541849154133e+03,2.155290489540179351e+03,1.706569044370266056e+03,-8.811770472185471714e-01,-9.800259189405209626e-02,-4.625175709497426624e-01
2.315256247679337321e+03,2.471830715374009742e+03,2.583446378763610937e+03,8.630895134853313611e-01,4.462747982540372083e-01,-2.364641540592835878e-01
8.050810314736189639e+02,2.143624908393990154e+03,1.515995532770735508e+03,-8.316802168734063194e-01,-5.045211319225562097e-01,2.318759243754873189e-01
4.014439110334834027e+02,2.979537422789803713e+03,5.980644428402798667e+02,-2.712102717218616288e-01,3.415502127687665146e-01,-8.998824593635350588e-01
1.032980485474816987e+02,9.209109805160675251e+02,7.377930258687362084e+02,6.605205003695895083e-02,-1.437990696970308790e-01,-9.874000983594155567e-01
4.836414742142436296e+01,1.696919278050726689e+03,8.629124800632727101e+02,5.987787641927980742e-01,4.908519051925901988e-01,6.328731300351990718e-01
2.171081908497954373e+03,2.752914845338098530e+03,2.990867325172316669e+03,-1.629652507152783703e-01,4.245799168115984568e-01,8.906032906404302008e-01
4.077884880843426458e+02,1.885157880851792697e+03,1.470258816505186132e+03,8.645121598274549957e-01,-4.956818217831663875e-01,8.317606064361426910e-02
4.426694183389866453e+02,1.487416672611437434e+03,1.460147399439223591e+03,8.609004151927840409e-01,-4.088814276572157458e-01,-3.027646829435182152e-01
2.038735545070824401e+03,7.052740940789352635e+02,1.157089577829331574e+03,-2.995041548722938152e-01,-8.530003157078173137e-01,4.274198434988683015e-01
2.094217312790796313e+03,1.641869012629001872e+03,2.160335311950444066e+03,9.299572847909500783e-01,3.457398167439352799e-01,1.250736886084113930e-01
1.858919621243657730e+03,8.408556215549884882e+02,7.832500471929375863e+02,-8.341971228559948992e-01,-1.747887508048355798e-01,-5.230335102179070050e-01
2.246364073906142039e+03,2.298239597536875863e+03,1.234356820652468514e+03,9.243713649606497551e-01,-1.100085966634323092e-01,3.652885000940044868e-01
4.520584794422622110e+01,2.564702011093937926e+03,1.129678152094689949e+03,-3.249838894264672207e-01,-9.436708132939559679e-01,6.221629810885232620e-02
2.364919098828630695e+02,2.669473133955843878e+03,9.245092253068695527e+02,-4.015446904394023853e-01,-4.083047274688187955e-01,8.197860154372835773e-01
1.559125455126048109e+03,3.169451121328866634e+02,1.935109528542953967e+03,6.771130528898883227e-01,-3.445551600772005507e-01,6.502304631977111615e-01
2.040808487694900350e+03,7.488757013399564357e+02,2.364610819208174235e+03,6.514341458164345233e-02,4.155754078585339739e-01,9.072229141285272913e-01
1.758074002093110948e+03,1.841636376093636045e+03,1.773581286459737839e+03,7.575128192117945233e-03,7.783883560032902604e-01,-6.277373532548211621e-01
1.561444250029829163e+03,2.487080439892778031e+03,2.370899943635419277e+03,6.037551275341006551e-01,3.459694117293232174e-01,-7.181816706961741126e-01
1.891256529156758575e+02,8.011238559784424069e+02,1.363817314110263794e+02,5.227375689073506804e-01,7.854404636356043801e-01,-3.314041522623392133e-01
1.159781772296916870e+03,2.527354995269164192e+03,6.794780656117829949e+02,7.625900894703621091e-01,5.898746965423000699e-01,-2.655262657830945727e-01
8.235615111580493704e+02,1.054445120929371342e+03,2.649527215317453283e+03,5.138883060366714606e-01,4.525066787690719128e-01,7.288048535706552755e-01
1.861211658595146218e+03,1.658737052582466049e+03,2.292779051901072307e+03,2.890272736720325003e-02,-5.639482024416285766e-01,8.253042210685663793e-01
1.664135789708289167e+03,9.597018770919727331e+02,1.787764914394001153e+03,-9.472543326843656519e-01,-2.776939441156685007e-01,1.599853199896204281e-01
2.510696567706638405e+01,1.401116894939426913e+02,9.636140703486016719e+02,-6.373964331895658475e-01,-2.082381967862141983e-02,-7.702546043297707756e-01
3.156408372714423081e+02,1.328422043977428302e+03,1.705092908482153689e+03,8.533395118876776486e-01,-1.704790310883253987e-02,5.210768143478385905e-01
2.771638910016083173e+03,6.196875665115771881e+02,1.675956207451487671e+03,3.735561668947595670e-01,-8.545037349070166988e-01,3.609420413374613834e-01
2.614211416895162984e+03,2.782737007488369272e+03,2.641503936941823213e+03,-8.832207135096046269e-01,-1.838871743318471474e-01,-4.314008325720220527e-01
2.426635805436052578e+03,1.128709670321946533e+03,2.732836730614112639e+03,6.156343978164305897e-01,-6.746060526749888542e-01,-4.073094179115812619e-01
7.326891401161147996e+02,1.416480348722411918e+03,4.099395405255978631e+01,1.937353685745350773e-01,-4.369082769545729605e-01,8.783949934351147348e-01
5.546507747103734118e+02,1.710288321831521671e+03,8.043405881848531180e+01,3.718186153183167253e-01,8.912530480409455169e-01,-2.596515389141643149e-01
3.166588283926147369e+02,1.381620343112985836e+02,2.014187497292663238e+03,4.660317759863565334e-01,-8.583738108045124715e-01,2.144965843456287935e-01
7.226452302567093966e+02,2.975448996269903546e+03,1.497580737712869222e+03,4.382297274133125087e-01,-4.879354191054586787e-01,-7.548998163952844731e-01
1.071034237166190678e+03,1.085836511251872480e+03,6.180797114700684460e+02,-6.008016778980563855e-01,7.639120300585316992e-01,-2.355329152512088964e-01
2.789607350578093701e+03,2.600785785067681445e+03,1.650475235607604532e+02,2.726873204045956456e-01,-4.279480911083680672e-01,8.616855903444511355e-01
1.009326988460636699e+03,2.187830456058085474e+03,2.954852750974174342e+03,4.188576984821117122e-02,-1.699439251733368128e-01,9.845631744996874435e-01
2.663004992670726551e+03,2.093657988206961363e+03,2.265566029778965913e+03,1.485078405382814770e-01,8.286875367454081889e-03,9.888765084656934157e-01
4.996612880769344542e+02,8.424623491164379629e+02,1.148706829608969656e+03,-5.178886341724473485e-01,7.546700621063076042e-01,-4.028206300023113862e-01
2.990605022818175485e+02,2.869507403010445046e+02,1.739771483241109422e+02,-4.905316843721453379e-01,-9.317128682285949481e-02,-8.664281724059983425e-01
1.304325605905420161e+03,1.359411042393432581e+03,1.571197966227591678e+03,-1.558913009412610066e-02,9.521809709855599824e-01,-3.051366538387425553e-01
1.998444760552293701e+03,2.337755795581872007e+03,2.936239246874424225e+03,9.140796838944188485e-01,-3.991101047677972913e-01,7.189892741701542356e-02
7.076165629416641423e+02,2.372584708252712517e+03,1.933431054965773455e+03,-1.170406362459970040e-01,3.058152100046423322e-02,-9.926561640570366052e-01
2.625127494908649169e+03,1.496251258818939277e+03,1.435814629739046950e+03,-9.243997158256989088e-01,-3.186745312225836568e-01,2.095989230206913856e-01
2.355151802450267951e+03,1.308661604666106541e+03,2.360282471544368491e+03,-9.957167958263909435e-01,5.904839238808447244e-02,-7.114316457403457861e-02
2.702146757847900517e+03,2.060793456816408252e+03,7.363404479625927479e+02,-2.762828415665364856e-01,3.493078570597960564e-01,-8.953501060770658881e-01
5.322317599563488102e+02,1.584293392686235165e+03,4.411737472241647993e+02,6.603707397383559163e-01,6.354024586750595116e-01,4.002176927712042809e-01
2.680618242815776739e+03,2.386903644128068208e+03,7.100063266519414356e+02,-7.895046351550802921e-01,-5.633692884749579299e-01,-2.435107305066111227e-01
1.398164087465659122e+03,1.892878460375544364e+03,1.257652266769714061e+03,-9.112980077057694084e-01,-3.354976594863730982e-02,4.103783063909289819e-01
1.211026979082902244e+03,8.911664824246489616e+02,2.123131247879600778e+03,4.088034028968309808e-01,-9.091191200825168295e-01,-7.988869306955592720e-02
1.944270017443592451e+03,4.802563357826695665e+02,1.864082051623316971e+01,4.530663980952244763e-01,-8.722130351681224303e-01,1.843237917357152256e-01
2.122289710839091640e+03,3.623759382986630158e+02,2.806713272089269594e+03,5.439346792617663073e-01,5.773176413907035176e-01,6.089658493179026522e-01
2.427337418343351487e+02,1.282575041394736672e+03,2.679599888565666788e+03,-9.160982857271082747e-01,-3.907774145810209987e-01,-8.976047649843610365e-02
1.524804372948385435e+03,2.672377676591298496e+03,2.564158414727598938e+03,-6.377139603445188820e-01,5.572309498909113756e-01,-5.318031339371571686e-01
3.436544380573664057e+02,2.157999280819219166e+03,7.017552926429782474e+02,-3.257940450009334521e-01,-7.028000475225279486e-02,-9.428249896846991884e-01
2.790579034859957574e+03,7.800724811441542670e+02,1.577445801080546744e+03,6.711489880548033859e-01,5.713443818677407249e-01,4.723607023675686634e-01
2.016579108135255638e+03,2.345958947951797313e+02,2.934815839121657973e+03,-1.173752011329528971e-01,9.803351448395463130e-01,-1.586381604514650601e-01
5.077647397652197583e+02,2.861255493293156178e+03,3.751862696481791204e+02,6.616690711764569022e-01,6.233667583397913825e-01,4.166628431303001090e-01
6.645966887977084525e+01,2.835920822854885500e+03,3.466750321209894992e+02,-3.148236563725194392e-02,9.413496408185351161e-01,3.359608822239537052e-01
2.552496282011622043e+03,1.720143732392975608e+03,1.676477788382546663e+01,3.870658633410478111e-01,-8.088081591888474087e-01,-4.427294648717174930e-01
1.913892559987377354e+03,1.511429983297149420e+03,1.055794172204839469e+03,-7.405044852540160205e-01,-3.225411184470675097e-01,-5.895933634545080793e-01
2.528451259610179477e+03,1.041230566982417486e+03,9.636628148761307102e+02,-4.485955401989497049e-01,4.864930748066484956e-01,7.497243023130470974e-01
2.924024572048630262e+02,1.036573307822617380e+03,1.931313123859729330e+03,-9.487994972454254494e-01,-2.856750652119278144e-01,-1.347934387979945470e-01
3.699819184789887458e+02,4.704845719084331677e+02,1.571882948757704526e+03,-8.690968858308080192e-01,3.674307833907697329e-01,-3.311573983108888619e-01
2.412949229640391422e+03,5.035840707310838980e+02,2.259493484664955758e+03,-5.454160642966344730e-01,6.628709663062071211e-01,-5.129555524949942491e-01
2.504571930109304049e+03,1.216062116866251699e+03,9.270198920819041177e+02,6.779792125326081775e-01,4.615584424627517945e-01,5.721083739686244618e-01
1.702083759644700876e+03,6.848445815539450088e+00,2.194079807297056959e+03,-8.988010227461390445e-01,3.899423748033624681e-01,2.002540033138129616e-01
8.687465496413198025e+02,3.167708674728560823e+02,1.713690290103718326e+03,8.762282732599651069e-01,-3.750350767722687162e-01,3.026098219329283467e-01
8.743379539569012877e+02,2.530427668618350253e+03,1.635804021004919832e+03,-6.974105886641118746e-01,-2.378707394170179734e-01,-6.760443640386168962e-01
2.753683678034079094e+03,6.288124713162976605e+02,1.831107946383443732e+03,-3.642935453122287948e-01,-6.288111752608878113e-01,-6.869401128998569028e-01
8.592748331899530285e+02,2.427214654069388871e+03,2.753146055777290258e+03,8.337929905134450204e-01,-2.351773617275000894e-01,4.994805877124144922e-01
8.398550433020750461e+02,1.553102506767560953e+03,1.824819152845180724e+03,-5.315077927587712470e-01,8.438022503424932319e-01,-7.414329742898884135e-02
1.065048658455610394e+03,2.089122427056069228e+03,1.527556663606418624e+03,-5.630657867927439941e-01,1.061540635690561146e-01,-8.195658817515800720e-01
1.713253261565553203e+03,2.190597446775335357e+03,7.496534072120032306e+02,-5.960478306030377871e-01,-7.919387461971096887e-01,-1.325141724690692691e-01
6.295838021194010992e+01,1.899339463533843855e+03,3.706940682946119523e+02,-8.282146438056787741e-01,4.798940490681378734e-01,2.894170096155726513e-01
6.485730980295379311e+01,5.119324159998079722e+02,2.554094862394461870e+03,1.931235268780178704e-01,8.523490914635130089e-01,4.860085695206612932e-01
1.581984615803065026e+03,1.748481643129364102e+03,1.530896046526211649e+03,9.447745880934325102e-01,2.160304547619935900e-01,-2.464382687575350506e-01
1.854716327372882915e+03,1.038210076415393587e+03,2.556953043485452781e+03,-2.296952677600374026e-01,-2.657025138678194981e-02,9.728998436169511432e-01
2.875630142800960130e+03,1.452816490382341499e+02,1.138857312079155690e+03,-9.537483449742762964e-01,2.899479269946781401e-01,-7.933658733722848133e-02
2.207927649731297606e+03,2.692334288208074213e+03,1.291313653436044206e+03,2.297427579027144784e-01,-3.461735362991579801e-01,-9.096054902854260327e-01
2.538597328488526273e+03,1.933214426147015104e+02,2.549098348514365171e+03,-7.036716479702624927e-01,-7.079952520935253180e-01,5.990771950125073353e-02
1.203775384303241651e+02,2.220990369573981980e+02,2.943872853326014592e+03,4.259220930703922492e-01,-7.411066511625478137e-01,5.189906571771496502e-01
2.292902196344291951e+03,1.165359917575018017e+03,2.699136658793953757e+03,7.634064269363032285e-01,6.303619799861838180e-01,1.409056475101144734e-01
2.108082953685393477e+03,8.160693016841117924e+02,2.942018812263633208e+03,-1.220010949257716859e-01,-7.031269255657889294e-01,-7.005199921353526538e-01
1.059984380192845038e+03,2.471221579096239111e+03,8.772959218818144791e+02,1.058505734646082441e-01,-7.457486921661131696e-01,6.577648092059542595e-01
8.078849000196728412e+02,8.587237133194651051e+02,7.484989125065455084e+01,4.437658262951478805e-01,-8.618207838218873151e-01,2.456355592849139846e-01
2.257032876980897981e+03,6.277995112676661620e+02,1.859456008289211468e+03,8.855042952575808979e-01,4.528196714934936140e-01,1.040984543060059497e-01
2.553080268730597709e+03,3.105194956124095711e+02,2.796484475128936538e+02,3.171153532267614872e-01,1.723693126386716679e-01,-9.325913750450076645e-01
1.495658456824197401e+03,9.576581357701996922e+01,2.460696322711614812e+03,-7.659540612517060643e-01,6.051357055520308892e-01,-2.170832879750621558e-01
1.448018379641771844e+03,6.796060216575084212e+01,1.178725633132656640e+03,7.184248779980572097e-01,-6.304807296481749201e-01,2.938702846763887599e-01
4.672625973191263142e+02,5.660240504634321042e+02,4.908246580646426764e+02,3.744389542928859838e-01,-2.796110222093877579e-02,9.268298906868726039e-01
9.225929087598539127e+02,2.321101637535410646e+03,9.289740899322113137e+02,1.305027361139267927e-01,-7.847232446668748196e-01,6.059525271391075218e-01
1.338354204311883450e+03,2.549378125899896986e+03,2.972531105238470900e+03,7.480238815975578381e-01,4.260410645468387658e-01,-5.088705963990443060e-01
1.072309266880573375e+02,2.047853389029438631e+03,1.509383862540213158e+03,1.248422984613243615e-02,-4.507386394295775367e-01,8.925686656668618824e-01
1.882469848743194916e+03,2.471877803748830956e+03,5.309555760813444891e+01,6.926331010402179134e-01,-6.409880735232710292e-01,3.307471495634346503e-01
2.632314108727336134e+03,3.479073718345980524e+02,2.310267036400830875e+03,9.880333300353627557e-01,-1.396886401690921597e-01,6.540047818588035078e-02
1.918076390137107182e+03,5.047502862634260055e+02,6.589416158323165291e+02,-6.115646110224768339e-01,5.540384649607745793e-01,5.648275010025938236e-01
1.405665375702903020e+03,7.750239389097720277e+02,2.072615699644082724e+03,9.948888726893591050e-01,-2.025753710462891918e-02,9.892301647923451569e-02
1.875750565966208114e+03,1.126685717581403651e+03,1.881516925141423599e+03,-9.249963570201336083e-01,3.629370743093849883e-01,1.125096422144591379e-01
1.841999510747729573e+03,9.344085511326393316e+02,6.620458862460504861e+02,5.223479793903914592e-01,-7.637262211763286013e-01,3.793083804960033500e-01
2.552858809594803461e+03,6.075847485081635568e+02,7.539658949335125726e+01,-5.152510847016651407e-01,5.890535010955770812e-01,-6.225209173680836816e-01
1.399675157766968141e+03,1.885490355021855066e+03,2.717101909370966041e+03,-2.018968562210844420e-01,-8.895715716683765262e-01,4.097561205491593306e-01
8.827557118369697946e+02,6.005654289480696661e+02,2.118543255592532205e+03,-3.594219563889596292e-01,8.265051136257884901e-01,4.332495290429701496e-01
3.148197476792851148e+02,2.589403533102952679e+03,2.001482980976813224e+03,1.037897258602695494e-01,-2.966129892962059422e-01,-9.493410490369722510e-01
2.944906924978975439e+03,1.201961485506309941e+02,7.875005846334001944e+02,1.104125104875385566e-01,2.598440306712667680e-01,-9.593175476620601216e-01
2.341207410045866766e+02,6.165528654943261699e+02,4.783047738478243218e+02,1.281443854493842516e-01,-7.663011926678977570e-01,-6.295724728683402827e-01
1.394103751761183958e+03,2.682536412431873032e+03,7.209866305097735903e+02,1.237002406583860015e-01,-9.543080862285338029e-01,-2.720189828300421664e-01
2.196991105161961514e+03,2.715284768710362641e+03,1.351215989479669133e+03,-7.063327343956278537e-02,-5.561002956444303091e-01,8.281083273747398277e-01
5.520812045926938936e+02,6.471245822846805140e+02,3.133218924819148015e+02,8.720635745410825201e-01,-4.567149439880873185e-01,1.758311175434770224e-01
1.222791089509822541e+03,9.013227202657797079e+02,2.968981773219018123e+02,5.027132032495451597e-01,-3.491392537882050950e-01,7.908104809262437307e-01
1.227941451987187293e+03,2.394424280597654615e+03,2.708931443123768986e+03,3.599402458678751526e-01,-9.292953639040067992e-01,-8.278373047340448210e-02
1.920983570985488996e+03,2.976916030125061639e+02,2.344549891390594894e+03,-7.848062248730229562e-02,4.586916044183299013e-01,-8.851230445142324044e-01
2.194544348643622470e+03,1.213872935322759304e+03,2.475576391155703277e+03,-5.205284310429402206e-01,6.323486504308594158e-01,5.737467531709838919e-01
8.854331473898789682e+02,3.501460709302864984e+02,2.312020351347812266e+03,-7.620901426738921902e-01,-2.731468518698776937e-01,5.870344212674940554e-01
2.374737671939811662e+03,2.150563989884862622e+03,3.713349373618799518e+02,1.815551801641807195e-05,-9.842237684708809997e-01,-1.769281584354363279e-01
1.021877474760070413e+03,2.704861298210342284e+03,6.802156206352633490e+02,1.760214931626253587e-01,9.812424633539065244e-01,-7.861082658233088660e-02
5.140958005590447328e+02,3.038752262931618588e+02,9.248395197603665565e+02,8.677439307581731320e-01,4.164300271169924655e-02,4.952639003173038290e-01
2.359381564540604359e+03,2.872412641239322056e+03,2.683140825422267881e+03,2.171318237279419860e-01,7.446316249738754722e-01,-6.311715410356708578e-01
6.721611911930189081e+02,1.298824559271877661e+03,4.790781444461025558e+02,3.622652491545521602e-01,9.285345237002238239e-01,8.116358513390609097e-02
1.838773775883222925e+03,1.447460356531186108e+03,6.962206520582850544e+02,-6.352181526515296994e-01,7.696758714977384175e-01,-6.400743219482274426e-02
1.383843244266448892e+03,1.026584367600321229e+03,1.470840614286794562e+03,8.772257598245878363e-01,1.186895074756879817e-02,-4.799313433276954921e-01
2.988956981760917188e+03,7.905628054214014355e+02,2.461822011469358586e+03,9.799019016776401303e-01,-5.578610045659731370e-02,-1.915206883978619601e-01
2.309805785176908557e+03,7.503641570865250969e+02,1.067744029733027446e+03,-1.643923111095068612e-01,8.397818086252916148e-01,5.174376116500511991e-01
2.283113406005236811e+03,2.107106202625596779e+03,1.829720998405772434e+03,-7.175631291050882377e-02,5.178769697466318878e-01,-8.524403062757739402e-01
1.166348233321039288e+03,2.362797459041067668e+03,6.550040453574728190e+02,-9.846725961104074720e-01,-1.682127903568315930e-01,-4.609051561394128527e-02
2.257875207105896607e+03,8.273795093131242595e+01,2.447023106882170396e+03,-9.011187972199834473e-01,-1.521804127457206113e-01,4.059877279836826003e-01
1.868690400116627188e+02,1.232396076264696916e+01,2.280554761225396760e+03,1.626304402464510690e-01,-3.354477184532175804e-01,9.279149573585805388e-01
2.584379502903617549e+02,2.089444803378673441e+03,1.042972392803952516e+03,1.768361250060771217e-01,-9.116205819672675847e-01,3.710483788220821921e-01
2.147489802123850041e+03,1.823820613016746165e+03,2.414988779650854212e+03,5.037983181462765137e-01,8.629142272018038851e-01,3.957639606756747225e-02
2.477421668256093199e+03,1.651865384310511445e+03,2.965018353656374757e+02,-8.181376587059551175e-01,-3.105927837971375616e-01,-4.839244714418591276e-01
2.446649327788675237e+03,2.299300728861623611e+03,5.240684147830955908e+02,9.481046595366714458e-01,-2.991072330950449443e-01,-1.078536864232224612e-01
1.437722924165193035e+03,2.675722859988068194e+03,2.971520881132700197e+03,1.913204637117550677e-01,-4.795242567307879122e-01,-8.564186869586070117e-01
2.385862635173165927e+03,2.769654732444502315e+03,2.409679491303995292e+03,-1.432296411338802311e-01,-8.516435064094378671e-01,5.041712089075471859e-01
1.071539944111204932e+03,2.581723073126905774e+02,1.083042548158159434e+03,-7.693455717810993022e-01,-1.216770313867734654e-01,-6.271380160807631388e-01
2.049206337999667085e+03,2.154805499943868199e+02,1.511417768351210498e+03,3.651451192002604373e-01,-4.915614494280345914e-01,7.905924255648022481e-01
5.940668641904356946e+02,8.416844523241364868e+02,2.021613443128535209e+03,-2.095498182411151614e-02,1.266291431756839947e-01,9.917287677764234921e-01
1.496090478182765082e+03,1.786379739006679074e+03,1.849195081533018538e+03,-5.260798740471669399e-01,-3.018251589185371730e-01,7.950732919462940584e-01
2.149062163381810024e+03,6.895550081040934174e+02,1.409288830981246065e+03,-9.517413145560976728e-01,-2.850402412388338691e-01,1.137564549444940593e-01
9.393270928591212510e+01,1.410352812626618515e+03,2.974684308556417818e+03,-8.310187247988089221e-02,6.440963598707797333e-01,-7.604169632455266559e-01
1.605596214304590148e+03,1.799572511521345632e+03,3.145551005627215204e+02,-7.496587459117043384e-01,-6.250929075962944337e-01,-2.174180800920226808e-01
1.287491746932940032e+03,2.105347675292511667e+03,1.091063220318369758e+03,-9.649820546010169295e-03,-9.828198824899567754e-01,-1.843148381055020046e-01
5.050950717220765682e+02,1.707193696423622669e+03,2.891192821431576249e+03,-2.772805230239991370e-01,-5.867038291117412374e-01,7.608509239379013245e-01
2.982886468777916889e+03,2.682915459784339419e+03,4.927321031123844932e+02,1.556832802372726809e-01,5.702540564064044748e-01,-8.065810730525506678e-01
9.917327017595156349e+02,9.906789322701148421e+02,1.206947875587971112e+03,-1.816847433191385863e-01,3.329652509223269830e-01,9.252701204098674470e-01
1.509322589583801800e+03,2.940850814446415825e+03,2.456312466526192111e+03,-3.787888237093846588e-01,4.391563565069374619e-01,-8.146537433611978907e-01
2.516519871796362168e+03,1.177195207789859523e+02,2.381689563241581254e+03,3.205881851529577276e-01,-3.713548564158228871e-01,8.713889981843450094e-01
2.970637269840625777e+03,1.902629734730403243e+03,1.728681830859987258e+03,2.954419884683279207e-01,-2.194961595129033827e-01,9.298039940809925685e-01
1.188337442791889771e+03,2.213091296278912068e+03,2.875885866643742247e+03,6.266793876111856898e-01,4.855323632607826401e-01,6.095336490872909074e-01
2.132721590772929630e+03,8.704808282305120883e+02,2.551855280020295595e+03,-8.559534647295504728e-01,-2.860752392829899460e-01,4.307024769915517304e-01
1.741605330245537289e+03,5.431542779599710684e+02,2.699190320543776579e+03,-4.386282270205933975e-01,7.004824342395020720e-01,5.629650413504132533e-01
1.124241681106062970e+03,2.699881113270866990e+03,1.782310903558874088e+03,-9.901760268088569128e-02,9.950451273682254794e-01,-8.983810999921628196e-03
2.725846998106489991e+03,2.964781972536932813e+02,2.139071802158673108e+03,-3.580753971572352978e-01,5.516770257306723158e-02,9.320614435451655133e-01
8.540067566118988225e+02,1.917963128232409531e+02,1.736982388875793959e+03,1.930527402420698091e-01,-8.869138096212977329e-01,4.196600216699992725e-01
7.504553762187345001e+02,4.835043456368604211e+02,2.043452521190197615e+02,-7.299990759070282831e-01,2.246722336742628182e-02,6.830787458624685282e-01
1.651543986762881104e+03,9.849081015660477760e+02,2.554368245216081959e+03,3.467401619827530923e-01,9.377442694386981525e-01,-2.017288286429441690e-02
1.446899961898835045e+03,2.783952351997211281e+03,2.770497526811941498e+03,-8.451894986883871086e-01,-8.613903625889481053e-02,-5.274796467535611821e-01
2.711981989303598311e+03,2.139235975259743441e+02,1.496490390262115625e+03,-3.147193382186735250e-02,4.160968985356847116e-01,9.087754884516285880e-01
2.972043393262164045e+03,9.256457103014259502e+00,1.639120798580162500e+03,3.756428727025034053e-01,7.286080836925712401e-01,-5.727326536575769733e-01
3.592335119553961249e+02,5.995556406554376281e+02,1.232704960878200382e+03,-3.702410819489971305e-01,-9.230102775176148855e-01,-1.047548033938852097e-01
6.271141832554200164e+02,1.787730822412137968e+03,2.216902600189927398e+03,9.373203259177662616e-01,-2.980924669127693605e-01,1.804757263214971097e-01
2.902660723997676087e+03,1.585984321827012991e+03,1.034455527243934796e+02,4.801546835861529861e-01,1.293433737844099651e-01,-8.675953961889999455e-01
1.020185270692070162e+03,1.226579415599044751e+03,1.161618636392411901e+02,9.167885914542403536e-02,6.353244121430680069e-01,7.667841144160842948e-01
2.108996525963614204e+03,2.943709224266442106e+03,1.672321630876046356e+03,5.292637455625491816e-01,6.358973230585640568e-01,5.617067581577184221e-01
2.313497818971188281e+03,1.375508915751073800e+03,9.369544976395418416e+02,1.323889443533267096e-01,-9.223835919329531619e-01,3.628797001016661472e-01
1.855699920227424627e+03,1.383432211199073663e+03,2.478911089701956826e+03,8.746907770813401317e-01,-1.271405827600521066e-01,4.677085809607042233e-01
1.014877247079961762e+03,1.084815257591494628e+03,7.754782407822385721e+02,6.016705601093873534e-01,7.986588630752737838e-01,1.168578319870561266e-02
1.821015501371568689e+03,1.800664313217583640e+03,1.718437295851004365e+03,-2.892521025173425131e-01,-1.024343210780291058e-01,-9.517564977737635878e-01
1.826930854958389716e+02,4.338920340368121060e+02,1.234938053275213861e+03,9.890423979655720288e-01,2.714168038459241483e-02,-1.451153479560720883e-01
9.954449166268052522e+02,3.942580851984569676e+02,2.962686255593674559e+03,-2.334617197462350580e-02,8.399276362982348587e-01,5.421960180936331586e-01
6.006006686080950203e+02,9.944144986610477872e+02,2.697941644615455971e+03,3.425864395777393767e-01,-7.022212728601245901e-01,6.241152260281384034e-01
1.532528500042357109e+03,3.230505521092257482e+02,2.591310259746745487e+03,4.830295768891605945e-01,-7.686884491901916361e-01,4.192856972660248260e-01
8.354950350449624921e+02,1.041622546102854812e+03,2.896668491014746451e+03,3.477881691899026850e-01,-6.556743998318343980e-01,6.701749553487501565e-01
1.303422802435845256e+02,2.361522302406766812e+03,2.839382846630051063e+03,-1.345722572562193771e-03,3.761167674249611403e-01,-9.265712958496801210e-01
1.842830478414044137e+03,6.508238741970918682e+02,2.453210770196094472e+03,6.281832525294054337e-01,-3.710252975323649616e-01,6.839049859685168986e-01
4.099056357822850316e+01,1.981181526778794250e+03,1.578968743393759723e+03,6.527310580230512027e-01,5.685599699419904285e-01,-5.006812623532770345e-01
2.347480295800814929e+03,2.413672967319686450e+03,5.222859092305385502e+02,-3.610078035514084627e-02,-9.431532399661949340e-01,3.303917365779887039e-01
4.928241714632686126e+02,1.416948185872399790e+03,1.802267873941879998e+03,7.021047957836632492e-01,-3.462728395888918231e-01,-6.222089490682580770e-01
6.309231573888399680e+02,2.993804412834106756e+02,2.934283582967558232e+03,-1.725742086338933889e-01,3.322405798700655000e-01,9.272725271472179731e-01
8.303366941635555349e+02,1.982533347890255072e+03,3.205022672327908708e+02,-8.682441300384065030e-01,-4.246629877542403286e-01,2.565413757768768566e-01
8.547803272044335472e+02,1.222486971217064820e+03,2.430561606183171079e+03,-2.338477085986399862e-01,-8.083371936515573175e-01,5.402834723945296735e-01
8.276225659898225331e+02,5.010176930759387801e+02,1.652361974162029355e+03,2.701882240469229979e-01,7.240912294404420191e-01,6.345787697629026169e-01
2.259775734238959558e+03,2.875550458582313695e+03,2.435220089262832516e+03,7.046212512688235785e-01,-7.094337082237692771e-01,1.458444020966354060e-02
1.379422444839424998e+03,1.251373518154588510e+03,2.831891429743845492e+03,3.964130611903162738e-01,-5.640220864215044205e-01,-7.243864789920195779e-01
1.888983268855919050e+03,2.975224711820908851e+03,1.451256224407717582e+03,4.271332273624853793e-01,8.508951512193291267e-01,-3.058343468519231223e-01
1.156597281061655380e+01,2.697914069435106740e+03,2.963793999664187595e+03,5.612351691857010438e-01,-5.764987228031521749e-01,5.938554600872437694e-01
1.556185732760468909e+03,2.623814389165435159e+02,1.669708743352510055e+03,6.588501280246851222e-01,6.522079039575843229e-01,-3.748884618351311926e-01
1.959721061075831869e+02,2.704481909053005438e+03,2.767278316338739387e+03,7.933397336638222663e-01,4.619271902995785717e-01,3.965291134988104815e-01
1.916740663681531487e+03,6.897062624363261421e+02,2.405181561971073734e+03,2.237587431519819925e-01,5.155003046768374952e-01,8.271586672103079518e-01
6.686851315662081561e+02,1.399776577582149173e+02,8.447263053236762289e+02,3.905630453431664928e-01,-1.760449780473819503e-01,9.035865610535431802e-01
9.385176130690681475e+02,2.317686257876737727e+03,2.582104279969386425e+03,-3.094514976761119085e-01,1.312289839102892819e-01,9.418167148484275497e-01
2.908434042538854101e+03,2.258461159666213916e+03,1.193854851000539384e+03,-5.530204628615872364e-01,6.736133537738536736e-01,-4.903197092447917904e-01
6.265194140316465621e+01,2.669893149471089146e+03,1.922889923834250567e+03,4.871270354951395265e-01,7.966374236258775277e-01,-3.578771668721565935e-01
7.790582454371289032e+02,1.366503186240526475e+03,2.936499173248333591e+03,9.238445444718834665e-01,-3.280940371220614771e-01,1.971435021868217508e-01
1.607840844563810379e+03,1.796039027834388207e+03,1.483275506247987778e+03,-5.756486273267092946e-01,-7.273227189183125718e-01,-3.736714069903512847e-01
1.768128559156468782e+03,8.392855084993516357e+02,2.208790988602730977e+03,-2.712036553016720086e-01,4.331814811434762658e-01,8.595361433618460278e-01
1.688693012509353821e+03,1.588156473513137826e+03,1.960356344214176261e+03,-1.793226841187206544e-02,3.909214130365180062e-01,9.202493589126463647e-01
2.072989184578505501e+03,1.507901102668506610e+03,5.076987248917520787e+02,7.332739250523351293e-02,7.774090789838350446e-01,-6.247065050260711683e-01
2.401499112956227691e+03,9.244650794060955832e+02,1.729821681162816503e+03,-1.482904243881675022e-01,-8.500777273899652320e-01,-5.053491935585623374e-01
4.119051027894132631e+02,1.079976103887673389e+03,2.372167175894253887e+03,1.008700708275759861e-01,-9.835015472066341857e-01,1.501663592599777886e-01
1.136427729841570681e+03,7.609022436875083031e+02,2.553605873005607805e+02,8.147575807648476109e-01,5.621895237615949226e-01,1.418203933111313042e-01
1.412374463825818793e+03,2.972350302788972840e+03,2.003662166318777963e+03,4.208649398305802092e-01,-7.399937456553257187e-01,-5.246731923897038907e-01
2.913982460243005335e+02,2.138124800309495186e+03,4.022692691925222448e+02,2.566725449768426093e-01,5.142775887664725598e-01,-8.183139778518107033e-01
1.198011511953860690e+03,2.446966134023130962e+03,2.585099940472066010e+03,2.972244765058656979e-01,-8.632352700755066000e-01,-4.080226452826870021e-01
1.665008409668534796e+03,1.889785135321786129e+03,1.570666417643492650e+03,3.384394760637484678e-01,2.193238490231250171e-01,-9.150714563854436268e-01
1.582698936351944894e+03,4.811387214979536679e+02,1.291641066607584889e+03,-7.309669658568981321e-01,3.492062106737334748e-01,-5.862954180725381548e-01
1.247963163403919680e+03,5.354834286668749428e+02,4.372836314772422384e+02,-4.798324922159327710e-01,-8.553314585616653698e-01,-1.953685629998360707e-01
1.567782398491389586e+03,1.186067877960252417e+03,2.111866760310964310e+03,4.725063179114864509e-01,-1.072724462015485491e-01,-8.747744862646973374e-01
2.619892292576685122e+03,1.891246357296362248e+03,2.830557382953480214e+02,-7.816936485976534454e-01,5.995307862766360157e-02,6.207742489062779701e-01
2.253587149145816056e+03,9.362182319058961184e+02,1.319168776260394452e+03,-6.115621227969875173e-01,-7.390127396334557064e-01,2.825808567817300609e-01
2.113179387041075188e+03,1.226118979909282416e+03,2.877790056238435682e+03,3.977393330792569626e-01,-2.682048490709630917e-01,8.774221229582086501e-01
8.384210433359733088e+02,1.952722405297073692e+03,6.020865193872215571e+01,-5.038740391778746552e-01,-7.793877847448741347e-01,-3.723783474277893024e-01
4.913214449148480867e+02,2.386045063853524425e+03,1.028000879516878058e+03,-5.346460913823379846e-01,4.261318112907673816e-01,7.297706738254412517e-01
1.746336266410096869e+03,5.150505254071219952e+02,8.708154254340923899e+02,5.554126102574667989e-01,4.652280525040101145e-01,6.892602494923911749e-01
2.117335215126012372e+03,1.011152580097771988e+03,3.610462195771131633e+02,7.866377343644712639e-01,5.835867775345118247e-01,2.015627643212298814e-01
2.116077165441200577e+03,3.180345116751889236e+02,2.447533565676494618e+03,-2.546658529162761364e-01,-3.726987874601567219e-01,-8.923233254735385422e-01
5.575468067270578558e+02,2.852204195935331427e+03,1.379510436861315156e+03,3.592685366455872220e-01,3.525891611675507908e-02,-9.325679210710660083e-01
1.517030216715447295e+03,1.449104953988058696e+03,6.044488425889014707e+02,4.326799429974325650e-01,-9.130026527234552658e-02,8.969126649172358690e-01
8.965525116547813695e+02,7.451388561513400646e+02,4.181625318229615687e+02,-9.317796836346683431e-01,-4.723089754479146279e-02,-3.599386940616289832e-01
1.068142618053726437e+03,2.721437148131637059e+03,4.453510982433285221e+02,-9.755719017469645093e-01,-3.054328583266874980e-02,2.175467127132815481e-01
2.915094470038820873e+03,2.047341153096338985e+03,2.612658357251293182e+03,2.896836954396184508e-02,-7.720223094614385440e-02,-9.965945259246122845e-01
2.010343817471609782e+03,1.370906653585490176e+03,2.847497701935364489e+02,9.166917105268185262e-01,2.756382891863226603e-01,-2.893092487043109617e-01
1.430830344937972995e+03,2.147891908264234189e+03,4.399498495752828262e+02,-9.269122292996834211e-02,-9.339636109530398134e-01,3.451381036734508800e-01
1.457518813542248381e+03,2.294907258248025300e+03,1.071643791232414060e+03,6.199402542392775661e-01,6.303280429133235607e-01,-4.672907440671163481e-01
2.880822777716688051e+03,2.201256362263481847e+01,1.522461516452054411e+03,2.565744009065764053e-01,-3.900195573075379563e-01,-8.843383525082826324e-01
1.540291923994662739e+03,1.729608081225201659e+03,2.391991498073026833e+03,-8.022713298441987995e-01,-1.980114169891948883e-01,-5.631626692634659204e-01
2.791119904186307394e+03,1.776345630048087514e+03,9.042630706407147727e+02,-3.643459940054219470e-01,9.199393721923991851e-01,1.447879419787971855e-01
1.912202074455124603e+03,2.087835076646782397e+02,1.957335067116352548e+03,7.134553912989328728e-01,-5.829201523939039342e-01,-3.888257971888627318e-01
1.980648519905888179e+03,1.852932675759690483e+03,1.074890613217913142e+03,-1.965244696865736662e-01,8.878855823048276141e-01,-4.159775541416006472e-01
1.729453114281308501e+02,7.413894305612307107e+02,1.123216824520449336e+03,8.828618510629616667e-01,-3.387199744004582569e-01,3.253055961397435247e-01
1.253713530693615439e+03,7.670008147321505021e+01,3.927709060327783277e+02,-7.141840375408907704e-01,6.969768236991651378e-01,6.453268743833917576e-02
2.222492020107847111e+03,1.987434338223000623e+03,1.159277609741576498e+03,2.248255343856229715e-01,8.351288064088564500e-01,-5.020093184337695025e-01
1.862619497970849807e+02,2.624168769804281965e+03,6.258902912625959516e+02,7.922340869559996168e-01,3.533536943440505063e-01,-4.975000685009047796e-01
1.044320216418700284e+03,1.652666584074778257e+03,2.804792815099011023e+03,5.234923814603587022e-01,6.972786854974619697e-01,-4.896510607605111254e-01
1.314626611288468212e+03,6.391414776530024255e+01,8.845318126369339780e+02,4.686442877748921987e-01,-7.867001189618623158e-01,4.018400855581181208e-01
1.114679973791399107e+03,2.104879171244331701e+03,2.869486900170638364e+03,5.801006196135322091e-01,-7.560074307859900866e-01,3.032095574357156487e-01
9.585473408460146629e+02,1.014033517454754588e+03,2.578238320534906961e+03,-5.535070397631861594e-01,8.056566503287382330e-01,-2.110623574057486351e-01
1.516995892789707625e+02,2.405501494218445714e+03,1.532345370893568486e+02,-1.202780568468293371e-01,-8.600574559261939811e-01,-4.958168629110086822e-01
8.670131227976229411e+02,1.756213308182526362e+03,6.551511661127524349e+02,-8.129626767408633103e-01,-5.802756758228045930e-01,-4.870139910431725561e-02
1.887494599528018398e+03,1.515124676065680205e+03,2.696418670373186160e+03,7.247153061166624610e-01,-6.814590385223506797e-01,-1.019867829496832329e-01
1.256179057676364295e+02,1.505833320039901992e+03,1.909499487640261577e+03,-9.809895309255000084e-01,1.839756224186623879e-01,-6.174553077132904910e-02
3.688072185756981867e+02,2.082907838815064679e+03,1.256479708327456819e+03,-6.482095663131149932e-01,4.850089535779355393e-02,7.599157988156686194e-01
1.293259728740283890e+03,2.812371915808923404e+03,2.841304438058402411e+03,-4.651072077109306702e-01,-8.439643714876666758e-01,-2.672067083640847773e-01
2.609062887757515000e+03,1.655596172152501595e+03,1.513130299097538227e+02,4.973941924118718272e-01,-4.333276046917899360e-01,-7.515492028916123113e-01
1.308465577058395297e+02,2.608466436931269072e+03,2.180148441574651770e+03,-9.853073500004302376e-01,-1.561346120244161140e-01,6.922000406757189417e-02
1.398492516458868067e+03,2.568206831361331297e+03,2.408949063088391540e+03,5.179240684233828995e-01,-5.143615563417504311e-02,-8.538787860354348780e-01
2.603339619504780785e+03,2.903235706775160907e+03,1.651159164879264551e+02,2.398181729826979192e-01,6.475636250196110666e-01,-7.232901184578020004e-01
2.806707545703492542e+03,9.085037140928537838e+02,1.130868865069035337e+03,-8.005115878489632575e-01,-4.140277301023822520e-01,-4.333154006330730557e-01
2.260795991537537247e+03,1.189084317318785224e+03,2.583445961997150334e+03,-9.764461494229148553e-02,-9.945416206088206756e-01,3.677627019631325017e-02
2.205983133583276867e+02,1.889558665047102011e+02,1.548756128931335752e+03,7.608968246211980091e-01,6.250382241919729687e-01,-1.742505109901344718e-01
9.545713245753922820e+02,4.409266699675850987e+02,7.741333143164874855e+02,3.821558244994202047e-01,-9.199902644235945504e-01,8.703355196114338777e-02
