x,y,z,nx,ny,nz
1.356472289866548635e+03,6.405161414460209244e+02,5.043483757625888586e+01,1.806226828698747899e-01,-2.710197895533118795e-02,9.831789914199720037e-01
2.629919193496990374e+03,2.965523714162098713e+03,7.527181929639243663e+02,-7.286235426291142181e-01,-1.018995513140912440e-01,6.772918237869007818e-01
2.653668573258849506e+02,1.362367995565283536e+03,2.973893966488103615e+03,4.238060945442206351e-01,-5.303669370123267335e-01,-7.342338226691398351e-01
2.568671110878852915e+02,2.149572159424269103e+03,3.312339084090088193e+01,6.761833658962823623e-01,-6.865582321626970685e-01,-2.672336983518484588e-01
2.921017830511496413e+03,1.372200814483302565e+03,8.450549515951913691e+02,-9.136161791052662684e-01,4.062163623664168388e-01,1.713896796455371963e-02
2.809587980498746219e+03,1.346046776844955502e+03,2.640856672481517762e+03,2.829624850207927422e-01,7.277166861500617978e-01,6.247884896263935506e-01
2.540911899753869875e+03,1.957976222504148609e+03,2.498724361603039597e+03,-9.837094910388322067e-01,1.597079925968175329e-01,-8.251663069234305148e-02
1.823618294527253056e+03,2.601524281003166834e+03,1.314243940576444857e+03,-4.815638012780457666e-01,-5.535338712951923812e-01,6.794825668312589606e-01
2.149732586674262166e+03,2.558625639635955849e+03,8.695381915919124367e+02,-6.342234265164043983e-01,-4.109549942527830901e-01,-6.548867367388699900e-01
1.286115867321328324e+03,2.441845622840351666e+02,5.254392603008734568e+02,7.828674845454820508e-01,3.930458417917159775e-01,4.823209179495233645e-01
1.327404524252412102e+03,2.731825288475070920e+03,1.658700976401891296e+02,2.911735959665855411e-01,-1.973142902539070653e-01,-9.361009602994136980e-01
4.211473573705609965e+02,2.329306423000081395e+03,9.400668627632290963e+02,-8.494333945381217221e-01,-4.510508050523880375e-01,2.738906342046698583e-01
2.573008281054694635e+03,1.274472149307410291e+03,2.248262617118683920e+03,-2.122440648726718060e-01,4.743943997938757651e-01,8.543432626120097684e-01
1.837917177184275488e+03,7.630445394413693521e+02,2.100325315740374663e+03,-5.634411059002020217e-01,3.649552940326245554e-01,-7.411759261737511650e-01
4.549171170903729831e+02,9.118244563653556725e+02,2.198533820481129624e+03,6.507245146822513426e-01,-2.097809634756890307e-01,-7.297599285756652954e-01
8.022890081253697190e+02,7.014101078841683830e+02,1.004346410015832362e+03,6.779127279616257162e-01,6.037909238245002808e-01,-4.193695906653025496e-01
2.608095713632054412e+03,1.913953579189917491e+03,7.732333742384655579e+02,-1.691501871327769080e-01,-5.837753847490949610e-01,7.940998138483554847e-01
2.945983943532419744e+03,7.853529275374515919e+02,1.299115381665209952e+03,8.523010627677561901e-01,-5.225962573267678435e-01,2.181857541197063100e-02
2.245047537837968775e+03,3.556711559515054546e+02,2.602390907657331354e+03,2.541199446599399225e-01,-2.150646538374266781e-01,9.429582431877971960e-01
2.814093645850734447e+03,9.431399812760625991e+02,1.607916121091323873e+02,4.454970276711426314e-01,-7.176034580014385711e-02,-8.924028524757308123e-01
2.755779837742989912e+03,1.094410670945629107e+02,2.273601773672010495e+03,-2.417009994694109820e-01,6.437085760962101277e-01,-7.260990951073258426e-01
2.494218258321622670e+03,2.620980824028028564e+03,2.144098852953763071e+03,4.192743231030242601e-01,-8.369944175566917943e-01,-3.516381477676094325e-01
1.756229141559217851e+03,8.849977015603704444e+01,2.635423690341466227e+03,4.489638705192618151e-02,9.611351211413341478e-01,2.724033651376514542e-01
1.486547630645018899e+03,2.372309301020647581e+03,1.461977986174777698e+03,9.458422804441569687e-01,4.260394429115913623e-02,3.218187136495214151e-01
2.055642596131380742e+03,2.987011322452288368e+03,1.649103380365907014e+03,-4.301750907526865064e-01,-7.179950478072296693e-01,-5.472042604185496373e-01
2.332902339776549070e+03,3.940099063317761079e+02,1.047382647197514871e+03,8.823623584707153134e-01,-3.851247748133054261e-01,-2.703989204471750618e-01
1.539031898337887014e+03,1.093507463401019777e+03,2.945511299796033654e+03,4.690447697506898717e-01,6.332871339086719731e-01,-6.155846083157554549e-01
1.994277062009352051e+02,2.226049761659704927e+03,2.183967053148242599e+02,7.554249814953079012e-01,-2.223835471680911113e-01,6.163429688750825530e-01
2.537701882377179118e+03,1.924663645793691785e+03,8.868852124512707178e+02,7.851128141844642139e-01,-1.784714120703210227e-01,5.930816335690869412e-01
9.814953520054658611e+02,1.475203054317428723e+03,1.168636267224149066e+02,-5.914619750181735608e-02,9.144572437575851920e-01,4.003369539030297020e-01
1.057109142300879739e+03,2.878365834839967761e+02,3.154021091685253850e+02,-8.972369594329920872e-01,1.295932002430550192e-02,4.413591447471627571e-01
1.785571293710442433e+03,1.238588095797507776e+03,3.796654702120732168e+02,1.940694354632925001e-01,7.985294420937408821e-01,-5.698138154945157074e-01
2.544228307844590745e+03,2.932907782564568151e+03,1.843734303271568024e+03,-9.516309061984842277e-01,-2.558351789208201388e-01,1.701381191691144767e-01
2.527332167751786528e+03,7.742522469698448049e+02,4.277591692182512020e+02,-2.003254447967353913e-01,-4.103551437168477811e-01,8.896507023501500910e-01
2.376334636779391531e+03,1.681287642901653498e+03,3.427224959145114269e+01,6.445860256040677472e-01,6.761844390356218648e-01,-3.567680759289337811e-01
1.759909146498891232e+03,5.922783364221830880e+02,1.558232282666199580e+03,7.614064769313223513e-01,3.619109250658515409e-01,5.378481748644419191e-01
9.766429466023751047e+02,1.932591853998836086e+03,2.211787541578910805e+03,7.866069115661029620e-01,-5.774797824505876198e-01,-2.185558682288331056e-01
3.154568327751359220e+02,1.743513390348104792e+02,1.195281135833013195e+03,-1.681160559800292387e-01,-1.973753001577543964e-01,-9.658053544112064071e-01
2.387958597056813687e+03,1.773153157349936691e+03,1.276163119104929365e+03,-2.346996941631634692e-01,9.295113260659555454e-01,-2.844727548902117875e-01
3.191205214685749638e+02,1.580453712539957678e+03,6.087855173299290072e+02,7.961826427518716720e-01,4.088418886971729171e-01,-4.460285970957176271e-01
1.573505352998947274e+03,2.667620929287385934e+03,1.072512222046559373e+03,-9.665604509610563611e-01,5.172839941108416800e-02,2.511674089772131246e-01
2.822769622850270025e+03,1.424859836560036229e+03,7.955523638595757348e+02,6.473900352128981739e-01,3.918892222664175917e-01,6.536887483951860922e-01
2.750677692491890866e+03,5.436811173853694754e+02,1.240273720926470787e+03,4.762571148945866639e-01,-4.957900628735283366e-01,7.262033971747496874e-01
1.735696596961086470e+03,2.775437434611982553e+03,2.032493584020754042e+03,-8.015447165077596026e-01,-5.976101456409828039e-01,1.970231624603702505e-02
1.700405795211935640e+02,1.771623970183477923e+03,1.894796385613626398e+03,-3.255058707028803955e-01,9.227394640067534404e-01,2.063923683242410156e-01
1.511345603989694609e+03,8.295958640611398778e+02,2.842253321919391055e+03,5.815707552498193822e-01,-4.188534191549835028e-02,-8.124168109848395325e-01
7.581147071905971870e+02,6.432492881101496778e+02,3.677890343581429420e+02,-4.526902768093910012e-01,8.139546957583839726e-01,-3.640731609650917910e-01
1.970132439275738534e+03,7.475297590947560522e+00,2.008095025191581726e+03,3.342765179462671710e-01,-2.329214999151323351e-01,9.132397190371233098e-01
1.238089432010618339e+03,1.507963266166681933e+03,2.279496134292226088e+03,-4.460304417811102318e-01,-8.294532228647053529e-01,-3.362501986377124386e-01
8.292588208585672191e+02,6.646024781285211702e+02,2.634154530055022860e+03,3.260448377072521220e-01,-9.082224057160095398e-01,-2.623486717326313777e-01
8.111631122282774413e+02,1.762679957292310178e+02,2.220539522664323613e+03,-7.565210018093216915e-01,1.634987105210449626e-02,-6.537649849433662119e-01
1.494061885466870763e+03,2.427358511321775438e+02,8.052876757918845669e+02,-6.375266874958320784e-01,4.253507588992163080e-01,6.423678499383764784e-01
4.682108427512532671e+02,2.519157736135321557e+03,2.523402866497562172e+03,-2.325164268322693351e-01,9.650869337838809958e-01,1.205956943376540469e-01
9.998137467312437821e+02,1.157425954433483184e+03,1.987604640351520629e+03,3.121259892885918652e-01,-8.701374631506986201e-01,-3.813635562455914840e-01
2.741245588802472412e+03,9.372053603198337441e+02,2.189471628932069507e+03,9.634520375036119688e-01,2.677866113831161021e-01,7.106489575506858003e-03
1.919484340995803677e+03,2.905725626196069243e+03,2.455004560894218230e+03,-9.539926229928918922e-02,4.945761685915250894e-02,9.942096986488135890e-01
9.186320410127664218e+02,7.562305082924585804e+02,4.522582463749746751e+01,-7.965700439684620937e-01,1.720509512200525948e-01,-5.795469223767456546e-01
2.803575181726256687e+03,5.661750664408432385e+02,2.693710122378464348e+03,1.775700746721358136e-01,-3.576041553191874334e-01,9.168359377115311570e-01
1.603793430386037016e+03,1.220339500304727153e+03,1.098636456644944246e+03,6.050439101127082220e-02,-9.032929873248968233e-01,4.247363861479482861e-01
7.759304236470464957e+02,1.004545002931067614e+02,1.599012512903617107e+03,5.527792042180093013e-01,1.332855797285265320e-01,-8.225996022491957049e-01
2.259775100153997869e+02,1.334673383148495759e+03,1.818822782345149335e+03,7.480956077336670118e-01,-4.204358860063846515e-01,-5.134068829375213472e-01
3.586173053102795620e+02,9.766818828568676736e+02,9.179095860898673891e+02,-6.307140063323434243e-01,-6.871641663715228887e-01,-3.605624088436489849e-01
2.465640695152630542e+03,2.928572457859215319e+03,1.571496132431165051e+02,7.232364375607140683e-02,-7.437246909844329457e-01,6.645621675764840086e-01
1.835747654912587677e+03,2.407517715703981764e+02,1.378750961065692081e+03,7.859948381624224378e-01,-2.363391290294670766e-01,5.712757044296741249e-01
8.730619391199874144e+02,2.061744870019324026e+03,2.826345897151189092e+03,-6.331408370008282382e-01,-7.686118981717743326e-01,9.147912609263730843e-02
2.390847436862919650e+01,1.766307280343177581e+03,2.986209242270253981e+03,-7.133586345084276525e-02,9.966005370580341971e-01,4.121363999164296549e-02
2.502554982570551147e+03,2.007051070574266760e+03,1.365733125921407009e+03,6.984135099549548809e-02,9.055038266694371840e-01,4.185510788161104223e-01
9.842787624532992368e+02,2.829088078530340226e+03,1.934186443921555792e+03,-3.840310081767361883e-01,4.377751779632739759e-01,-8.129410054351936532e-01
2.229593663581414603e+03,1.886871140654304781e+02,2.928860486943781325e+03,1.114895167747729648e-01,9.434995621211120786e-01,-3.120555462198959518e-01
2.420871072997572355e+03,1.146852333321098513e+03,2.579875696309946306e+03,2.185655303986007436e-01,8.708261519112920901e-01,4.403304691580514074e-01
6.327370456780970471e+02,2.477322420805133788e+03,6.879885422384895719e+02,1.798536223884281485e-02,-8.954324483415673219e-01,-4.448339658818379339e-01
5.503104665351206677e+02,2.770065252139915174e+03,1.830011413568013268e+03,1.548045756594494671e-01,9.776547888066682290e-01,1.422204530940849587e-01
2.021563707632334399e+03,1.223185759600892652e+03,1.650846235995009238e+03,-4.123135949235152142e-01,5.620589715574130230e-01,-7.169987530903179085e-01
2.204305808581089423e+03,2.073924879433849128e+03,3.182824659481930780e+02,-5.279529827317944735e-01,-8.421208036706178124e-01,1.099918181036858567e-01
1.102694972647881968e+03,2.422685031089938548e+03,6.289721064202113965e-01,5.579907825897921780e-01,8.166349703085188372e-01,1.474910567256062788e-01
1.492579018611740594e+03,8.744875451356997473e+02,8.059181664305253889e+02,-1.702452289751991144e-01,9.651641313136127831e-01,1.986825650046359915e-01
1.047145230022542592e+03,1.644110562498189211e+03,2.812986821158233397e+03,-2.258737446955189077e-01,5.396345131057443956e-01,-8.110336884016284831e-01
8.509149677116259909e+02,2.597931543530869931e+03,8.217979680198975529e+02,5.785458004686596656e-01,4.726893361898949486e-01,-6.647176454799694767e-01
1.616641083437600912e+02,1.561956399407053141e+03,1.370047815867581065e+01,-4.611820033582368916e-01,8.827810673228806415e-01,8.949160270527589667e-02
2.525581612086398309e+03,2.512401865126212215e+03,7.381392564128617551e+02,5.257643714958258885e-01,7.558079617355597524e-01,-3.902898290280414351e-01
3.446460963960852268e+02,1.525919568612494857e+02,2.888565739917614337e+03,-4.995453800973361641e-02,5.179078301192373557e-01,-8.539765943124069114e-01
2.769517812820755353e+03,1.557823171956997385e+03,2.767750983827373148e+03,-8.391375986307064716e-01,-4.515245816226105546e-01,3.032715660176832917e-01
7.891501454083366980e+02,2.382857265780610305e+03,6.907553121512723919e+02,-4.656740119555083934e-01,-2.043093144950294260e-01,-8.610490221815667589e-01
8.185011110070352061e+02,2.683595447857251656e+03,2.135695507924975118e+03,4.964502858634291527e-01,-3.447334551263597779e-01,-7.966780771320129961e-01
2.813418330649713425e+03,1.598974503779949146e+03,1.126975995089453136e+03,6.695441632197918214e-01,-2.954297451322290824e-01,6.814923911456494121e-01
2.828108746911225808e+03,2.582833205856425138e+02,4.778291703680370972e+01,2.632718531241762805e-01,8.966534460213810842e-01,3.559501778206388689e-01
1.064454943579683004e+03,1.806842339325905186e+03,8.080719186308485860e+02,1.126213217054373300e-01,7.783973070783277715e-01,-6.175872976596329389e-01
2.327389269399162458e+03,1.360832805635157001e+02,1.853448975685193091e+03,6.332588826136439919e-02,-3.361213282451547962e-02,9.974267173095456851e-01
1.780751956730876373e+03,2.695656083941111319e+03,2.197959025344597194e+03,-4.241519539573924136e-01,8.821392529761372669e-01,2.047570714598854202e-01
1.679599783441597992e+03,2.080746912794662421e+03,1.876120106631541830e+03,9.154522881007487456e-01,-8.649089371851326202e-02,-3.930221794185113637e-01
8.800538750077216719e+02,2.449371239810247516e+03,2.040635927519062761e+03,-3.548162909710916857e-01,7.020035544295042396e-01,6.174920317136567416e-01
3.945395568216690663e+02,1.975002245312951032e+01,3.623255400243374424e+01,4.071926275711499343e-01,-4.286904326501687623e-01,8.064853854881153250e-01
2.826602917686967658e+02,6.015769340432198078e+02,2.336065983094214971e+03,-7.736509769912217060e-02,-1.283957628769140658e-01,-9.887007483223932969e-01
2.038401487725627021e+03,7.825442477698325092e+02,2.424185548126403319e+03,-3.200700713001722320e-01,9.333367651038009249e-01,1.625965324460372508e-01
2.767551095995719379e+02,1.594121987228935780e+02,1.257296600301993294e+03,-2.885085481695464638e-01,-9.152767409055103665e-01,2.811250703699119668e-01
6.061079029293987332e+02,9.969621752906198253e+02,9.917197630039806882e+02,2.518217269112274503e-01,5.312997461553687906e-01,-8.088920803115133840e-01
7.221081619878167146e+01,2.643413976455732154e+03,6.215956577531387666e+02,8.107499053833608915e-01,-5.316979195742435049e-01,-2.449120520539824764e-01
2.786489777652078374e+03,2.403830966366935627e+03,1.908823806064802966e+03,6.079407841645645405e-01,-1.445085983553874298e-01,7.807209923850746414e-01
1.211271518057721778e+03,2.411394709884506028e+03,1.020686261661033086e+03,-4.326340116506427469e-01,6.277503222249140868e-02,-8.993815137596150588e-01
3.319635701954500746e+02,4.229283413572550785e+02,2.596962699442648045e+03,-4.034679712906791282e-01,7.771822224993788497e-01,4.829092970460496237e-01
3.607085737468150910e+02,2.004404370726454090e+03,2.163400233679291432e+03,3.126593996707114353e-01,4.153732581165914262e-01,8.542301541383081620e-01
8.570946937576094342e+02,2.233696264390122906e+03,2.249691004690816953e+03,8.695746025810392466e-01,2.341134472332703498e-01,4.347768443357840629e-01
8.009543701668903850e+02,1.189583914103150619e+03,1.043205663244389854e+02,1.321248771183881621e-01,9.906348294999755000e-01,-3.443328953215663013e-02
1.366980062016481838e+02,2.948022490491652206e+03,1.336992376381410850e+03,8.157950562349650658e-01,-5.075391206604441541e-01,2.772768782675780752e-01
8.928935308575202043e+02,2.927557295560530747e+03,1.817432988390201899e+03,3.791459819907466722e-01,-8.187317683370363142e-01,4.311920869589120908e-01
1.474276969715503355e+03,2.670749122135340258e+03,5.512789986617311797e+02,-8.869996500718124732e-01,4.486827105944026228e-01,-1.091578947494946661e-01
9.285470141024757140e+02,7.307848755113516290e+02,8.475722309935292742e+02,3.150346668365463509e-01,-9.467015986723782417e-01,6.715088802353720576e-02
1.696379093606213473e+03,2.802385815783985890e+03,1.353646488287019338e+03,-4.784004277355503043e-01,4.537754255937858083e-01,7.518117409761708725e-01
2.328581523653674310e+02,1.904300471591299356e+03,1.951376252611286418e+03,9.052487382756472245e-01,-1.298286791394283601e-01,4.045605466716449272e-01
3.436545657871681101e+02,2.928037663810643153e+03,1.568333997209242625e+03,-7.528036079650183288e-01,-6.269935273788249108e-02,6.552522560061138091e-01
2.587966670421561048e+03,2.979138574119163877e+03,1.840912680516511273e+03,8.504289053876683546e-01,-8.749313800471311686e-02,-5.187635566259647391e-01
1.044226965176747797e+02,1.633163513097147870e+03,1.676646291118228191e+03,-1.514026734399216978e-01,8.887553476884828552e-01,-4.326559400151215318e-01
1.529297381605462988e+03,3.382046961249639594e+02,2.940540963964017919e+03,-7.778176433921404342e-01,5.943544508784383007e-01,-2.043098146171327123e-01
9.863176269746932121e+02,9.413812380857220887e+02,1.640133558170230799e+03,-6.178763900923984753e-01,-6.696849323673931265e-01,-4.120083226422328604e-01
2.622852960092391186e+03,2.320676548570784234e+03,8.609381387146352154e+02,-1.754941199299133933e-02,-8.915394503226964362e-01,-4.526029459217038031e-01
2.566718416845184265e+02,1.544004886774730267e+03,2.437241076786736812e+03,1.222815398131200590e-02,-7.017179344294811605e-01,7.123499229663970977e-01
7.543427331898892589e+02,8.804797405301665094e+02,7.747233540894799262e+02,6.990091494741664802e-01,-3.302146518817117848e-01,-6.343063082092454952e-01
2.489317524457349009e+03,2.860201864031864716e+02,2.640074272392565035e+03,-7.336880256479466622e-01,-4.244453164793634548e-01,5.306110198059884597e-01
1.378161797945522949e+03,9.022039515532121641e+02,2.185162047218515454e+03,-7.627256481342198358e-01,-3.648121375642595088e-01,-5.340053276550995598e-01
2.752717087543381240e+03,3.680582478699804483e+02,1.140678296168670158e+03,7.089734059071755023e-01,-3.277933859805972072e-01,-6.244263013548954078e-01
2.869535452905786315e+03,8.042333239177163478e+02,1.220875799817138159e+03,-6.825781355258258021e-01,6.569788418844154654e-01,3.201029369098313815e-01
7.453373769531693824e+02,1.475875226944002861e+03,1.700669741010907956e+03,7.215847884676696022e-01,6.568459860542538165e-01,-2.187892676903593625e-01
1.581143636486488504e+03,1.682888418190442437e+01,1.727762917491104666e+00,-8.150392194034370430e-01,-6.671430405286160603e-02,5.755521457426584497e-01
1.038451885497628155e+03,2.734991328410193546e+03,2.737961507038237414e+03,-8.179893403192725065e-01,5.454218365038685512e-01,1.827798112177294598e-01
8.793089459245076114e+02,2.253974154421255207e+03,1.939764981299218107e+03,-7.066462344791933914e-01,6.625347313293774576e-01,2.483924899804473008e-01
1.557491380508447719e+03,1.038410870315123020e+03,3.299866267368873878e+02,-6.749094845593274217e-01,1.756525023049012313e-01,-7.166891837371969221e-01
1.457438443536747627e+03,2.803769560012129318e+02,1.741077981746887417e+03,2.608073796488424856e-01,-8.216542178566207388e-01,5.068173803246387443e-01
2.322506623525342093e+03,4.048585595839539906e+02,8.818649822493409829e+02,-1.227489145766305113e-02,-6.095047841757165186e-01,7.926873564695073870e-01
1.710529131147636235e+03,1.841427892661753958e+03,2.545435948428376378e+03,-3.723200507502258949e-01,-9.085743661457529319e-01,1.893948283142716793e-01
2.820708654347008633e+03,2.533375869005091772e+03,8.983716422422260166e+02,-5.980861667934583847e-01,8.589463760235932499e-02,-7.968155673187282684e-01
1.642735413561831365e+03,2.632347347753836857e+03,7.578687870629528334e+02,7.230130363177765807e-01,4.842722734113485972e-01,-4.926789162523129151e-01
3.687785667924825539e+00,1.362750043742545358e+03,1.929472085513449656e+03,-7.568558331908444847e-01,-6.534620241792911122e-01,-1.251521955445378254e-02
2.145273061974852226e+03,8.298387978437951915e+02,2.543246183055197776e+02,3.741865457995307565e-01,7.215976815737498162e-01,-5.824785102387939340e-01
2.900727920584669846e+03,5.507630859921011961e+02,2.740765677188683469e+01,-7.755129139061086585e-01,9.643596312464262910e-02,6.239229322449040271e-01
2.438718862176671337e+03,2.592091838705197461e+03,2.094374390495015632e+03,-5.971490323444493820e-01,-7.480351454094942287e-01,-2.895797893539615586e-01
2.837961244809868731e+03,1.592264779162919694e+03,2.630366565834280209e+03,-5.308967635213664993e-01,8.407775410218294443e-01,-1.060271333000391003e-01
7.640242150874809113e+01,6.635789954932046157e+02,2.914129637596455268e+03,-8.485864077770431946e-01,1.103677411353725379e-01,-5.174167278439392170e-01
9.574010519936017545e+02,2.404208094968221303e+03,1.640106187298418945e+03,2.773632296251678508e-01,-5.796892475537329670e-01,7.661788401688494066e-01
2.654248536864589369e+03,2.970236125095338139e+03,6.910858341236945535e+02,-8.827407857625261256e-01,4.430895629036569749e-01,-1.563340794491219488e-01
2.723176937525581707e+03,2.588295979321659161e+03,9.934497093607758416e+02,2.631106076350751000e-01,-9.200859607298967902e-01,2.901975758300616715e-01
2.844188396764432127e+03,2.945435929730847420e+03,9.632224894814156642e+02,3.247648366208474302e-01,8.427663417499547949e-01,4.292699548163516621e-01
1.572164250176049563e+03,2.845034060362447690e+03,2.376414780244201665e+03,9.801977206329388903e-02,-9.893653710113065047e-01,-1.074629560747326767e-01
1.802523738640232523e+03,2.203592504187343366e+03,1.899893437699152628e+03,3.525242329413190712e-01,4.706750086866696714e-01,8.088211801053050154e-01
2.330430133314995658e+02,1.820673982136805762e+03,2.694411819790872869e+03,8.452738739489850106e-01,-4.945508694745444078e-01,2.023153862691799976e-01
1.079817753912924218e+03,1.647428251804987440e+03,2.363180602706372611e+03,8.550322045604737131e-02,8.221196739733208775e-03,9.963039753086460060e-01
2.416758108199137496e+03,7.250071969196179680e+02,1.558242660623934398e+03,-4.061149732119586631e-01,6.073992229541892718e-03,-9.138018029920085272e-01
7.035044856604978349e+02,2.517992057724718507e+03,2.248213159581065099e+02,-8.432550562291719620e-01,-4.905557261864548768e-01,2.197179775294137993e-01
1.205109898350059439e+03,9.125122411057577665e+02,2.374541388029148038e+03,9.380328545730050038e-01,-3.369999799269645102e-01,8.077980732116964158e-02
1.967705239458606457e+03,1.397320356253047066e+03,9.138971078363014158e+02,-6.551532793600458593e-01,7.249211861350436381e-01,-2.127520961972857449e-01
2.749268422786370138e+03,1.773803426990851904e+03,2.551272708197526299e+03,2.610603246146072642e-01,-2.003549501100547192e-01,9.443015412877993064e-01
3.382461256268360899e+02,1.889135386122725095e+03,1.353352508243022385e+03,-1.758470960885311629e-01,9.679109164442336599e-01,1.795167307671201862e-01
1.934838188005651091e+03,2.676766582182245202e+03,1.610483634532971564e+03,-6.503970702464935139e-01,6.025728865516268851e-01,4.624819644133357777e-01
1.166779570250204870e+03,1.761752661304267804e+03,1.346101547568325714e+02,1.625524105022292665e-01,-9.546502528399012366e-01,-2.494385868157278363e-01
2.330307416128362092e+03,1.112131561833879459e+03,1.706150107858766432e+03,7.469717578123012958e-01,6.636051730182721542e-01,4.075987456052777153e-02
1.680127463685797693e+03,1.766262057932886137e+03,3.257362074577907265e+02,-4.038023350378214804e-01,-7.708586406233852717e-01,4.926668553843152054e-01
1.771222489189748785e+03,1.415242929954586316e+03,2.155151607312816395e+03,6.674891823553235071e-01,1.956772791774332720e-01,-7.184487412838432840e-01
2.384250676522003232e+03,6.141034449917195843e+02,9.211333427355516790e+01,-6.746096154764706920e-01,6.744403298117851442e-01,3.000535089447529113e-01
2.044835771479349660e+03,1.286135427761520987e+03,5.996152964009514790e+02,2.087781341192880835e-01,-8.479949465645749695e-01,-4.871511688527621620e-01
6.221999254355247899e+01,5.699913676573524981e+02,1.985044778852268109e+03,-3.639080237953482011e-02,2.071220450803294422e-01,9.776380556954171741e-01
1.533193114349858206e+03,2.797350423961912384e+03,1.213341358028786544e+03,-2.610341705605043194e-01,8.070464828326410212e-01,-5.296575651751359581e-01
2.181108775836354653e+03,1.180219995133251814e+03,1.363144075717937540e+03,-5.857104325375119824e-01,7.106639229471024555e-01,3.897436052562701647e-01
1.805129748193273826e+02,1.072743798064796010e+03,2.604685732460938198e+03,-1.555425444919232743e-02,-7.032238198000766438e-01,-7.107983711533947258e-01
2.094751741053452179e+02,2.349792346448297394e+03,2.755115686006755368e+03,-5.397552924842670130e-01,5.447976664860580964e-01,-6.417629833720306376e-01
2.919355625440445692e+03,1.809136516196285129e+03,2.762050773153959199e+03,2.134545475326277142e-01,9.454451699251142927e-01,2.461109237781065051e-01
2.820215877766642734e+03,1.875297639166057024e+02,2.191334052081931986e+03,4.932472766152637966e-01,-2.729882312241148079e-01,8.259446408354222946e-01
1.921055622080202738e+03,4.069654426165436689e+01,2.829582915719316134e+03,-6.297589155513149128e-01,-4.137602735749542071e-01,-6.574238695809661026e-01
2.118204811742364200e+03,6.634777771450452519e+02,1.741466809653984456e+03,8.818771519405290693e-01,-3.427933843848637308e-01,-3.237057066337138966e-01
1.233079152718753448e+02,2.399945112357368089e+03,2.963383632992663479e+03,-3.712508638801412797e-01,-3.992285917009493201e-01,-8.383253113420383595e-01
1.721750255002390759e+03,2.479461711467892201e+03,2.865091677797970533e+03,-2.719919751908707606e-01,8.820271374384253127e-01,3.847707034766887357e-01
3.576993862039349210e+02,1.847675681201632614e+01,2.693421988626278562e+03,-8.873000864237958751e-01,2.894346795420356666e-01,3.590628397797850369e-01
5.611147090037071905e+01,1.448242721349990006e+03,2.287089453393416534e+03,-6.874189776015766640e-01,-5.920512699772886300e-01,-4.206310056944007614e-01
6.548525430840844592e+02,6.479140258742862670e+02,1.179348873419854499e+03,1.974413762668794370e-01,1.142695018178313399e-01,9.736320577570076740e-01
1.501215372500161266e+03,2.477813071764654069e+03,2.980307517894941611e+03,-2.593842290561831909e-01,-8.710270368758131765e-01,-4.171710952933704863e-01
7.455187047638802369e+02,2.554653256777717161e+03,8.125786725696816575e+02,-7.931840042857013495e-02,-7.292205678675898195e-01,-6.796660612038258886e-01
2.268105263092804762e+03,1.075610302960540139e+03,2.548196120764939678e+03,7.115968673674597511e-01,-6.641052941508532870e-01,2.293339413031281193e-01
2.847379391726209633e+03,6.767260039135442184e+02,1.527171621947839185e+03,-1.814824446497940655e-02,-4.700194027088408499e-01,-8.824694908607684241e-01
2.029177089352566782e+03,1.092398325070205146e+03,2.551686287867915780e+03,-2.977040273822095240e-01,8.734682085897613746e-01,-3.852604322577206641e-01
1.707746399486293001e+02,1.383903468784685174e+03,6.846824008630467233e+02,-9.456368038781894914e-01,1.945453879178683232e-01,2.606206576442642309e-01
1.991796495836744270e+03,2.352774280699103201e+03,1.050715790416420305e+03,9.881231952858400558e-02,-9.947724353713277567e-01,2.576678743612847988e-02
2.007015392448375451e+03,1.583895752789087510e+03,2.666482040332547513e+03,-1.220222828359513075e-02,-9.069169355016934997e-01,4.211327317190296515e-01
3.583025241936616112e+02,1.799906420434028405e+03,5.894823407073001817e+02,-6.335929437964633593e-01,-1.261011606222271764e-01,7.633206920168342791e-01
2.571855614727395732e+03,3.665209144449838163e+02,1.406975439610245303e+03,4.430239318278871297e-01,-8.188119615268618645e-01,-3.650709074800297937e-01
1.483800650794705916e+03,6.923256641546098535e+02,9.797602957896182261e+02,7.214267311719216869e-01,8.847738566728320653e-02,-6.868152763124002469e-01
1.118274661597975864e+03,6.473553220310021743e+02,2.275303046969412208e+03,-1.049925627870370998e-01,-1.077188270962626537e-01,9.886218771848089837e-01
1.226025594265037171e+03,2.437954033290581265e+03,1.322420532714586898e+03,-4.969564622343903282e-01,5.790703342150905764e-01,6.463062916880062403e-01
1.434810708783569453e+03,8.225720185685468095e+02,2.722845844177186791e+03,-1.825672174237247536e-01,2.599521071914946413e-01,9.482057335245659413e-01
2.061895475413347867e+03,1.730946524546821365e+03,6.141996430636668265e+02,9.630769571400722429e-01,2.385580986402804637e-01,1.247910581690603454e-01
8.633171788568809006e+02,3.072937486621630683e+02,1.189582981418760255e+03,-4.165889828626827968e-02,9.930507291255553648e-01,1.100671866487796940e-01
2.427905643384329778e+03,4.892562270150859831e+02,2.522521613492218421e+03,7.165214099826186511e-02,-9.522445894721851545e-01,-2.968100613377429031e-01
1.032458686059136880e+03,1.044193005310848292e+02,1.896017710082067651e+03,6.585007497407181498e-01,-3.207537978641218923e-01,-6.808037630232768311e-01
4.699377645061537692e+02,2.346909627354986696e+03,5.497690606871003638e+02,4.019552458751596280e-01,8.014805898462891154e-01,4.427875838515398232e-01
1.931837341491026336e+03,9.185746788605831625e+02,1.159734600916425279e+03,3.763818718408212249e-01,-7.550573456880375067e-01,-5.368659900497843029e-01
2.273646766862498225e+03,2.613768252700387166e+03,1.109781657920554153e+03,9.977304863034132110e-01,-1.968649739427370121e-02,-6.439191347599537707e-02
4.425239529532304346e+02,1.518808890789492807e+03,3.921383387994882241e+02,7.034996871398838114e-02,-9.231014898739887675e-01,3.780668212027645247e-01
2.811166432653987613e+03,8.302594122160197685e+02,2.584855804426331815e+03,-9.232121443706132746e-01,-1.402322078135249672e-01,-3.577908109193950192e-01
2.488291332827794520e+02,9.038432277538538528e+02,1.573780784669506147e+03,-1.993651091515680485e-01,8.631054566535292238e-01,4.640070300630005917e-01
4.409228028165580326e+02,2.323251753601039979e+02,5.716913492930844995e+02,-2.964967487077296848e-01,6.862528077544504113e-01,6.641887998565458862e-01
1.564624375027570522e+03,2.828691445402082081e+03,4.244640210244276801e+01,9.264584100761212859e-01,3.252699893508317341e-01,-1.894049852219719388e-01
2.134589324445345937e+03,1.534142809037629604e+03,1.535256328841162485e+03,3.377658128906313451e-01,3.318580260973340024e-01,8.807862999372277901e-01
1.199797555707907350e+03,2.318552456382873515e+03,5.002344584528619862e+02,7.920951473130307674e-01,-4.339932889548255013e-02,-6.088528359583864624e-01
1.336188889491121699e+03,8.661005164970842998e+02,5.589230995255401240e+02,-9.292282335528631032e-01,-7.724793682927841298e-02,-3.613414537855375031e-01
3.092410838821861603e+02,2.012687535645500247e+03,4.710638403904551410e+02,-2.396837102820298382e-02,9.788824388698768031e-01,-2.030140095225361208e-01
2.882322221482630084e+03,9.593571931184737878e+02,2.438358798917311674e+02,-4.014471345757068543e-01,-8.940823746415385020e-01,-1.986376235668911860e-01
2.237040809449397329e+03,1.950104814737014749e+02,2.583139216411633242e+03,-2.098079877485350131e-01,-9.215632080375211199e-01,-3.266525093558951820e-01
6.161672302268804060e+02,6.832290546069983748e+02,1.220912911717926193e+02,-6.888278958292051168e-01,-4.729390734606964825e-02,7.233805473300005673e-01
2.728587687327790263e+03,2.684250801720851541e+03,7.852027092943885691e+02,8.360617294139539579e-01,3.530378632959471075e-01,-4.199583928066930039e-01
1.795866366988346272e+03,3.040821867288044018e+02,2.060402343760983058e+03,-5.462787423362085448e-01,-7.825905431754431874e-01,2.985491205881123378e-01
2.673901613698160418e+03,5.472206869016017663e+02,2.649119440252844015e+03,-4.826383193428055995e-01,8.729702879823459938e-01,-7.059128134530423537e-02
7.358766286519720552e+02,1.720947635079167185e+03,4.310679297342394420e+02,-8.120027378030790777e-01,2.443945015710801694e-01,5.300215857888501692e-01
5.727043686828277487e+02,1.462299555846652311e+03,2.143474250447593477e+03,-2.899235551216435280e-01,-1.899944552681318288e-01,9.380013001872615774e-01
5.541981737632740987e+02,1.901472015536808385e+03,2.259528938777948042e+03,-3.448587137523339563e-01,-2.112243807897365988e-01,-9.145800831578818624e-01
1.493469839004483219e+03,6.186154729541976849e+02,2.914433765252866579e+03,-5.174700621366994276e-03,-6.171118335196639215e-01,7.868584417819242116e-01
1.715573193331235416e+03,2.004394162743878951e+03,4.911524228639693206e+02,-2.582456007692878752e-01,-9.646063680237918492e-01,5.332695801617371584e-02
3.395330918706882812e+02,2.885591459955431333e+02,1.775232463012145672e+03,7.973161553156510317e-02,-3.365549114439294054e-01,-9.382822928456528988e-01
2.179993150748941844e+03,1.068972427240107891e+03,1.926399612374456638e+03,-5.258298205082405641e-01,7.250589345958394771e-01,-4.447387336707001038e-01
2.292895286058294460e+03,2.941323788493809388e+03,1.324757887532018458e+03,5.019114878686560255e-01,2.936658574860149251e-01,8.135387037458485793e-01
3.536611595418126512e+02,1.408986181688585248e+03,2.810692944262390824e+02,-7.995019997743958440e-01,2.943718212575224813e-01,5.235855070628590013e-01
2.321218704588280616e+03,1.503725337579048528e+03,1.125247778868364776e+03,-7.014213117453641511e-01,-5.612424332041220376e-01,4.393348092292816975e-01
1.084578102087773232e+03,1.193975036688565979e+03,2.758105001913157139e+03,-1.683247417042895155e-01,2.683087839344735492e-01,-9.485131405488214096e-01
2.660271688723604257e+03,4.991256078931683078e+02,2.419674938821106934e+03,-8.475637208552823099e-01,-5.271742858123391606e-01,6.101648521669678776e-02
2.487140605873188179e+03,2.807648408196260334e+03,9.326407258373200193e+02,-1.063937850983800171e-01,1.247231469846000473e-01,-9.864707289619381037e-01
2.275459155488014403e+03,1.106007563358493826e+03,1.873871469778653363e+03,4.748871752656227962e-01,-1.518322875365197000e-01,8.668501180882801638e-01
1.811956989959432121e+03,2.392148176432669061e+03,2.528514679418706692e+03,-4.855683015460153240e-01,-2.517615239396764903e-01,8.371616090082545369e-01
1.872239414618795763e+03,2.909645715500534152e+03,7.924175938678042712e+02,-3.479438906966807465e-01,9.216201578540029749e-01,1.719050132021135990e-01
2.904099388435806759e+03,2.812650325430867724e+03,1.949485779428192700e+03,-9.206104853467220739e-01,-3.891463422184029408e-01,-3.227163782194142350e-02
7.524027362643668084e+02,2.419671682621916716e+03,1.766073276362883234e+03,-1.355349194155874848e-01,9.807693707058600108e-01,-1.404340667510619867e-01
2.430728108395634990e+03,3.021719969822793814e+02,1.388848441010106626e+03,-5.825262570336582346e-01,-7.052889054987546702e-01,4.040182169738453233e-01
1.451277938853500473e+03,8.036716369868403262e+02,5.101441534856664362e+02,8.941161372190836731e-01,4.447769396299087186e-01,5.224755628617949732e-02
6.549902227093600686e+02,4.481622975038011987e+02,2.815880860514435426e+03,3.860716530615809217e-01,8.992846684060785689e-01,-2.055134153092388616e-01
2.114986679627421836e+03,6.733681067637088518e+02,2.975478837192312653e+02,2.832794964622694089e-01,-9.568256622296614777e-01,-6.509515329771532743e-02
1.782178139823822676e+03,8.124795894392299260e+02,1.388939964410180664e+03,9.479689493240716081e-01,8.880515458072458720e-03,-3.182389158519348116e-01
1.846524531497931548e+03,1.103532861851075950e+03,1.177449112969879479e+03,2.057532058611614423e-01,8.514038797752432330e-01,4.824697418300112339e-01
1.548911466425430035e+03,8.738433042020951689e+02,2.692145779239530384e+03,-9.951992666817691680e-01,5.857663872962494411e-02,7.840406233868346675e-02
2.298116426084917748e+03,1.107325076552697965e+03,1.571316677702065135e+03,3.504696080035943906e-01,-7.009356455321638091e-01,-6.211765245791374124e-01
5.009820213840960719e+02,2.225526003471838521e+03,2.130967613987580080e+03,-5.912223448372053713e-01,5.051206241925277896e-01,-6.287362674289973530e-01
2.629230481786224573e+03,1.931660422992067424e+03,6.426672056638608410e+02,-2.468027387384131299e-01,7.017445732770045685e-01,6.683135207576557102e-01
1.440662880056510176e+03,9.281199911654284733e+02,2.857333141084985527e+03,6.938178608314286011e-01,6.717418435303642577e-01,2.595759458072495751e-01
1.489592009406677107e+03,2.486361858143458790e+02,1.194173448462699980e+03,-4.933699348769291504e-01,-7.829612566991553946e-01,3.788901923613410272e-01
1.741349764505803023e+03,7.827912551709878244e+02,4.781034892630498234e+02,-5.972560919996129369e-01,4.844378193853551839e-01,6.392223085269412852e-01
2.070933915525914927e+03,2.714744940600685368e+03,7.057970553220686725e+02,7.769186690759902758e-01,1.972571737027381256e-01,-5.979021567648001856e-01
5.059347845647301938e+02,1.942376662485291092e+02,2.759550641376709336e+03,3.698111409533623162e-01,8.850815892694756659e-01,2.826133407378208506e-01
8.469417064471372214e+02,1.523396225388730954e+03,2.990822952439083110e+03,-7.793163256441952846e-01,1.983212362621334518e-02,6.263168139663066736e-01
2.272815741672962304e+03,2.417267845724800736e+03,3.979717451520664326e+02,8.491901080412421754e-01,-4.361402612988756200e-01,-2.977546521535003876e-01
1.027970137828751604e+03,2.437899839595089361e+03,9.571973602687096445e+02,-2.489269016471571949e-01,8.720316255612671208e-01,4.214216910142625228e-01
2.442381029533478340e+03,1.175399146882198011e+03,2.943107398308364282e+03,-2.679050091006959233e-01,9.259103974479858667e-01,2.663021629586752592e-01
2.869110561616717860e+03,2.771185252096185195e+03,2.316983629450815897e+03,6.759503812832765579e-01,-1.381090193115602494e-01,7.238901717994188356e-01
6.733618166363985438e+02,2.871506999706432453e+03,3.311882620477246633e+02,-6.663882880757785454e-01,3.094949506652716620e-01,6.783358497294201817e-01
2.791258123620231345e+03,1.287291298969170612e+03,2.094830322234315645e+03,1.297420493271097819e-01,-9.855750453623818297e-01,-1.086684434200702182e-01
3.635528158109779611e+02,1.176013134992857431e+03,1.246528406398580955e+03,-7.163700431430456428e-01,6.625867640596583286e-01,2.186155103833709035e-01
2.134393264884436121e+03,2.408544663758055776e+03,2.064118292693412513e+03,7.826624010367845274e-01,-2.808085293129430338e-01,-5.555052977861125729e-01
2.146021732444049121e+03,2.381060182529275608e+03,2.937763813995105011e+03,4.649935692347080818e-01,-7.269802959750201188e-01,5.052530354529687351e-01
5.716523282526623007e+02,1.167914572301945100e+03,3.446463564672408211e+02,-5.716443078525178523e-01,3.928377460255080278e-01,-7.203480343538213315e-01
1.065149994669466651e+03,1.415862610328597668e+02,1.734399018719971536e+03,4.617470583284759011e-01,-7.325431302862399630e-01,5.001701874316741847e-01
2.137027837542835641e+03,1.235471363748442855e+03,4.390594208831568608e+02,2.137226142237388937e-01,5.680407766311666995e-01,7.947655756596607723e-01
6.321800410655424685e+02,1.793122862737902778e+03,2.808128341396148699e+03,5.361627386936299589e-01,-8.396947209655526434e-01,-8.626872677354713304e-02
1.056500310843448915e+03,6.590311785667100821e+02,2.204896769278163049e+02,9.860843995479467994e-01,-1.654738038849314641e-01,-1.599928735964684101e-02
4.072716486557431494e+02,9.282213875210708238e+02,8.573448269138716569e+02,-6.612732835398897890e-01,5.320367947856634583e-01,5.288236884544510463e-01
1.881535452615742997e+03,2.986664597347140443e+03,1.630545728467688377e+03,7.403979783716760910e-01,-3.195981277184273273e-02,6.714085224293209198e-01
1.719019973438047600e+03,2.133931922521906472e+03,1.461233295312607879e+03,5.267660297827096993e-01,-8.289973501458205440e-01,1.878322211926621854e-01
5.767018123242284844e+01,1.560033432209878583e+02,1.473637473176480853e+03,-5.887779715710662609e-01,1.411261054292837491e-01,-7.958793391959759767e-01
5.950995995998140415e+02,3.635739381813620525e+02,1.976453151891428433e+03,5.919191942535524387e-01,3.179541306394939593e-01,-7.406327283367302172e-01
1.955881059450633757e+03,2.635615136694210833e+03,2.324442714873563091e+03,-3.354873396679078357e-01,3.643276642412263677e-01,-8.687425383800899681e-01
2.442802885915365550e+03,2.358686627344558246e+02,2.322985383853720123e+03,-1.710670565351847250e-01,8.639675471748071711e-01,4.735991338644268134e-01
2.908130053853662048e+03,2.833362328063031327e+03,1.521234815031190237e+03,4.012329179661690559e-01,8.872498495322110879e-01,-2.275958041032879464e-01
2.841507493445070850e+03,5.830223410727309101e+02,4.974332961231414743e+02,-3.816477795526884154e-01,-9.228957573581831886e-01,-5.107243300223762716e-02
2.224330036219821523e+03,2.273835374358292029e+03,5.733722085311638921e+02,-2.886931179771695666e-01,9.002356612247954804e-01,-3.259325664792880883e-01
1.346020800752110745e+03,1.633788403689254892e+03,3.962543302555121727e+02,3.927893308968647412e-01,-4.545345865212894187e-01,-7.994465905797045746e-01
5.360583816058280036e+02,2.934034727584324173e+03,2.249113910193906065e+02,-9.869608030839144286e-01,-8.232998737166460912e-02,-1.383117722948277173e-01
3.565719305104699970e+02,1.284672836120324519e+03,5.380328879040324637e+02,8.943895980517596600e-01,-4.444736718653044538e-01,5.010391117852353027e-02
1.811295088893927641e+03,2.358675965021101092e+03,2.863241806927007474e+03,3.336550451460093547e-01,6.896534900906950982e-01,6.426915079992405744e-01
1.207755324564466491e+03,1.285866614964727205e+03,1.863717001593278383e+03,-4.873664834472238860e-01,8.327853043446716841e-01,2.625691293351894995e-01
4.906015911097202320e+02,2.398707507632510442e+03,6.734519583089920616e+02,-9.308952822028713214e-01,-1.591475476356777052e-01,-3.287948169512200369e-01
2.664488840752717351e+03,7.855666882118471221e+02,2.864413273167233456e+03,-4.892966928642114022e-01,-8.299874630918134821e-01,-2.677864026842314282e-01
8.165458007745389750e+02,2.568167940449171056e+03,2.459766652922116918e+03,4.769680473063608872e-01,4.197559593384389554e-01,7.722087907092380910e-01
1.924763819499368083e+03,2.598286571510594513e+03,1.682521178624841468e+03,-1.993239356218217961e-01,2.107814534767537828e-01,9.569958973571699445e-01
1.921765345718122717e+03,1.879363187160815187e+03,1.780879981875202930e+03,7.656330573080737389e-01,5.869423252129263302e-01,-2.632579123801133125e-01
2.373832637989879004e+03,1.663166733263750075e+03,2.289416402046497865e+02,-2.213319504138589189e-01,-6.137207868957904600e-01,-7.578647395531796782e-01
2.778080612167561412e+03,4.585918518171440041e+02,6.442718697611772996e+02,-9.359931550529281274e-01,9.551630627081213187e-02,3.388118193488027785e-01
1.812194920841682233e+03,2.500339451465868478e+03,6.627238195042953066e+02,-4.889016256612749864e-04,7.564447948959028833e-01,-6.540573623544772008e-01
9.165296169278258276e+02,1.252722313395478295e+03,8.432040439581173814e+02,-8.590672114307555951e-01,-4.844296909637381687e-01,1.653221121246724323e-01
1.703469320043001062e+03,1.437477407627181265e+03,1.637736745519993974e+03,-6.971030065990027058e-01,-7.078768261288689301e-01,1.138323206314886399e-01
2.994828223571485978e+03,7.533878507111676299e+02,2.437610318596971410e+03,-9.791879813390821918e-02,9.188412998576805935e-01,-3.822859854191085205e-01
5.287644454167415233e+02,1.676130913909585161e+03,2.681124993742585502e+03,-8.545844528586519218e-01,5.138977237135171627e-01,-7.479667435350356719e-02
2.343066462443957334e+03,3.692655675541664095e+02,9.321683024894922198e+01,5.389972886649940786e-01,1.707527304419311220e-01,-8.248184211439570923e-01
7.591618804168419956e+02,7.033342406880830140e+02,2.777407131485404079e+03,5.814361705406630998e-01,-7.164631842448638821e-01,3.855028990924960208e-01
2.547249705741294747e+03,1.196318781043758008e+03,1.328941416734658333e+03,9.986918596505155454e-01,-4.492410814524928214e-02,-2.442117882390371086e-02
2.545325257727767507e+02,7.382180867369421549e+02,2.134829795115208981e+03,-3.360653843774985550e-01,-4.543795317864689487e-01,-8.249844231964100771e-01
2.866795612291509315e+03,2.639950818202159553e+03,2.621772629790690189e+03,6.212127854945936195e-02,-2.924916703180777122e-01,9.542481697891389558e-01
1.900796243424934744e+02,2.928934949076849080e+03,3.639881006971777992e+02,8.004863874453914674e-01,-2.313974205574957643e-01,-5.528804366894927158e-01
2.935491750439264251e+03,2.130836123829944427e+03,2.116445270954060106e+03,-6.572501539605345444e-01,6.725587510883016540e-01,3.401278604486813184e-01
8.577824733801173807e+02,2.743208880119645073e+03,2.626995507215602629e+03,3.072499496624090387e-01,-9.090295526148354233e-01,2.815363935716293509e-01
3.793537338025186614e+02,1.908281380321840970e+03,2.507696029492847174e+03,2.796991178839751749e-02,-9.896652005352306603e-01,-1.406430762039534432e-01
1.345639874475842817e+03,6.218931435281125459e+02,1.305859799930001600e+03,-1.598529979771736165e-01,-9.597211965002369061e-01,-2.310459781642248966e-01
2.782263912255794367e+03,2.947619703946179925e+03,9.476209472334407025e+00,8.258383601968473098e-01,3.933287415189168357e-01,4.040835358221459561e-01
2.356211825068406142e+03,1.910562803667513890e+03,2.466932773533515956e+03,-4.034904093083791499e-01,8.232737029047924038e-01,3.992692070540730942e-01
2.419649381693808209e+03,6.481832191698345014e+02,8.592971074401533542e+02,1.568791254904428056e-01,8.003200399097463169e-01,-5.786853840423274997e-01
1.633464311145790816e+03,1.798503149698467041e+03,2.459551269960494665e+03,-5.317338279230647835e-01,-8.056213841959527500e-01,-2.612150867933966669e-01
1.796615477968056894e+03,2.412527798295707271e+03,4.337519630251233025e+02,-4.501726685040698950e-01,4.942927960979604518e-01,-7.436526072418391253e-01
1.952523790128216206e+03,5.303966680376818204e+02,2.267068937607093631e+03,-9.906369687022106296e-01,9.320420996767421473e-02,9.975656111152386707e-02
2.806197589854092257e+03,1.152610771627766098e+03,7.418499468567121085e+02,6.732720925075099672e-01,-7.090128547691080252e-01,2.097747869090056394e-01
5.816203986281361722e+02,2.195472863361560940e+03,2.106512440286988749e+03,3.541379626614061804e-01,-4.393232439844310666e-01,-8.255794272491439045e-01
2.181575888744696385e+03,2.436036180828944282e+02,2.516734701566034801e+03,2.095900091625016171e-01,-9.315954953069669475e-01,-2.969879815464417927e-01
2.496255177737195652e+02,6.804482471080041250e+02,2.673461937373305091e+02,1.282673188326897140e-01,-2.048187854603753244e-01,-9.703590881946795310e-01
1.038035585822947269e+03,2.805844757031161407e+03,2.497382888089828612e+03,-7.194984072072084791e-01,-6.678238446051890098e-02,-6.912757446576998088e-01
5.116452079008810756e+02,7.247269393239563442e+02,2.747115083736718134e+03,-4.615774066488478322e-01,-4.616401817340514135e-01,7.575187392268762920e-01
1.099661020999159746e+03,1.143995313506563207e+03,8.627657610534736250e+02,7.289095083147968668e-02,-5.790658403378072805e-01,8.120158014723308781e-01
2.594396247401920846e+03,8.469567438813489844e+02,2.474060337925202930e+03,2.006675336761851169e-01,8.685111381229231320e-01,-4.532338732759741973e-01
9.228303402432251232e+02,2.673075602863060340e+03,1.478268015114634409e+03,-8.903004909091322139e-01,1.625088272885218555e-03,4.553706127705910434e-01
2.488691258400183415e+03,1.180865982686368852e+03,2.718725336528893166e+01,-3.499558562580037252e-02,-7.029700503759365171e-01,7.103579500935852664e-01
1.925378218543206003e+03,1.892141108475718966e+03,1.644572710285760877e+02,-8.948929294242932153e-01,4.460044678960299325e-01,-1.570539662619863108e-02
2.677920185474029950e+03,1.765948902388059423e+03,2.869588428097534688e+03,5.723963963212099770e-01,-1.272668059191515155e-01,8.100404468849868866e-01
1.012025916655599076e+03,2.096895333002714324e+03,2.429929253384621006e+03,4.389841973044361079e-01,8.809105767552599664e-01,1.768881858058788392e-01
2.445578523160136683e+03,2.911967632575161815e+02,2.400362970251218030e+03,-1.325815736171844783e-01,7.348962769244037352e-01,-6.650936689668915935e-01
2.417352800849102550e+03,7.460292983204831216e+02,2.461957490197592961e+03,-9.773241195407685877e-01,2.122401038898676442e-02,2.106824784999210554e-01
2.342792424826369825e+03,1.674099975898608363e+03,1.779545148894578915e+03,-4.165026943268800019e-02,7.377683383112970672e-01,6.737678636159281087e-01
8.438129708307085366e+02,2.652072110887251256e+03,1.285351024775225596e+03,3.750064723589815324e-02,9.953542261767915900e-01,-8.867731327058381297e-02
