x,y,z,nx,ny,nz
8.538764357050315539e+02,1.076028940227487965e+03,6.262629483309527814e+02,4.618344348814538147e-01,7.360226552691142565e-01,-4.949541450360133155e-01
2.226896275636057908e+03,5.942661849399623861e+02,1.791899978302479440e+03,9.291092817805119974e-01,-2.265873954213909747e-01,-2.922568985421067911e-01
1.040833080707298450e+03,2.085530943490614845e+03,2.638142454363890465e+03,-4.230462012537372085e-01,9.047737390959470494e-01,4.915681689370998697e-02
1.441651484765394116e+03,2.271396199786330726e+03,2.382998645416855084e+02,2.314208387505989617e-01,8.562945112860035346e-01,-4.617403007464624398e-01
2.018609619403046054e+03,2.238227361197595542e+02,2.246547361918239403e+03,4.428057054345174159e-01,5.091403150268726252e-01,7.380374291653346575e-01
1.428523320428504803e+03,1.181160372500118910e+03,1.067862000804323316e+03,-4.929676168553765447e-01,-4.254674475951024659e-01,7.589205358723924988e-01
8.176302249039824801e+02,9.291033117347856205e+02,1.240176120917407388e+03,9.530467940491079704e-01,-2.477630417910836047e-01,1.741128469560673242e-01
1.993185987679068148e+03,3.656341240726416117e+02,2.480038957327097251e+03,-5.389976100633483425e-01,-7.856120685980113594e-01,3.038013397257361969e-01
2.383600721351279844e+03,2.066307279110935013e+01,1.366149682340269010e+03,-1.446944872703767038e-01,-4.745334060795276532e-01,8.682635267406577650e-01
1.926148656757182607e+03,1.218681228277519494e+03,2.878488664018599138e+03,2.410032377150280458e-01,6.101932575953163962e-01,7.547063189056320009e-01
2.058600533748512134e+03,5.350897558529543403e+02,1.165278014997936680e+03,-1.059498150909095604e-01,2.167387619893103023e-01,9.704632634641783273e-01
9.743400849680284637e+02,2.944894507375195644e+03,1.872134602218491466e+02,-1.856849436187686941e-01,-6.306813056133654394e-01,7.534999618202482541e-01
1.601521292685506978e+03,2.677636021506403381e+02,2.127345310021861224e+03,-8.082124962296316495e-01,-1.005769150401305545e-01,5.802386104864775129e-01
1.387676765868038956e+03,2.659420925397380984e+02,1.941753742978490209e+03,-1.676842758554882573e-01,8.882821881428516753e-02,-9.818307039266505054e-01
1.058604614257167668e+03,2.026508231254218799e+03,6.672824475322438502e+02,-1.995687758817195900e-01,-4.637046974453239434e-01,-8.632208623870327724e-01
1.381026433880371997e+03,6.745159963118214819e+02,1.300874342099782780e+03,-8.172384508145273951e-01,4.824081560739217345e-01,-3.152835001449175167e-01
1.249152797795917195e+03,1.537306743699921981e+03,2.855219339008228303e+02,5.272283863415400118e-01,9.090591700233062455e-02,-8.448469345920960327e-01
9.212643987925740703e+02,2.667543742072119585e+03,9.260440027994197862e+02,-4.306828846602401284e-01,-1.642663631472607647e-02,9.023538211145991639e-01
5.211522739083181932e+02,1.639528684430661770e+03,1.815346988507332071e+03,5.018625003012883168e-01,6.505183890759037579e-01,5.700525030779450830e-01
2.062255312431646416e+03,1.654716769788124111e+03,8.348928699676794452e+01,9.590195870701024444e-03,-6.234200073544771126e-01,7.818283203960478822e-01
1.146645691419003242e+03,2.426382770409134991e+03,4.177572584954183412e+02,-3.518523767215547826e-01,-4.414550965351632938e-01,-8.254194707774483719e-01
3.671051494125752015e+02,1.377110340673662449e+03,9.073378144229205873e+02,3.105972054885199340e-01,-8.684570122955188598e-01,-3.864088427267977632e-01
1.056154066697583289e+02,1.537579616052493975e+03,2.385844727981511824e+03,-1.979070691332606435e-01,-6.900950865171239235e-01,-6.961332943854976474e-01
2.419269735518880680e+02,1.146167363919177205e+03,5.200119991368484307e+02,6.509464461154202963e-01,-6.463241430634985019e-01,3.981630650662346671e-01
1.391283253151725830e+03,2.294139945458338389e+03,2.089100894516339849e+03,6.243470700596247536e-01,-3.026688120047298369e-01,-7.201266043881502377e-01
1.167762876477509508e+03,6.850231034385814155e+02,1.443765765375454066e+03,-6.419373828438404983e-01,7.412206900894362516e-01,1.962352799344211363e-01
2.389216972146043645e+03,9.872848685092803862e+02,2.344628882795725985e+03,5.131503714418326340e-02,2.795287158441310017e-03,9.986786036221027008e-01
2.597483131623178906e+03,8.546949050639567531e+02,4.119797821145231183e+02,8.483500824311398514e-01,4.757372813436027137e-01,-2.323277357072895122e-01
2.533592734056817619e+02,2.161372205239055347e+03,8.099591946280610273e+02,3.464464815568431277e-02,-5.010856725234582587e-01,-8.647039361225796750e-01
8.192696538225284257e+02,2.113495695415800128e+03,1.472715175685515987e+03,-2.493436231065632169e-02,9.191477600156604533e-01,-3.931229741879185280e-01
2.029626016871009597e+03,6.134960378485391175e+02,2.370852091206090790e+03,-7.136449686111867585e-01,3.175831953699320143e-01,6.243811118175838226e-01
9.788643428634786687e+02,2.502420692354573475e+03,2.527581880003555398e+03,5.813604558480243295e-02,2.246678879265056050e-01,9.726996146490471951e-01
6.766500080178221879e+02,9.224563675115254000e+02,2.060822891031244126e+03,6.439390308250493300e-01,7.161888593007222914e-01,2.691022898334878843e-01
2.021247460271637920e+03,3.175991331857969158e+02,7.309202158163712966e+02,3.671691132313508188e-01,-4.236013376607202646e-02,-9.291891418630675581e-01
1.926805166559780901e+03,1.491227250198553065e+03,2.583961756883100406e+03,7.181662635043755127e-01,2.767541339366695885e-01,6.384703339334787398e-01
9.198025278173294055e+02,1.690807754375886816e+03,2.593969505165287046e+03,7.869000838125782549e-01,-1.397296825882917426e-01,6.010523054606252691e-01
1.463990947164277486e+03,1.505150099326634745e+03,1.777599165796190391e+03,-5.107598541654307933e-01,6.252709831900636894e-01,-5.900513273889307353e-01
2.901428093424553936e+03,8.905506433423931867e+02,2.328166222306706004e+03,5.037380124634749379e-01,6.477288537196375096e-01,-5.715726960399634127e-01
4.980798401205606183e+02,1.394185262815079568e+03,1.182023649082388374e+03,-8.138569991300478312e-01,-2.337159927228944778e-01,-5.319902440013211109e-01
6.725598769720897963e+02,2.915941643022464177e+03,1.863712700740670698e+03,8.669577536299991616e-01,-3.695316253229282144e-01,-3.344108719928535756e-01
2.205769219201342821e+03,1.216780942397897888e+03,1.595120706563256817e+03,3.621326720810829625e-01,5.050504073484675116e-01,7.834436890093391392e-01
4.042846507864838941e+02,1.836711552501549022e+03,5.367071779919103847e+02,1.630360990016020972e-01,-5.028368954578775751e-01,8.488664718249998575e-01
2.476002735058312737e+03,4.330151298337684693e+02,1.101702234558346618e+03,2.792129479803808212e-01,-5.269141540839544779e-01,-8.027462886280420928e-01
2.736743623330825812e+03,1.726219577908696010e+03,2.743706878903270990e+03,8.316646920350654337e-01,-3.072828829622523128e-01,4.625052106307847577e-01
2.893118741467372729e+03,1.693681604257978279e+03,1.470884242830459470e+03,-1.924475252130852243e-01,-7.620031081878501089e-01,6.183164344827126735e-01
2.336383841600729738e+03,5.745329868345805835e+02,2.372664483496831053e+03,8.086972571860031600e-01,3.835423623571014851e-01,4.459865496821283082e-01
1.529602094396226448e+03,1.222125359845852017e+03,2.790402087901456525e+03,-3.058056259738456961e-01,9.409990781421208039e-01,-1.449263746128471031e-01
2.998219003099651673e+03,1.897454171640109507e+03,2.659511282468600712e+03,-8.197343663419663917e-01,5.441385691618380038e-01,1.787422339248414815e-01
2.006228953805573610e+03,1.941981795997646032e+03,1.744911384968540915e+03,7.370845654933296798e-01,-3.429049286172130007e-01,5.823422990317064230e-01
2.150439766865293223e+03,7.598311230286544742e+02,6.732023799693171213e+02,-8.313121434154349329e-03,-9.527963326083254136e-01,-3.034963600772611070e-01
2.982124000143145167e+03,2.427429394522221457e+02,6.032431165294359516e+02,1.311573950519408227e-01,7.813485592638343136e-02,-9.882776340748344879e-01
3.401424486238171312e+02,2.427933007481225104e+03,9.868493281773093884e+01,2.693631671399315253e-01,7.936200713984777888e-01,5.455370440784204078e-01
9.797520571217409042e+02,1.054306904324365632e+03,1.453648661316476137e+03,-6.097105563250633242e-01,4.824492288264903977e-02,-7.911545139363289625e-01
3.339533389578743936e+02,5.051579340820912876e+02,5.696169939638223241e+02,-1.616522804331712304e-01,-5.297101919411426607e-01,8.326317630167812123e-01
2.607967253781756426e+03,8.969375490526359727e+02,1.841795367761036914e+03,-4.278823107019281702e-01,8.983965439192513891e-01,9.899685885078945979e-02
9.664312267874732925e+02,1.411301347591419471e+03,1.612086834734698414e+03,-9.586845937680505969e-01,-1.051494150464477306e-01,2.643245168106387322e-01
2.371025214381710157e+03,1.767935972127432478e+03,4.120762392329999670e+02,-2.852400189845870626e-01,-7.310081796963609213e-02,-9.556643772694692895e-01
2.384961893855051130e+03,1.139980828664914867e+02,1.498263414753550933e+03,4.200427736341005303e-01,8.210954957039919844e-01,-3.864793076639259084e-01
5.495205221932026234e+02,3.863176086262312197e+02,1.931093493460525679e+03,-6.276110045950706873e-01,-7.366931273249377465e-01,2.517690669311247742e-01
1.503954085351402682e+03,2.530612361269988469e+03,1.450402196968103574e+01,2.512024047851496578e-01,8.966606827878149666e-01,-3.645503693217815866e-01
9.323925893338291644e+02,1.196416822606342976e+03,7.361113159558511825e+02,-5.345795622500134625e-01,-5.704615101639844976e-01,6.235369732790592145e-01
2.249792722140356545e+03,1.436355652123513210e+03,1.498948669312422226e+03,5.788312421912527039e-01,-5.811223587483129727e-01,5.720587358183849558e-01
8.470660267160492367e+02,2.495612055147102808e+02,2.058933352170201033e+03,-3.686152760569046394e-01,8.965147619611839591e-01,2.457316826198314708e-01
4.868978466849087567e+02,2.183280946624966418e+03,1.297121580895935040e+03,-7.213043692693681397e-01,-4.937563559316010542e-01,4.857207714830252265e-01
4.653956832460920623e+02,1.075327492433042153e+03,2.460035221465476297e+03,-9.482445375151935529e-01,-3.074313167273142189e-01,7.948762525013863822e-02
1.921191798230168388e+03,2.741753150903744881e+03,1.704423221775533193e+03,-5.049768120468006716e-01,7.199359829899313334e-01,4.761203626094683838e-01
1.231434285387432965e+03,2.147636799033348780e+03,7.583552800343254603e+02,-7.928782352007085477e-01,6.038609695991709048e-01,-8.182929511953052071e-02
2.664827830873774928e+03,1.960640085581346739e+03,7.746925161872513854e+02,-3.373781111082742035e-01,-4.707402261986603498e-01,8.152175473966731811e-01
1.384083691188383227e+03,2.567084969625504527e+03,2.658327637515826609e+03,-9.793617079467109576e-01,-2.019618900314068821e-01,7.876546365204628586e-03
1.458661058771082480e+03,2.427040758603075119e+03,1.036852236625385331e+03,8.825434014102413460e-01,3.778863561381548553e-01,-2.798554027919944454e-01
2.408705971392068477e+03,4.417655112304923364e+02,2.466505494620547779e+03,1.722348275699462361e-01,-9.373947365996372350e-01,3.026983184083580913e-01
1.221141807362814461e+03,2.075567015971972978e+03,8.983602492263598833e+02,1.444461991360129760e-02,-9.989008904256662102e-01,-4.459107603952450205e-02
1.523881264202276498e+03,2.182260590609325845e+03,1.030709822882292201e+03,1.067944515297498259e-01,-1.874721187989460414e-01,-9.764472078896502261e-01
2.503072625767383670e+03,5.283584208961594868e+02,7.645803781438974056e+02,3.633870772713426733e-01,-6.610218465517353481e-02,9.292902309052886167e-01
2.657845156899540143e+03,1.089554631371143387e+03,1.851801466990289782e+03,-5.698972804898730926e-01,8.213199202916590114e-01,-2.550839513473968090e-02
7.214680855652181890e+02,1.006601237414766388e+03,1.723498860467586837e+03,-4.563521009157450736e-01,-4.750886767017312162e-01,-7.523519849509161528e-01
1.907937417013811455e+03,3.026911402869341146e+02,2.069457183184743371e+03,5.899506637176282764e-01,-5.005928670107314682e-01,-6.335337369683684550e-01
9.445889738605900448e+02,2.420166367271251147e+03,1.755123850705545010e+03,9.829208129339673805e-01,1.579281494107989126e-01,-9.447420348914881139e-02
2.521614940540163389e+03,1.932276300710194164e+03,9.538202179597955137e+02,-5.561412311555198329e-01,7.884097433965696622e-01,-2.629011364109675175e-01
1.147049220809984035e+03,9.939531268396293626e+02,8.292239173489273298e+02,1.372973644711322251e-02,-6.116548901754775835e-01,7.910055560244297901e-01
1.858306412041429212e+03,2.492359695119847402e+03,2.683585511181878701e+03,8.827677099564686936e-01,-2.730419713466714082e-02,4.690156192250352629e-01
1.961270565336833215e+03,2.340322157290733685e+03,1.570974429098400549e+02,2.994719997888375396e-01,9.430440231927013084e-01,-1.448602487330408473e-01
1.382808288175067219e+03,4.414693313775690626e+02,1.128503555408434977e+03,-8.710497174766250739e-01,2.040551080956403140e-01,4.468040986203778431e-01
7.537836228314942844e+01,1.609171828881330839e+03,2.550352012999283033e+03,-5.284594835032017102e-01,-7.064292264539318023e-01,-4.708378938734953945e-01
7.027502751176718903e+02,2.083519500712292029e+03,2.330004551222439204e+03,-6.516666491674953932e-01,2.541777577539637845e-01,-7.146497364625385984e-01
1.054538690017151566e+03,7.459011753506002833e+02,2.709530192922044080e+03,-9.518277979693986479e-01,2.798238167077091165e-01,1.253892922695396539e-01
1.028921216647039728e+03,2.298498901360760101e+03,2.671962939690742587e+03,-5.809001259108170778e-02,4.568522317960642676e-01,8.876438411548424057e-01
1.532781995909984516e+03,9.516211093746546794e+02,3.669837208206762966e+02,-2.508434759600354225e-01,7.143866658976307793e-01,6.532451623670503249e-01
4.267527233260879598e+02,1.105064957654715727e+03,2.724349181455596863e+03,-8.909763848235157102e-01,3.426888073597179063e-01,2.978681973578126141e-01
5.351339805254738167e+02,2.487380484769150826e+03,2.655311842622103086e+03,-5.728549660478565730e-01,6.114215799697131359e-01,-5.458945314084477918e-01
2.312599971561350230e+03,7.537013728896688463e+02,6.685374172733473870e+02,3.918774416891405987e-02,2.642547126239157551e-01,-9.636564572310006849e-01
2.962125625541543741e+03,2.621899827313155583e+03,2.191093530499158987e+03,2.064324535228568014e-01,9.573866358549072419e-01,-2.019813645338524311e-01
1.370959921930811561e+03,2.643515636433228337e+03,1.512988214814780122e+03,-5.740260713030712614e-01,7.751580169426549594e-01,2.638638251710384020e-01
3.303016560735818530e+02,1.585666704709899932e+03,2.304172409001987489e+03,2.360507137678320988e-01,7.665508059178598177e-02,-9.687125781929146751e-01
2.169676966227887078e+03,2.516329541996277840e+03,2.479530643247569969e+03,-1.331217474376490961e-01,8.988321545828815706e-01,-4.175875456081534765e-01
1.947953425944844184e+03,2.009516696958969987e+03,1.887074150734453724e+03,6.353931250514359697e-01,3.213733028347669912e-02,7.715197785148615317e-01
1.216085768123316484e+03,1.918536757427227144e+02,7.667296282765566957e+02,-5.983166358981039101e-01,6.886932548055685332e-01,-4.095348629761428327e-01
2.088815440461883099e+03,1.926407195850914832e+03,6.967695879129648802e+02,-8.062752028982536068e-01,-3.195340258257736710e-01,4.978135228486202379e-01
1.100898978788998647e+03,2.505376054981702509e+03,4.355408107134146576e+02,2.909823922768542959e-01,1.908482193371819069e-01,-9.374999757656881094e-01
3.776859957975243560e+02,2.753590811782190030e+03,1.736345037725973270e+03,-4.003816614028647969e-01,-5.085461652565057000e-02,-9.149362454238605391e-01
2.116719693295156503e+03,6.732126421887562628e+02,2.258470305259221504e+02,-5.243152821472126801e-01,2.678062988651964682e-01,-8.083150816327837607e-01
1.171573061729541905e+03,1.063258752455991726e+03,1.575018353090927349e+03,2.329008804057044746e-01,2.812053987315724091e-01,-9.309568752796582025e-01
2.604507454117255293e+03,2.107698265838844691e+03,6.627334484063616173e+02,7.897839132069099932e-01,-5.460614968880025399e-01,2.793889977361565524e-01
2.273854926594485732e+03,2.679531473307754368e+03,1.361039316502295151e+03,2.342906428537290531e-01,-3.169138790216179946e-01,-9.190611992433679323e-01
2.038724732199222899e+03,2.645070307778389179e+03,1.151906746671846804e+03,8.009368893234187770e-01,-5.979983491186164901e-01,2.996787900961628281e-02
8.187706438122634154e+02,7.697834572824310726e+02,1.193080834410854095e+03,2.934989007924435622e-01,-4.631227850209556074e-01,-8.362868414772894887e-01
1.657087590824495919e+03,2.263009125074328495e+03,4.623515479264087844e+02,-8.058267272197271458e-01,3.551168320360598152e-01,-4.738515815136807863e-01
8.007718998721725256e+01,8.734579453651432459e+02,1.179265739674558290e+03,4.733416532651756881e-01,1.629442969234142502e-01,-8.656770964882485320e-01
2.808002829826573361e+03,2.428639566048771485e+03,2.980472253808371988e+03,8.195634771944489971e-01,5.342168154762390042e-01,-2.071909769062585394e-01
9.133140912108771090e+02,1.991806520147743413e+03,1.484370349229787962e+03,-6.792109373377771542e-01,-4.172671693936250148e-01,-6.037885490359766738e-01
1.367123924829510884e+02,2.914889495181629627e+03,2.367716644582957542e+03,4.065510116997216317e-01,3.377514136121684274e-01,-8.489053289318631013e-01
2.884046635691210668e+03,1.931108242127526864e+03,1.930279417673335502e+03,-8.651852987161477992e-01,-4.533713734893166092e-01,2.142633813460914916e-01
1.261268396406034526e+03,1.250217303923081289e+02,2.122319619774508283e+03,-4.199947211183865381e-01,-7.118882197647006249e-01,5.628672994524854811e-01
2.366114164125105162e+03,2.117437054409253051e+03,1.609264588014114139e+01,-1.824886523278240469e-01,-1.714207424608388958e-02,9.830585135494815940e-01
2.849627031792687376e+03,1.170247488266506480e+03,2.828250381688154448e+03,-9.818880389506474959e-02,1.408884303669852567e-01,9.851443594612840915e-01
2.205735124387020278e+03,2.010183578751189998e+03,2.810707563119912720e+03,-5.306022601736275907e-02,9.015763105462641924e-01,4.293538967760426317e-01
2.231520228929668065e+03,2.278252043456554020e+03,2.464075480056917968e+03,-6.484449544620500550e-02,2.937050610944237361e-01,9.536941482980001439e-01
4.611545297093005047e+02,2.739091626103284398e+03,2.093765235661586303e+03,5.256531911590114348e-01,6.383594416040955233e-01,5.623041400694601677e-01
1.222958768849020771e+03,2.873777035697283281e+03,1.945089212254422364e+03,4.218305332882902881e-01,9.032019914267193084e-01,7.927902540095410622e-02
2.326596780916632724e+03,2.505179275645340113e+03,8.276989101577855763e+02,-4.661676922100569387e-01,-9.166731483731763164e-02,8.799345351388736525e-01
5.110533443771328734e+02,2.574140877010690474e+03,2.000970047846651823e+03,-6.560070081741734560e-01,-7.097951096947068272e-01,-2.566041844550653317e-01
5.637139036848972182e+02,2.668959177851535514e+03,3.949114400138796555e+02,1.844526737939816419e-01,2.711867286874466432e-01,9.446877628687968542e-01
1.800661863023197384e+03,6.459049254666433626e+02,1.720306789091975361e+03,6.079730399258449491e-01,-1.829923180042545075e-02,-7.937467611517172728e-01
1.732214163535104717e+03,1.019709862949163380e+03,2.303461872515475079e+03,1.662897347530548631e-01,-9.791622802517545576e-01,1.165716648587604709e-01
2.895961399397121113e+03,1.387644320408476915e+03,1.478431247405108707e+03,-2.746481213049759562e-01,-8.718431643225351690e-01,-4.055341000307080557e-01
2.488449274748992593e+03,1.047089968379868651e+03,2.375760284954956205e+03,3.528704464218829773e-01,8.928383794919195204e-02,-9.314026220293152303e-01
5.097988769324135205e+01,2.081708316403695790e+03,5.091715834384187360e+02,5.306383787247106465e-01,-5.712984481492423550e-01,-6.261317706095724800e-01
2.059533951306066228e+03,7.540004681218148619e+01,2.826770815826692342e+03,-9.899780914800564435e-01,-1.100744759440913240e-01,-8.847026695528037443e-02
2.455921133003751493e+03,2.097671780401609794e+03,6.393569603088774329e+02,7.301608915413533296e-01,-5.975018467103971886e-01,3.314462484946860688e-01
9.640235300347417251e+02,1.202891536515016014e+03,1.802774426417281575e+03,-2.824235932265614646e-01,5.906564699229286397e-01,-7.558848116791224703e-01
5.776377743550099240e+02,7.545177031378898391e+02,6.104458604436400719e+02,4.787610518088814548e-01,-5.746565147658023731e-01,6.637452412696265291e-01
1.820336574817364180e+03,2.418461432907204198e+02,1.549538596056088409e+03,2.298173484547324785e-01,-7.471517108115555139e-01,6.236572034223624161e-01
1.200443637656661167e+03,2.412938841618978586e+03,3.569019639623081162e+02,6.384731154383241902e-01,-5.949703185074899370e-01,-4.882237201914469971e-01
1.813894378884680236e+03,2.676741996319211012e+03,2.277805581760553196e+03,1.444101620772470229e-01,-7.923656306397335314e-01,5.927076956390229245e-01
1.871149275324523160e+03,1.246717315731449389e+03,3.366454460934384088e+02,-4.786903160777633004e-01,1.652294928801990026e-01,8.622962344669744539e-01
1.700346047345583429e+03,6.686329463699019016e+02,1.073589693587196507e+03,-2.443725330427621301e-01,1.417677416688713221e-01,-9.592622021722592152e-01
2.121153829825372213e+03,2.622673638805343671e+03,1.305836004196254407e+03,6.257683414488314222e-01,7.786635019476901842e-01,-4.579447100839063173e-02
4.923277787018268441e+02,1.824602107196339375e+03,2.722343712877686357e+03,8.801745890818910567e-01,-2.061562968577116128e-01,-4.275421312577736277e-01
2.808452065036726253e+03,1.195495000919572931e+03,2.925817307046669157e+03,-9.317980155613702076e-01,2.454369460568634476e-01,-2.674194527445092895e-01
1.859006949288021815e+03,3.744539466490226687e+02,1.725468336181381119e+03,6.734834499698688637e-01,7.231344838383564344e-01,1.532858796514442457e-01
5.456419159638489873e+02,7.427430487292137968e+02,2.115634156304706721e+03,9.688783964665359516e-01,2.287874997370955843e-01,-9.450361275889074264e-02
2.011097289302136232e+03,8.606154905384763651e+02,3.249079419472536756e+02,5.975808772721888928e-01,3.236336026867206450e-01,-7.335927932651840067e-01
2.212732170727477296e+03,2.810764956435782096e+03,1.935337808629275742e+03,-3.458467019819140287e-01,-3.300657913733162085e-01,8.783203470792075862e-01
7.850503435105930521e+02,6.069565673131957055e+02,2.730722431480798605e+03,6.766723143250918948e-01,-7.314902844681068217e-01,-8.388410311073313252e-02
1.188638454903297998e+03,2.376924945307126109e+03,1.608625874566599236e+02,1.972144451775310336e-01,1.763551901625997342e-01,9.643678289511901092e-01
2.293658591053590953e+03,1.916189410435987156e+03,1.908872745778499393e+03,-4.080772109259552805e-01,-8.726435488527239936e-01,-2.682652168444819574e-01
3.295968548897783990e+02,1.772046278753320848e+03,2.991734020170602435e+03,-9.185493112441072139e-01,3.601215597658024570e-01,-1.630325887815740060e-01
2.935512267569317828e+03,2.864883292229833387e+03,2.184610555236598429e+03,5.483361268487934037e-01,7.395671291136409753e-01,3.903433789973532186e-01
2.390824697985035073e+03,1.080644481702508983e+03,2.740507247865523823e+03,8.167301491489336041e-01,-1.780032722837102399e-01,5.488776717333764266e-01
1.887047412209702316e+03,2.666443935910724576e+03,9.973087297261110962e+02,1.863258571590060420e-01,-9.564746531647011496e-01,-2.245860921950117994e-01
4.379942722833574180e+02,2.789858642972614234e+03,2.900080459623678053e+03,6.403971372099099835e-01,-1.265828480081891971e-01,7.575409488888948939e-01
9.698938611340892066e+02,2.173608285495747168e+03,1.883825344710712216e+03,2.907619278247728367e-01,-8.546069456783965401e-02,-9.529711281101878040e-01
6.200886267809727315e+02,2.056336586951549180e+03,1.850406250332426225e+03,-9.700811051839655086e-01,-2.240432033641118759e-01,-9.352696077283351173e-02
1.243720099582172452e+03,1.900919126699577873e+03,6.858457994165513583e+02,-1.964316056711288838e-01,-7.064926598754329712e-01,6.799137782363275928e-01
1.545018704679370785e+03,2.508232705494272523e+03,1.294171041478679854e+03,-4.242676363754635527e-02,9.864598830938471341e-01,1.584199128068095597e-01
8.449984533338973733e+02,1.366500592460731241e+03,1.037786080583548483e+03,2.072338082146223462e-02,-7.622844386339414635e-01,6.469103308062605917e-01
2.814168094227669826e+03,2.192236700284980543e+03,5.193714165686219530e+02,-1.313196961313682076e-01,6.094094277519007674e-01,-7.819049090363008325e-01
8.735078668949925031e+02,1.218023954873199045e+03,2.605053373150312382e+03,-3.555657842747744213e-01,3.456727206894743554e-01,-8.683797229462473233e-01
2.787123328910435248e+03,3.928344885056524163e+02,6.264031840208069752e+02,6.579969255307801523e-01,-1.882571483558444225e-01,-7.291085598763511477e-01
1.997368998617178306e+02,2.854166393882635930e+03,2.291623065645841962e+03,-2.093329811840013988e-01,7.896003647173993611e-01,5.768110323379473936e-01
2.339695203868448971e+03,2.053049192371093341e+03,8.869571771907545781e+02,5.941348817156979489e-01,-2.903789614165525057e-01,7.501225240554492135e-01
3.640538670135908887e+02,9.623528395502285093e+02,3.950617870870715365e+02,-1.788858473159239959e-01,-4.908514626704175710e-01,-8.526808870992568234e-01
1.327553967244489513e+03,2.529129290120641144e+03,2.387582073474128265e+03,5.872166036667982730e-02,7.129919401738415985e-01,6.987089951123581777e-01
2.690925647713161197e+03,3.872899661224631132e+02,2.732093856469072762e+03,-8.798180060492706289e-01,-4.690530154323809264e-01,7.687356467132366866e-02
3.114899053425230591e+02,1.133239492509127103e+03,1.646156869215362804e+02,6.387177351498615763e-02,-9.797453157220296083e-01,-1.897880735683643572e-01
2.761057573753071665e+03,2.909016877727985502e+03,1.028892023895896045e+03,5.067156512308438332e-01,-9.748902717621658540e-03,8.620581231526700527e-01
7.915464075614673902e+02,1.112173419563266179e+03,1.962309572244852234e+03,7.288390782807210866e-02,7.579803828728064186e-02,-9.944559283203600053e-01
1.483641375143719642e+03,2.799868603474246811e+03,1.685109796325277557e+03,-6.247736452683655406e-01,7.326115270848699845e-01,-2.700708102710349667e-01
1.829211614865200090e+03,1.304896545442334627e+03,3.348914689819720820e+02,1.005094868608291626e-03,9.246077151466841615e-01,-3.809193653196609741e-01
2.260716203019778277e+03,2.664059062723291618e+02,2.186106072687672395e+02,-4.538640989252445967e-02,1.538851483918371177e-01,9.870458119568159550e-01
1.050433122665314016e+02,7.996062902636701892e+02,5.055136090036529595e+02,-9.283932768144916858e-01,-2.198129514289029751e-01,2.996134008180633135e-01
2.692416833879528440e+03,6.567540585847912098e+02,1.373062969471899123e+03,9.292761574936386770e-01,-3.584836851219439513e-01,8.908013591844721191e-02
2.529003388024329524e+03,6.584311752269367268e+00,2.265590459918524630e+03,5.837020407330831828e-01,3.017233509140559988e-01,7.538268681582180886e-01
1.596630738069483641e+03,1.699626348109114815e+03,8.117678798679651209e+01,7.367817155757448999e-01,5.185944737902578039e-01,-4.338346175070262323e-01
1.416220619998084885e+03,2.118043228507786466e+02,1.351604707697360027e+03,2.911592963277324225e-02,8.266362262994982890e-01,-5.619829285760771231e-01
2.697590836879790459e+03,2.302172700169062409e+03,1.024359497388006730e+03,-2.940279719039717854e-01,-7.465773172343198594e-01,5.967996825813860484e-01
2.602878318710336771e+03,4.193543955993439454e+01,1.553262884514785128e+03,-4.256662773260923016e-01,-7.873135933071343517e-01,4.460330998268564606e-01
1.266997627802022862e+03,8.142726665797084706e+01,5.026623837476579411e+02,8.953867381077644794e-01,-4.207450480905080559e-01,1.457950401353003411e-01
4.828835222499483848e+01,6.150961730664994320e+02,3.879914030945607237e+02,-8.884317455503037975e-01,-2.993613178667811625e-01,-3.479537826543983581e-01
1.544557354188695854e+03,1.287526575724202758e+02,2.697019041647143240e+03,-6.937415570216677596e-02,-7.375258301472679134e-01,-6.717461398372117642e-01
2.413529943725063447e+02,3.466562464269474617e+02,3.088627143036281950e+02,1.826381465633712675e-01,-8.280402291889175093e-01,-5.300874326605578002e-01
3.702460502030530165e+02,2.099921821448876926e+03,2.353148158252172379e+03,4.320519915394712140e-01,-3.999616041400951283e-01,-8.083079807972073372e-01
7.737739186438955130e+02,1.730805754332935976e+03,2.793893607111024266e+03,-1.825962667870799361e-01,-9.815245148883836590e-01,5.716843559644414069e-02
1.036468321648319034e+03,1.189540540507997548e+03,1.849737064190972887e+03,1.532944711265985249e-01,5.932974531015644537e-01,-7.902524516034186153e-01
1.317582212748115353e+03,2.506603509476492945e+03,2.769396263556886879e+03,-5.396739359617229725e-01,6.274810715875132061e-01,5.612660221703860142e-01
9.160115410226200083e+01,6.682748029624884794e+02,2.678885726747323588e+03,-2.656343908537794896e-01,8.160759254314564615e-01,-5.132820416953367548e-01
1.684886837363830182e+03,1.977045096535656285e+03,1.392699813374045789e+03,-7.658697545876376189e-01,-2.336451981451554971e-01,5.990437716824896786e-01
8.343877651638188127e+02,1.657795717552626456e+03,2.070320911874687226e+03,-6.171169112338092955e-01,-4.712330708341007646e-01,6.301635587857379317e-01
2.772306973053854108e+03,2.641733677780447920e+02,1.640247384867705932e+03,8.501213663828421918e-01,2.274155863418142465e-01,-4.749482219233781000e-01
2.548800493375485530e+03,2.895711996754175743e+02,7.381782228352914217e+02,7.773821206761899472e-01,3.755411903024556408e-01,5.046244671428490314e-01
1.654619175426144466e+03,2.623225145488116141e+03,2.161762912313545257e+02,4.665500195257911153e-01,-2.857080497163690946e-01,8.370794404402444044e-01
8.358270482236633825e+02,4.543092055459075027e+02,2.585837016775848042e+03,3.090575176290262238e-01,3.558781548649036369e-02,-9.503772715011042926e-01
1.551843836890014245e+03,1.145569437290337646e+03,4.516870623624745917e+02,-1.010988677295951155e-01,-1.717937072247895658e-01,-9.799316002159319527e-01
4.404316364164246806e+02,2.054854535552364723e+03,1.970706969625317697e+02,-5.373935102804593411e-01,1.278272129309870608e-01,-8.335876790972511774e-01
1.545087938299164989e+03,1.682721096035117625e+03,2.820517992081152897e+03,-9.018296821453363199e-01,-4.632794767080183201e-02,4.296009144150569892e-01
1.570192107889126873e+03,1.989409745302011061e+03,7.081906191368466352e+02,6.313245299027513413e-01,4.390834928728654662e-01,-6.392456681352126635e-01
1.339337052909516387e+03,7.601483189610231648e+02,2.381476499096936550e+03,-9.838935394515652133e-01,1.334452427544194630e-01,-1.189364124718981230e-01
2.837254568510146328e+03,1.946543742333309638e+03,1.385322678762708847e+03,-7.244248453583516101e-01,1.964165051039815924e-01,-6.607792369243044028e-01
2.670904212361053396e+03,7.325203860611551363e+02,1.172420332838363720e+03,-1.508247278902896116e-01,-3.112492704736298799e-01,9.382834289735981770e-01
3.883283742402555845e+02,2.868445834112047123e+03,2.952433629112119434e+03,-9.706278277874694771e-01,-1.738103581144027077e-01,-1.663477662510730593e-01
3.227980938552154271e+02,1.305678097212590387e+02,1.488543578077515122e+03,-3.915585644526187736e-01,-8.198220597425464051e-01,-4.178201538500666001e-01
2.446108176778166580e+03,1.989685586417202103e+03,2.267712308350152853e+03,2.704342931071576084e-01,1.947132746566495043e-01,9.428425286250701198e-01
5.300144704944569867e+02,7.541611034383506649e+02,2.635969673455873590e+02,-4.496226382069348215e-01,6.986415609123272086e-01,5.565424086067680687e-01
1.167119949602098927e+02,2.347529535409875834e+01,1.182081267416928938e+02,-9.813712289918416487e-02,-9.320841396095962406e-01,-3.486950842746556756e-01
2.054888660003790392e+03,1.009966795923746190e+03,5.123172144270250783e+02,8.455231064152340936e-01,-2.496104192782675202e-01,-4.720013931183468792e-01
2.366949094168295233e+03,3.658973716520087578e+02,2.996027580173870319e+03,-9.495887098992473740e-01,3.057790101875540022e-03,3.134835433504858937e-01
9.430446717434157335e+02,2.228725723728481171e+03,3.105350353555068637e+02,-2.914929998023850499e-02,9.554957389090672493e-01,-2.935612563627523208e-01
1.062409744219321283e+03,1.452154553825902212e+03,7.187718372281351549e+02,2.566845666236426404e-01,-6.152091160860835295e-01,7.454064506977469140e-01
2.021661185442190572e+03,1.185779870893737780e+03,1.043343659822960632e+02,6.738422440637668043e-01,-2.405883861032636628e-01,6.986085159710937464e-01
1.379098886448780661e+02,2.737936406380463268e+03,9.085157464217596726e+02,-5.020587837106302853e-01,-4.434895180357717459e-01,-7.424648308784743689e-01
3.148181859681516812e+02,1.186828828000549493e+03,9.612235797564953828e+02,3.105889279068463349e-01,-9.485596011663329774e-01,6.139381806699506505e-02
8.010821438252419284e+02,2.530590430482544889e+03,1.356151887083213296e+03,3.903793116905267535e-01,-1.171795943534305051e-01,9.131664337190652514e-01
1.053094121390019069e+02,2.095712217111303744e+03,4.497377388275890553e+02,6.938090882480021371e-01,-2.113043779498501029e-01,-6.884616248736765698e-01
5.019466850520358889e+02,2.978219407803233480e+03,1.529036976972401135e+03,-6.067930951929778605e-01,5.967464923184181425e-01,-5.250673895147077719e-01
1.157033570260229226e+03,1.719277266785418306e+03,2.300423199631162788e+03,-6.375646343805918548e-01,-2.181811648295371997e-01,-7.388560863258613054e-01
1.351184504705134941e+03,3.058693241697429954e+01,7.568855047270106979e+02,8.880094972251383334e-01,-9.371585186191956629e-02,-4.501738241476862523e-01
6.825246990554626336e+02,1.438249579620088298e+03,2.437795962032935222e+03,-6.982451572582846211e-01,-4.544385824318665223e-01,-5.531177769360421381e-01
9.662469017701115490e+02,9.024015434028001437e+02,1.157430333450905437e+03,2.423936491238925239e-01,-2.640050515673625364e-01,-9.335666294439393109e-01
1.328853168443988807e+03,1.511962640529850205e+03,8.157577716532226759e+02,-8.804180124921968664e-01,7.480210922315731759e-02,4.682614309710513290e-01
2.555889314437496068e+03,1.426808189201752157e+03,9.193149439831992140e+02,1.506768553027685587e-01,-6.564038997251716578e-01,-7.392093111573037056e-01
1.303318916740865689e+03,7.647506035949720626e+02,1.388596772933801731e+03,3.179068382772535784e-01,8.316570453575850008e-01,4.552821115348724135e-01
1.003457456863489028e+03,2.392773603100520177e+03,1.107382500363430751e+02,4.518002400833817100e-01,1.383087455856898407e-01,-8.813326465955471090e-01
5.211348894478489910e+02,3.842443374306508872e+02,2.513668677216573855e+01,-6.931161411611689305e-01,-5.753074375679052554e-01,-4.342941021253932110e-01
9.939038329992105218e+02,1.761392220399020061e+03,1.577809422259156236e+03,-9.112031340611707886e-02,-1.938214670271631024e-01,9.767959497275822134e-01
1.843341414127467488e+03,1.149050671270616135e+02,2.937277040802352076e+03,-5.219204713819219910e-01,7.562623514524519086e-01,3.945456593704721460e-01
2.897283917886786185e+03,2.219052888385990627e+03,3.856544535976291854e+01,9.016086368252960170e-01,4.314245244943593072e-01,-3.122091713655539627e-02
1.499039383483504935e+03,1.455394913890470661e+03,2.059015176072445229e+03,6.983644328030172987e-01,6.363133379543733925e-01,-3.277078804927999744e-01
1.551383580104374460e+03,1.330090939971205898e+03,1.579192254753937732e+03,9.672051253618149103e-01,2.537105691417062756e-02,-2.527262450654734760e-01
1.337846593725745834e+03,2.147670754759197280e+03,8.122831597043032161e+02,1.380450124773786036e-01,-8.633938360170098081e-01,-4.852779187825808638e-01
2.271769486730884637e+03,1.009615761545249029e+03,2.966579770200642088e+03,-7.653195561587826656e-01,2.830557567095749461e-01,5.780704243900512962e-01
1.168982974768220856e+03,8.888639380593820079e+02,1.519653417152311931e+03,7.993766232096964908e-01,1.050755890337798787e-01,-5.915709043344399287e-01
1.071746952005578123e+03,1.875437174372450272e+03,1.309295305637249839e+03,-2.182720791054144349e-01,-6.325917523073687487e-02,-9.738354975210785636e-01
5.725468176883989599e+02,1.157824782285449146e+03,2.740442781483622184e+03,-7.674784936024108273e-01,5.825966196060514690e-01,2.675031601334383335e-01
2.886491912645945490e+02,2.878937728521581903e+03,3.041980478089089956e+02,-2.167638168039917601e-01,-9.488208555486464801e-01,-2.296789755299775138e-01
1.869710692089010763e+03,2.957171212809393637e+03,2.792880601176996606e+03,7.942913664824392539e-01,5.866803496077134250e-01,1.578207607244066502e-01
2.985166807819859514e+03,1.126974011363200816e+03,1.319831150854630323e+03,-1.091097917898831426e-01,-1.538403219456840332e-01,-9.820530579755946121e-01
2.371714707136564812e+03,6.477395144667815430e+02,1.287261489443253595e+03,-5.712061666726556686e-01,2.887337922694150349e-01,-7.683464793677736715e-01
5.966233732094032121e+02,4.333566944339051474e+01,7.231047161770218281e+02,5.855797775167499442e-01,5.005114275512076993e-01,6.376398944969535743e-01
2.133464728621709583e+03,5.443034256570443858e+02,1.995627710202821390e+03,-5.604231171270914746e-01,4.590951191994891434e-01,-6.893167641344297714e-01
2.727940578682038449e+03,6.585419890658074564e+02,1.880327428556577445e+02,-4.456224052529719759e-01,7.361409017657295495e-01,5.094283508837084140e-01
5.287522651837299463e+02,3.416009138566930119e+02,1.183156910540097670e+03,-9.296235789509085246e-01,-3.590235068856285072e-01,-8.307901637627290725e-02
1.708982456182024180e+03,1.136215206907038691e+03,2.785242346781108608e+03,8.288489628869106784e-01,-1.367240631806073969e-01,-5.425089190683207718e-01
1.897652680112181997e+03,2.075316242304786556e+03,5.348602428328026690e+02,-7.781615927982890035e-01,-5.864644909296125030e-01,-2.247753019624277038e-01
1.938096235850463245e+03,1.876459224620441773e+03,2.722440907040542243e+03,-5.851900366422509991e-01,7.849494669111525269e-01,-2.034869907648604315e-01
2.860587834892029150e+03,1.901816424481645527e+03,2.446942954528247355e+03,-4.768983267408687388e-01,2.913816246014710454e-01,-8.292555304587163612e-01
2.054098128061817079e+03,1.934281766699180253e+03,1.580801617390602587e+02,-1.333169084194883204e-03,7.551530065271224723e-01,6.555472213298144668e-01
1.477539608991804926e+03,9.153503969508150249e+02,5.091109547425330106e+02,-7.618917836022589540e-01,-3.821948571745473200e-01,-5.229225575825697803e-01
2.893759091335439734e+03,4.370700221574638249e+02,1.585432849550357787e+03,2.645135207942811983e-01,4.616176862922297119e-01,-8.467241044278956963e-01
1.842272419854771215e+02,2.201169905534242389e+03,8.280857205360814532e+02,3.047763071898700882e-01,5.247771755750670064e-02,9.509771247173406383e-01
2.281767281756422676e+02,2.162423144699299883e+03,2.223709045251792304e+03,-6.895361402913643412e-01,-1.188111819633347749e-01,-7.144395105763421405e-01
1.295785043104634951e+03,1.106762715158035462e+03,2.698292715209487142e+03,-3.187115318107415773e-01,5.804371779268613363e-02,9.460728757953340562e-01
2.456207593522825846e+03,2.127724203825309814e+03,2.724033047942767098e+03,-4.030709769016020405e-01,-5.449212468156785505e-01,7.352514007796480122e-01
5.208852850242890327e+02,1.819891564375969438e+03,1.113500076658045145e+03,-5.847514095911211518e-01,8.080247246306305753e-01,-7.184590013905078898e-02
7.509434727576496016e+02,9.234141844891418032e+02,2.623987166066781811e+03,3.077894717068324071e-01,-9.504519791701562248e-01,4.366550581365192391e-02
2.635959929404848936e+03,1.633813307860269333e+03,1.091705877891419505e+03,-9.588379911065696426e-01,-2.823287811998275165e-01,3.033424000923612418e-02
1.364409269842759009e+01,1.540227259891519907e+03,1.364703673937506210e+03,9.929472753127838169e-01,-3.601664405914200423e-02,-1.129535736470337337e-01
3.058751554142555733e+02,2.766347387857760168e+03,1.733018390863553122e+03,-9.194761733862563680e-02,9.460510843165697015e-01,-3.106975724546179873e-01
1.588145122708210465e+03,1.512481293366860200e+03,8.633209303555412362e+02,4.920519036756912379e-01,-6.403684800867035509e-01,5.897568429451018890e-01
1.779353166259284365e+02,6.563721254226486508e+02,2.679192543983447194e+03,8.646567758553069805e-02,-4.211036507053867450e-01,9.028817209149107015e-01
8.450105356548726832e+02,1.732241575206186781e+03,1.203637966669658454e+03,-9.651208012790393198e-01,8.008348377433688325e-02,-2.492558415866530652e-01
2.216385307300886780e+03,1.098809003756261404e+02,1.759716350847220156e+03,-7.399614930917139954e-01,-6.713602906361353373e-01,4.162149562960770766e-02
1.460023782898609170e+03,2.068573430733484656e+03,9.477926382599113140e+02,2.109339302807378691e-01,-7.375038685068898703e-01,6.415566389600320107e-01
2.634210383093133714e+03,2.962243892884646357e+03,7.170034314985563242e+02,-5.830502238912980140e-01,4.084018871307986687e-01,7.023249497264849595e-01
5.696005449155338738e+02,8.370902729997058032e+02,2.788657752434344275e+03,-2.638937154664232621e-01,4.323453272838109762e-02,-9.635823172501065681e-01
2.186192438384320667e+03,2.646764120166039902e+03,1.042892421704319986e+03,7.893747782359226139e-01,5.526035441111375457e-01,2.674262188357719450e-01
7.413188983437885327e+02,2.846078241710021757e+03,2.754159658846741877e+03,6.706781255103351491e-02,9.849171245907047956e-01,-1.594997373276754171e-01
4.892520449040468407e+02,1.110745702988200264e+03,2.705037899267193069e+01,4.522672816851232014e-01,8.498595992350780337e-01,2.705419884327425195e-01
2.499502940216528259e+03,2.811332752459792573e+03,1.104911424373863383e+03,-2.090322399720738467e-01,6.394967709666311562e-01,-7.398306580397364662e-01
2.651175947942113453e+03,2.077656891634904241e+03,1.180340696846878700e+03,3.738291026801112138e-01,-8.017092114298756123e-01,4.663841145427982671e-01
1.200333660306621368e+03,4.293158507163884678e+02,6.408233835788192891e+02,-8.707097572719572076e-01,4.056134122623620275e-01,-2.781047974852151050e-01
2.704291506432876758e+03,1.720404547999918350e+03,1.320443901985917137e+02,-9.766036413784896786e-02,9.906591494038139434e-01,-9.516776228836511253e-02
2.229045113780683096e+03,9.753062302326756026e+02,4.610970256225841695e+02,2.766411165339431877e-01,-5.526216176938818503e-01,-7.861800304639201542e-01
1.177449560253946402e+03,2.550278853578843609e+03,8.073449809726463400e+02,-4.044793617207311787e-01,-3.369644048832604044e-01,-8.502067017988390596e-01
5.271964195380562934e+00,9.659588334141133146e+02,1.318777829059570195e+03,-5.216585441178286375e-01,-1.745988239747309212e-01,-8.350973679850202114e-01
2.938453690152486161e+03,1.686795701397567427e+03,1.974387841028544699e+03,-1.221024383298076194e-01,-1.862345526344149627e-01,-9.748885505323030554e-01
5.093281365564369594e+02,1.294979656981407743e+02,1.901758024129589558e+03,7.151844392234023573e-01,2.265922936372171403e-01,6.611861692117680933e-01
2.406541942025464778e+03,3.774209187338418587e+02,7.633367355271990391e+02,-6.949993139015243904e-02,6.732364074681865818e-01,7.361538556552523760e-01
2.413086241416237954e+03,1.931409599706233394e+03,1.707790849294700365e+03,2.675781692821694313e-01,3.893273835897357316e-01,-8.813773945993699233e-01
8.931528976512105373e+02,1.486914216469041776e+03,6.396386041073442641e+01,6.242436700157161233e-01,-7.788355967665647750e-01,-6.111426719333978852e-02
7.471678637552266764e+02,7.498899378629414514e+02,1.793081729329627024e+03,1.404100465818660104e-01,-1.780734259279799780e-01,9.739480857813471726e-01
2.513596066798434549e+03,1.517580919437860075e+03,2.716469818946486157e+03,8.304946965220814936e-02,-5.276407481251179643e-01,8.453981467382412074e-01
6.328007156073323358e+01,2.642500621865317498e+03,2.094096614498115287e+03,4.280883499262385095e-01,8.856315740245011003e-01,-1.799918880069739935e-01
2.775838746382509271e+03,1.770142971792500020e+03,2.835490344397875106e+03,4.802418364568811771e-01,7.456106417349965543e-02,8.739613413794899976e-01
2.442857522748859992e+03,1.369415395431128246e+01,2.952402930548668337e+03,-8.885959328767190080e-01,-4.155282178155618178e-01,1.942513018591552065e-01
9.180052836083685861e+02,1.498834805690528810e+03,2.709399200028190535e+03,8.936604820054052656e-01,-3.815476904751932130e-01,2.362039432247333981e-01
2.238392454405601256e+03,7.410861897952329400e+02,1.745000506496947764e+03,-7.396002362253273343e-01,2.440989608241431741e-01,-6.272218011995545073e-01
1.527120063075127973e+03,2.157412588545194922e+03,5.515387648290300149e+02,-3.420123112835291024e-01,-3.922998010628150345e-01,8.538901832300066497e-01
1.085708417398620441e+03,1.974552894787908599e+02,2.353024340960473182e+03,-4.217383916454869319e-01,-8.263530657136520796e-01,-3.731987939395389198e-01
1.736381413825662776e+03,2.978557771715898525e+03,2.956950955727774044e+02,8.986427994754245807e-01,-4.038568076486189762e-01,-1.712915580723066988e-01
2.693812776105261037e+03,2.865475988052814955e+03,2.697333110995596599e+03,-5.221479894036712421e-01,-2.329462709814366372e-01,-8.204252019517359606e-01
8.006692133215092326e+02,2.562361694127320334e+03,1.771782362014498858e+03,8.273782425981084376e-01,-5.933385423867643810e-02,-5.585022268679411539e-01
1.723778498007953885e+03,1.037018130191258251e+03,2.910396339934962270e+03,2.785873694351158614e-01,8.570412843559919169e-01,4.334389397604399563e-01
8.627644603365487228e+02,7.092681581323778346e+02,8.923487856457641101e+02,-6.570310806610584198e-01,2.752295809170877960e-02,7.533609001157703933e-01
1.872835404310440708e+03,2.515459254182521818e+03,2.344569560682033625e+03,3.530969196531211218e-01,-4.790623032056390840e-01,-8.036304343283582341e-01
4.368039496573363749e+02,9.856428089921091669e+02,9.378903529497240470e+02,-4.662199864575218289e-01,7.583470021263277738e-01,-4.555751843478304530e-01
3.151188258274495269e+01,8.031069555145397771e+02,1.484467077894901195e+03,7.009594486208816644e-01,4.011922376480383523e-01,5.896614620611300150e-01
5.694626481362175809e+02,1.898313984811198907e+03,2.609010841638333204e+03,6.026563228839205699e-01,7.953047752891579947e-01,-6.554136777863052432e-02
2.155210466494646425e+03,1.162043650432860431e+03,2.333724794704970463e+03,-2.851340462851685298e-01,6.995914711730326641e-01,6.551872626287841284e-01
1.966795607987450239e+03,1.583713561947709877e+03,2.290546234484012530e+03,3.423746179063998918e-01,1.087208037081608680e-01,-9.332520601930103243e-01
2.120479669274948719e+03,2.671140374648702618e+03,8.081902441003710464e+02,-4.945900863633445055e-01,-1.503110376417291782e-01,-8.560299284687225008e-01
5.212301795056973788e+02,2.675759427358500488e+03,2.936994324846105428e+03,-4.995239206135679982e-02,-4.404095397292920877e-01,-8.964062671817849548e-01
1.651718343936019551e+02,1.336680071719968510e+03,1.900136526676003086e+03,3.415320319660684611e-01,-8.004197306651004151e-01,4.926298061456864663e-01
1.618394328563070985e+02,2.786267556255618729e+03,2.031981010006557653e+03,-7.324276547753089117e-01,-6.786312393930497011e-01,5.485773819794381723e-02
1.677436137925076537e+03,2.534810920684601115e+03,1.831282131986087052e+03,-8.407807393542450214e-01,5.032879281071326316e-01,-1.994718269645086028e-01
1.999057869808975056e+03,2.410239585400603119e+03,2.800714212120026332e+03,-1.008353854105145525e-01,9.327837235948902572e-01,-3.460444336289263956e-01
1.889792270728159792e+03,1.323947441293439397e+03,1.095891744510930266e+03,-5.601256031940197166e-01,3.923630590789454753e-01,-7.295961475479071368e-01
2.257574191757380504e+03,1.828158229027563493e+03,2.957110137266334277e+03,-5.881205757346676943e-01,7.179289592861269886e-01,3.724140139896212620e-01
2.528360295368547668e+03,2.422432728245156795e+03,2.238424848655279220e+03,-6.553016207900012047e-01,-7.349403557864827574e-01,1.744776754385375384e-01
5.753701468170675071e+02,2.011664521786188061e+03,2.571810167806562731e+03,8.914030158439872897e-01,3.901491442028055534e-01,-2.306172340092182971e-01
2.690196273327531344e+03,3.033196089967256057e+02,5.739711031254558975e+02,-7.392349148786543367e-01,1.619651446814515117e-01,6.536811398018649300e-01
1.803015633812881561e+03,1.794584581006408371e+03,8.598810506897369805e+02,-2.653277591645619160e-01,9.316737542027612173e-01,2.481636475119695096e-01
2.585383467503339944e+03,1.597007616668942546e+03,3.778295133101384522e+02,7.686915122857169713e-01,-1.083885578230380231e-01,-6.303691612642066122e-01
1.813877677711619299e+03,2.273630007498763007e+03,1.262001278011797694e+03,4.463350922103139773e-01,2.042010113143570005e-01,8.712559511646416066e-01
7.491390979392239160e+02,9.769760650219907347e+02,3.448169980584135033e+02,-1.328714526746585523e-01,8.079760645424288734e-01,-5.740382009854874124e-01
2.877376299511824982e+03,9.605416235107326202e+02,1.682714711361397349e+03,4.127742314916543198e-01,6.095655023175303722e-01,6.767919415897702962e-01
4.410058541772266949e+02,2.148898338511584825e+03,5.145203267116588677e+02,6.253607787650213856e-01,7.391290440982248855e-01,-2.502242045703225171e-01
