x,y,z,nx,ny,nz
4.302237606862208281e+02,9.193039201039287889e+01,1.828532834554470412e+02,2.164048211003758160e-01,9.752949437888347450e-01,4.437032819856124438e-02
1.665780007445586364e+02,7.044866945076607863e+02,2.490724864111505212e+03,9.773040930710812091e-02,-4.058089960235571891e-01,-9.087176821450200226e-01
2.528277028585420339e+03,2.352126533983249374e+03,6.562674347361397622e+02,-9.466536930171276509e-01,2.557521995583687535e-01,-1.960550889879941749e-01
6.330948667013091153e+02,6.784736103097235400e+02,2.072087597605832343e+03,-1.431692306087650746e-01,7.027466282657569563e-01,-6.968857495084861409e-01
6.543250075053053934e+02,1.134256509652497016e+02,2.095016201386772082e+03,-7.056076754486105829e-01,6.823361410927899495e-01,-1.911418292959670140e-01
7.838838437329823137e+02,1.081000776904216536e+03,1.772897015444648787e+03,-8.108226308271639926e-01,1.975304047757589776e-01,-5.509522670137962930e-01
4.142819916110046279e+02,9.209098116514901449e+02,1.656636830808313334e+03,-2.078644993802468421e-01,-9.580155810120314364e-01,-1.974803697474236674e-01
1.412171132722148513e+03,2.463138211371592206e+03,4.283079500808957505e+02,-5.799091937627320892e-01,1.995823116025053356e-01,7.898558272779017120e-01
1.907725218706834312e+03,1.625500713973108077e+03,2.469750399439394187e+03,5.337699736944181428e-01,5.677251959605021936e-01,-6.267198074529554130e-01
2.993440061308244367e+03,2.965932486978056772e+02,1.591355428006465900e+03,4.152811235848797855e-01,-7.270443471434727689e-01,5.467614705525629670e-01
2.985500701466750797e+03,1.656768473063265219e+03,7.223605229464009199e+02,-8.758034421326033048e-02,-9.953623508282976040e-01,3.979288706605733222e-02
8.169305923796954403e+02,2.466279074820561164e+03,2.487344665148347758e+03,-7.990854139159928593e-01,-5.926227009545607105e-01,1.012957826369274006e-01
2.346411988315531744e+03,2.661234592756621169e+03,6.035761414764473365e+00,-1.786715059047002396e-01,2.660570738430723114e-01,9.472539925678902240e-01
1.103049601325047433e+03,2.533090149986661800e+03,2.210377916821509189e+03,-6.422577153395497840e-01,4.184640576079368679e-01,-6.421782148104395738e-01
2.409339963709393942e+03,7.088414286582791419e+02,2.490500708802672136e+02,1.827132633674625750e-01,9.291012959963328433e-01,3.215379373690561149e-01
4.836147128106085233e+02,2.370325058293788516e+03,2.945920575663563795e+03,3.365608578938542039e-01,-5.200738903159005666e-01,-7.850158836262088879e-01
1.542325958929304761e+02,1.563922785125581640e+03,1.445768757670266723e+03,-3.347055105758429683e-01,5.245528245429259551e-01,7.828260058622238393e-01
3.969180301340730352e+02,1.165509757673667536e+03,1.618076509282631378e+03,2.484703646000762101e-01,7.297604468702201252e-01,-6.369553894106572134e-01
2.228389339865938382e+03,2.830472717734232901e+03,3.814658845673960741e+02,5.996338697074183877e-01,7.945100822788120354e-01,9.587988035569439127e-02
1.183712170365909202e+02,1.286719449448730757e+03,1.275968277879088191e+03,-7.275254476114660918e-01,6.023869998113779989e-01,3.283848740974269487e-01
2.889099165006684302e+02,1.713473279487603804e+03,6.520155906086089317e+02,9.634719614744071681e-01,1.065541963709507045e-01,-2.456989676176917492e-01
1.953008430880933020e+03,3.694134427766684325e+02,1.984066152597650444e+03,4.724523338331265698e-01,-5.071253138725511089e-01,7.208416665851791194e-01
1.401997957257685584e+03,2.683690971078398434e+03,2.189778600934598671e+03,-5.157468474377514545e-01,4.439023271106989910e-01,7.327727569606601321e-01
2.685342158653702427e+03,1.287041132536639225e+03,2.010503111709199402e+03,-2.578190066587824902e-01,-9.543495969194625284e-01,-1.508184559831393656e-01
1.324810479562302817e+03,1.647065994089691458e+03,1.794446681213169541e+03,-2.892043085877735176e-01,-5.844830057806353896e-01,7.581164052095837880e-01
2.909779775752181195e+03,2.029852709062542999e+02,5.628406902538199574e+02,8.785215961702147469e-01,-3.096478709260437334e-01,-3.637554138339476051e-01
1.695283718335180765e+03,3.532833914141913851e+02,8.120016112365080971e+02,-2.306999199248660481e-01,-8.638692653190157555e-01,-4.477805705742985420e-01
2.270953482205904038e+03,9.106385574845531892e+02,2.200411266383041493e+03,-8.625083161452109515e-01,4.299484398185419165e-01,-2.668777691714968037e-01
3.205257287076710213e+02,1.625525521347931090e+03,1.911210460312773193e+03,3.702867291139168016e-01,4.443626648282006930e-01,-8.157386593443374245e-01
4.872260935855599087e+02,6.677325626214942531e+02,2.072109286359094313e+03,-1.892402736780013917e-01,-4.561084375874034369e-01,-8.695707055667485363e-01
4.288611699714395513e+02,2.946987519844741200e+03,1.512807066248838282e+03,8.564878797095841767e-01,3.114290696880994691e-01,-4.116314449404781528e-01
1.837368693876249154e+03,7.373187356626277733e+02,1.707724352879734624e+03,8.615654797068517112e-01,2.471084119143568680e-01,-4.434437472088958998e-01
1.069860863130557391e+03,7.376704787099205305e+02,1.586915494678115920e+03,9.274900967162610366e-01,-3.017111811829869539e-01,-2.207543513555909886e-01
1.074462428786112241e+03,6.430100803367471372e+02,1.995371575933100530e+03,-3.782606934640084240e-01,-3.884408386964365856e-01,8.402574382967022970e-01
2.052686013293913220e+03,2.841544513525443563e+03,1.221626718323982686e+03,-8.367473880143300180e-01,-4.834836830051651713e-02,5.454504963182947863e-01
2.589817612159277360e+03,9.786947917790122631e+01,2.825532303976586718e+03,4.476331501938279889e-01,-4.554799188812662658e-01,7.695210239775551742e-01
1.399974186992795012e+03,2.411981832105478134e+03,6.185225976444525031e+02,4.246668548043031621e-01,8.044171190385959180e-01,-4.154168521235823697e-01
5.765438512928569708e+02,2.102252755872659236e+03,1.386216809120711559e+03,3.130480779624800203e-01,1.753503253498340519e-01,-9.334094301450486242e-01
2.233628062754489747e+03,1.638029354719900539e+03,6.283944075862918908e+02,2.254351352071985379e-02,-1.573364095390853978e-01,-9.872877210983079799e-01
6.421217390102814306e+02,5.169345813648876629e+02,2.426389154344300550e+03,-6.124619046218313656e-01,-7.527823212360544858e-01,2.412658123760107465e-01
2.675397130738333090e+03,2.041383704572001989e+03,2.883080812078434974e+03,8.339625657827020033e-01,1.032370979243673326e-01,-5.420779837673608270e-01
7.929839272502445056e+02,2.919308901517326376e+03,6.721171765625018679e+02,7.552594588828583921e-01,-4.829726144094644291e-01,-4.430808092193327941e-01
2.921736775978495189e+02,1.726413745582680804e+03,4.732548186704944442e+02,-3.925319485061706803e-01,-3.347502228393003931e-01,-8.566568494508101095e-01
1.415684957568121945e+03,1.843538283781128484e+03,2.817308015087940475e+03,-4.204508221894047160e-01,-3.366601300954485398e-01,8.425443981917921654e-01
1.951173546759558349e+03,2.774896478493029463e+03,2.972821259652202571e+03,3.512182581291017347e-01,-6.802342439337603908e-02,-9.338193341811671377e-01
2.250145194068283843e+02,2.400503635226736606e+03,1.987898731031003081e+03,-5.639608145702290631e-01,1.531505514222261943e-01,8.114758827151622445e-01
2.511939936032092646e+03,1.451363383557861425e+03,1.579103704140966329e+03,-4.160231383608405387e-01,7.520074583111336919e-01,-5.112822420080962438e-01
1.369896535999928346e+02,1.749101369280706649e+03,2.527954511527323575e+03,1.804629145038342403e-02,8.410699190911551382e-01,5.406253069963389279e-01
1.471291968955865059e+03,2.449661768824767023e+03,1.060439769313291890e+03,2.852191880968855120e-01,-2.442958692190389802e-01,-9.268060978564327534e-01
5.455753808753339626e+02,6.171124735286686018e+02,1.194599564875230044e+03,-4.828660801899182231e-01,8.744199715222007452e-01,-4.722353232380394755e-02
2.677350750591857377e+03,1.889882122438875513e+03,1.108587450306151368e+03,-2.317986423575693067e-01,-6.531405156392832145e-01,7.208861603829268550e-01
1.549554496704990243e+03,2.635111494833824963e+02,1.778805412731344177e+03,-9.305317758453721666e-01,-3.044764622978948232e-01,-2.034814439908874395e-01
2.358532669035076651e+03,1.535868139297512016e+03,2.492791672462798942e+03,7.495115389765327762e-01,-3.072397248150619542e-01,-5.863754807600625174e-01
2.270571170630918516e+02,9.411530115944584622e+02,2.948054722609082546e+03,-8.527513835113974539e-01,4.705704914791670190e-01,2.266682387729981596e-01
1.083853854773841704e+03,2.241437281749220347e+03,4.387952438147719931e+02,-9.176445312231200635e-01,4.940376181395896710e-02,3.943193916546963163e-01
6.948275422978854294e+02,2.962367554340000424e+03,3.708580559617557810e+02,-5.779162067592179541e-01,5.606644662482096475e-01,-5.930162006654178253e-01
2.805973422609561112e+03,2.731144172176563643e+03,1.314578340956411466e+03,9.247540446685426074e-01,3.802616982368364207e-01,-1.519860925243765766e-02
2.341462613918374245e+03,1.179866835593766382e+03,1.431261793334759659e+03,-9.257665961611931671e-01,2.033998042306882637e-01,3.187235935274264631e-01
8.924563292048451331e+02,1.551939024061357713e+03,2.983593092339551276e+03,9.389811190559744780e-01,3.433780573379860979e-01,-2.014864251458647892e-02
9.179126882754568442e+02,1.194761302023357246e+02,2.168572841873517234e+02,-5.011230684456960960e-01,-5.623752091041323009e-01,-6.577307917808424831e-01
2.751900123370619440e+03,2.379820693037696401e+03,9.625105186240513149e+02,-1.172240687117344082e-01,-2.025443771237818991e-01,9.722316046139447554e-01
1.389264747587018519e+03,2.730971624463520129e+03,8.878810426398450772e+02,-3.898046216810885367e-01,-3.452429541985896355e-01,8.537327799096705583e-01
1.097481309807197249e+03,2.870770831997587720e+03,1.291848510666282664e+03,-6.274567512879436482e-01,-7.307936641238379494e-01,2.687724795056867233e-01
9.181283346836951296e+02,2.594224443702444660e+03,1.780810621513755677e+03,-4.276083524690756366e-01,8.759985982382688663e-01,-2.231088361837579026e-01
1.830727475545912739e+03,2.347822328808922066e+03,1.267397382774206108e+03,3.916790524037961907e-01,3.943244277990694546e-01,8.313216979900144299e-01
1.927277421226696788e+03,1.708812334075926174e+03,2.668482930340548137e+03,4.222925007052554247e-01,-8.283693575978402501e-01,3.680669113640118173e-01
1.032730416493620396e+03,8.177513894531740561e+02,1.049884028737375957e+03,4.561872257741626524e-01,-8.707285468169464471e-01,-1.836437115681393006e-01
2.480527093320134099e+03,2.775409188362426903e+03,2.444391476398856867e+03,3.622957782618707601e-01,-1.180658472816447646e-01,9.245551496580897144e-01
1.176921177844028307e+03,1.725617383298193090e+03,2.071638588915452601e+03,2.345022544556898958e-01,-9.695493458097541595e-01,-7.058865840258321533e-02
1.787610836927100763e+03,4.361853569746176618e+02,5.139432921898886661e+02,9.019948094070738831e-01,-2.166996273109477456e-01,-3.734255418768149259e-01
2.880753713148564657e+03,1.431321694248048516e+03,1.307883759584490463e+03,3.528007313970348835e-01,-6.278766471192553933e-01,6.937597278078335705e-01
2.435233199692092512e+03,1.532110087505270258e+03,9.693812845111394836e+02,-5.202192429053691392e-01,-3.404476856762443382e-01,-7.832415416898248495e-01
2.657023546894921765e+03,2.914857308418755110e+03,3.695655633362253525e+02,9.330539049885705483e-01,2.946120161505074719e-01,-2.064319992765477618e-01
2.663008828933099721e+03,2.061789206643930356e+03,1.166127407951229316e+03,8.540655108840141674e-01,-1.817854421984065050e-02,5.198477119777245026e-01
2.484167430992859408e+03,9.788148506074235229e+02,2.241199411199051156e+03,2.535605817893165082e-01,8.118602062883235604e-01,-5.259182795911776509e-01
2.302164505928467861e+03,2.433661472605738709e+03,2.272020409871806351e+03,4.364386560400019821e-01,-3.952358228971209475e-01,-8.082759082224537650e-01
6.589935392941214332e+02,1.702700883597383836e+03,1.037594269002592910e+03,-3.094991898660746088e-01,-8.532461325541801367e-01,4.197395487127439928e-01
2.980675672590839440e+03,2.398691790067309284e+03,4.246469165321701098e+02,-7.768523362755433981e-01,-3.472398258439590712e-01,5.252855899137982565e-01
1.011736936874561138e+03,4.821989425013598520e+02,5.191558235412650220e+02,1.588046823180726541e-01,-4.380733790979578490e-01,-8.848009874539883857e-01
2.570185823279131910e+03,2.112429390147428421e+03,5.033580091760248933e+02,-8.240360163841010666e-01,-3.134613334940742901e-01,4.719180396063900607e-01
2.715367048815965518e+03,2.706951307983330480e+03,1.883592614003066956e+03,7.481691883128807619e-02,9.841607055922617642e-01,-1.607175604118415979e-01
2.417998496750933100e+03,2.900259233573103302e+03,4.212189636967111994e+01,7.854794638365646398e-01,6.175096646947059176e-01,-4.127742602991157916e-02
1.741838383663004379e+03,1.287301980797778242e+03,5.167044923747465646e+01,1.957708880230887571e-01,-9.850731076770348482e-02,9.756895352149506095e-01
1.202042696567568100e+03,2.068470544268885533e+03,2.129305129377878075e+03,9.182815303649793925e-01,2.338476263617969564e-01,-3.194907176046040131e-01
2.844251235824340256e+03,2.243361869596388715e+03,6.839621658909462667e+02,-7.665521625638249681e-01,6.324070074570602440e-01,1.116206028828417018e-01
2.172178471362329674e+03,1.460151463828679653e+03,2.736948783617644949e+03,-5.534898372713659143e-01,7.389294870221556621e-01,3.842293758245076685e-01
1.366130165836023480e+03,2.376092516835442893e+03,2.234873289045491518e+01,9.745354386561835280e-01,1.448960027085366975e-01,1.711310234945366826e-01
1.522597624567634966e+03,8.363985183750411352e+02,3.320985423996846180e+02,-6.313972329302848241e-01,-7.078812835626530076e-01,-3.166095744440944326e-01
2.832010155684670849e+02,6.307109962017290172e+02,8.308300043536270323e+02,7.446189214015728197e-01,4.031251440786058904e-01,5.320082519119055942e-01
6.569609910167220050e+02,2.154082790318835578e+03,2.281655293550065835e+03,1.629313547414693863e-01,5.961494476216295801e-01,7.861674183928861748e-01
1.059227925096598256e+03,1.164861291008395483e+03,1.524936170480682222e+03,-4.261932988768157848e-01,5.236678260603760959e-01,-7.376525468956891540e-01
5.418861846471861554e+02,9.454918560973821968e+02,2.421835025124841650e+03,4.418114458805014744e-01,7.448221463074544690e-01,-5.000426148429130135e-01
2.957029244326585285e+03,1.239922830252146014e+03,1.187901987787381813e+03,7.919796184176550735e-01,3.294468703410496357e-01,5.140360333999099973e-01
2.159640304721237953e+03,9.589538008161434846e+02,2.105034931746473831e+03,-2.520208858421953413e-01,-1.607372629844942835e-01,-9.542793120400172580e-01
4.345691259863024811e+02,3.562075882291124458e+02,2.784462594910914959e+03,9.512015775146087648e-01,3.084070042215749652e-01,1.003387665826305231e-02
2.017658461810405697e+03,1.430293328367196864e+03,1.792988358968329067e+03,8.893578634844001574e-01,-4.495316632538859936e-01,-8.344983157956642472e-02
2.940433496918565197e+03,2.817698825140655117e+03,2.186093696004723370e+03,4.461810871414717550e-01,-2.518140592972902859e-03,-8.949391579572369970e-01
1.829911069093003277e+02,2.974269931507928504e+03,1.711130152864329830e+03,9.889386402586357594e-01,1.236029336234900078e-01,-8.199195450205933045e-02
5.498122415643575778e+02,2.156846976462223211e+03,2.360070757072707437e+01,9.604096432118304216e-01,2.706434785461932502e-01,6.607136101323353439e-02
2.859058478428000399e+03,1.299616447435361124e+02,3.092524835005218051e+02,9.934513491514175287e-01,-1.099174851812123876e-01,3.118594748706948749e-02
1.846718863662796821e+03,2.284959990960112918e+03,2.783760267649285197e+03,6.481698563950138992e-01,-4.032404525520505434e-01,-6.459666978153630890e-01
2.416820748471993738e+03,8.866656673083502938e+02,1.500302878888032637e+03,4.967737060432906859e-01,-6.437366487583620067e-01,-5.820816197316038831e-01
1.644980335732009735e+03,1.253739640117139288e+03,1.487685396165645670e+02,2.111105771829561717e-01,-9.615405254346973685e-01,-1.757047015541852719e-01
9.143906719765235493e+02,1.336239946293132334e+03,2.322796799319940419e+03,7.222140770029066292e-01,6.044039040748180325e-01,3.363075195679663953e-01
5.960857169778512343e+02,2.935221927338418027e+03,2.215876119074528560e+03,6.070970325075118919e-03,5.456388989450736693e-01,-8.379984100684916282e-01
1.110289072976348052e+03,2.468053663468178911e+03,2.002666450332619661e+02,-8.127908030918906679e-02,7.385462037689599635e-01,-6.692856012215938621e-01
2.924050343575175248e+03,2.468196197011663571e+03,6.027795507181167523e+02,-8.511045310967483291e-01,-3.148262157989859533e-01,4.201256133494772893e-01
2.725157421012991108e+03,1.764389267847582005e+03,4.116290243789065926e+02,6.548690074400875805e-01,-3.495143167825942587e-01,-6.700644188870433782e-01
4.137423312521389676e+02,1.959341051430081734e+03,6.730122342013045227e+02,-6.549113719674233280e-01,3.817441471529525177e-01,6.521982068222913487e-01
3.859144730307706368e+02,8.449082926006023797e+01,2.277708696725211666e+03,-3.332935352206811142e-01,-4.037032689394833840e-01,-8.520205924903903050e-01
1.555471639162757583e+03,8.990550664892230088e+02,2.268085907013288761e+03,5.697885151871909803e-01,7.973897311147940536e-01,-1.987728972306155584e-01
1.027643987362394910e+03,1.824164938350273815e+03,6.609662795746281745e+02,6.785196573310858792e-01,5.522304110457483262e-01,4.844095867461228888e-01
1.610112759973791526e+03,2.463036288800820785e+03,3.538430488734479695e+02,-7.995717237444451009e-02,-1.719315156037293235e-02,-9.966500118523580198e-01
1.715080099037509626e+03,9.870841727829116508e+01,1.472025058683125508e+03,5.421568185349171509e-01,8.113661311668409759e-01,-2.185199883567859047e-01
1.431508224910592844e+03,2.036443030149168862e+02,2.030723378533914911e+03,-4.248860283874567045e-01,-3.672617485419363836e-01,8.273999461802332700e-01
2.245209166019621989e+03,2.808211825820827016e+03,2.947431029962666344e+03,9.407967392173243182e-01,-3.386553576689836920e-01,-1.463024949010516274e-02
2.182934405560529285e+03,2.810387055492942636e+03,4.869833214347873707e+01,4.058481830697595050e-01,-3.575762547867883390e-01,8.410864844423722175e-01
1.229140799240005663e+03,3.687589298576536976e+02,2.241560421080534525e+03,6.098367934597318518e-01,-5.659204465797974537e-01,5.548271203588330813e-01
1.890184470508273080e+03,2.530942560778794814e+03,2.801349517444741082e+02,2.676961217594421849e-01,-5.900650651703799321e-01,-7.616836648244658114e-01
2.408608163481711927e+03,4.511432425665651280e-01,3.450842388232006215e+02,-7.720357912223202446e-01,5.784693189119310963e-01,-2.633134712643707687e-01
1.529347494987084929e+03,2.753893602157123041e+03,1.274093117075884493e+03,-4.825812935597037501e-01,1.305146556620536968e-01,-8.660722947673933358e-01
1.648371755752192030e+03,1.919487461867772936e+03,1.767134113268002977e+02,6.551771437749918103e-01,7.179764899429320613e-01,2.350588653169041198e-01
2.676990519229603706e+03,4.015095842114881748e+02,6.262785198267968099e+02,9.177875059696557480e-01,3.660077195134060490e-01,-1.539624731634139376e-01
2.324073834775870466e+02,1.431130863221328809e+03,1.720136174483441891e+03,7.679705599055188792e-01,-4.020627414465482996e-01,4.985647110043889274e-01
1.883429854880709399e+03,1.802048726749323464e+02,1.425941484960024354e+03,-5.626691721738472651e-01,-3.684855602430551214e-01,7.400147259193963212e-01
2.677388110404659187e+02,1.495757636594838914e+03,2.756109952012038320e+03,-5.133856194472476986e-01,-1.008498417625560972e-01,-8.522115436681394485e-01
2.278391578212956119e+03,4.534514293359906105e+02,5.135858320847454479e+02,-3.842151575307434230e-01,-8.159333266927549788e-01,4.320087025925751778e-01
1.367421273833180351e+01,2.566994328045748262e+03,2.962193018782183572e+03,8.605413611998989909e-01,-3.838206811494289106e-01,3.348884148283031714e-01
2.052485769612275817e+03,1.053790487807108775e+03,2.389789952996266322e+02,-3.360176489835315916e-01,1.078695426587626266e-01,-9.356582182283066373e-01
1.158555729724934736e+03,8.976904316798895422e+01,5.980357106458621956e+02,6.844698549277377086e-01,5.490156653797315101e-02,-7.269710005817826559e-01
2.968378939444229445e+02,4.451686065508762908e+02,2.973394887859540745e+02,6.306563377644361923e-01,-5.675222183480543858e-01,5.293308184102384351e-01
1.765539675093903952e+03,1.299845247635928217e+03,3.229357480889560748e+02,-1.734293942510437281e-01,-3.605006938194486588e-01,9.164941325319067023e-01
4.530699221782118684e+02,2.382461034816721622e+03,1.261877453470926184e+03,-1.971953468556558176e-01,-4.717978973484863725e-01,8.593722937330623424e-01
9.742373380107271430e+01,3.768667252766347815e+02,2.138069331484855411e+03,-2.023595750325952736e-01,2.780897998284654477e-02,-9.789163718239373146e-01
2.436802745894797226e+03,1.339784550781650296e+03,1.646008579528679405e+01,7.902059319764332956e-01,2.433941968521398935e-01,-5.624356407696424753e-01
1.915267004451729008e+03,5.760083107825719750e+00,1.155875835039499293e+02,1.507147973029878407e-01,-8.221511008293133083e-01,-5.489559338226227547e-01
1.516087531751916003e+03,2.617526326425736443e+03,2.673728780874081167e+03,6.312268617636387913e-02,-9.875151809913093048e-01,-1.443235732705572261e-01
5.255591986593259435e+02,2.928882859742529945e+03,1.914603031858113809e+03,6.830697855388880857e-01,-6.591344964445828847e-01,3.145749253844047910e-01
8.576651636042483915e+02,2.157510049955359136e+03,1.363869571885975574e+03,-4.419817067485191653e-01,1.418467819713386813e-01,8.857379191070242630e-01
2.721900798455438235e+03,1.535031768738503999e+01,2.276290484108739747e+03,-1.770228269797226583e-01,4.165915779606048364e-02,-9.833246835607403202e-01
2.854988561290491816e+03,1.190221488030436149e+03,9.285847244749267304e+01,-3.383308321892609660e-01,7.609676389239045102e-01,5.535887467251301430e-01
1.215684157531434721e+03,1.315542275102755866e+03,7.913893280166017803e+02,-7.958464962787773489e-01,1.846228101787120435e-01,5.766652168481374297e-01
2.834301508734676645e+03,1.490762350868542626e+03,1.457915842358595683e+03,-6.286923739635451591e-01,-7.144482444598480031e-01,-3.070986891999429869e-01
2.248438047884279513e+03,2.629747721007457585e+03,1.469194394298765928e+03,-2.687725310314815763e-01,9.136041150676554867e-01,3.051046500700660413e-01
1.905718180634894452e+03,1.535924774875644971e+03,4.795381739041798710e+02,-3.783944077612962364e-01,8.085539732491390241e-01,4.506197338310969358e-01
2.554631556745093349e+03,2.043375162271638374e+03,2.480126913748543700e+02,8.472014236346822047e-01,5.149291669155596773e-01,1.307581769948462647e-01
1.183956936482108631e+03,2.438996871432313583e+03,2.340536455248934089e+03,-1.038311993492410830e-02,3.253206954612843094e-02,9.994167575498535960e-01
5.559547151522326658e+02,1.796756960075186043e+03,1.003632453234748255e+03,5.105006163134705455e-01,2.779671028986094861e-01,8.137096597987028002e-01
1.469131935091215837e+03,1.912300308033024294e+03,1.763472733649281281e+03,-3.182913589452426861e-01,-9.460593418887820460e-01,6.051720784830805222e-02
2.767415093017848903e+03,1.655032757692312543e+03,2.758997197249929741e+03,4.546433227290020418e-01,-6.464787156268838597e-01,6.126701554175355557e-01
6.076692685348959913e+02,1.027663853721119267e+03,2.698121857727038332e+03,-7.112344197634645759e-01,4.409705424669965734e-02,-7.015704169579071170e-01
4.576404197409494827e+02,1.766667857471238676e+03,1.188304546804185748e+03,-9.869960063601883604e-01,-5.047094867848796879e-02,-1.526157487565833748e-01
1.497988423261434718e+03,1.025317166931544989e+03,5.784254241664100391e+02,-7.077661291827810341e-01,7.028644780680300963e-01,-7.105372510838980915e-02
4.589155646229092866e+01,1.711193361341914397e+03,1.855377794952476052e+03,1.643766730843536639e-01,-1.442503325792733604e-01,9.757930881577756566e-01
8.655463578651385887e+02,3.055499733519495464e+01,7.223423353897612742e+02,7.090057114968502106e-01,-1.202726213499535485e-01,6.948707776403149072e-01
1.811562624593028886e+03,1.818702394772682283e+03,1.949722887410420299e+03,-5.784198019063262891e-02,6.162772210666891959e-02,-9.964217627067213368e-01
2.933799567315747936e+03,2.180097084196974677e+00,2.209034150929931457e+03,9.017247494944425901e-01,3.886003085254399192e-01,-1.894261765520220131e-01
3.835464305071254216e+02,1.120798905184217062e+02,2.050359186865813172e+03,3.094476003492011018e-01,2.330592283176757817e-02,-9.506308519078690011e-01
3.916960497017959710e+02,1.338382846289039435e+03,1.098102953742440604e+03,-3.871536007191587192e-01,-4.662390736833401661e-01,-7.954452939210157059e-01
8.320506293442487333e+01,1.569495857946367323e+03,1.398046584124984292e+03,-1.209086658188340269e-01,1.508486103375820953e-01,9.811349506001352250e-01
2.507119107720840930e+03,1.869276535091718188e+03,2.132253629951056269e+02,-4.587143966333598888e-01,-8.318596373080863748e-02,-8.846814103164308829e-01
2.206293994050507536e+03,1.884186553731087997e+03,9.196116334118098479e-01,1.376525280497019055e-01,-2.177682014672041033e-01,-9.662446853417954173e-01
1.708786552856985509e+03,2.821490429288698124e+03,2.899819933464779297e+03,5.556599238134808383e-01,-4.660496367346794733e-01,6.885054721402511513e-01
2.296674294221272703e+02,2.571728463209133224e+03,1.247196381713251867e+03,-3.954570086751064695e-01,-8.363575507695779343e-02,-9.146686912551691417e-01
2.373434120638229103e+02,1.402736455837506810e+03,9.443069572657158233e+02,-2.590886392175861253e-01,5.926722390111409666e-01,7.626353611877045857e-01
1.467364434982509991e+01,2.847625604325981385e+03,1.629870738576358917e+02,8.696579806762495535e-01,1.371050055573970472e-01,-4.742332907939026954e-01
1.550553549403996954e+02,1.047009124760615805e+03,1.991520895242866118e+03,9.334642446191736553e-01,4.394311542620615851e-02,-3.559684067781785366e-01
2.144077940005854998e+03,1.134835283463634823e+03,2.460856014398418210e+03,-7.532737814278273047e-01,-4.518106941639569718e-01,4.779599427279499491e-01
2.945998227871370545e+03,1.562018570693063111e+03,7.805378546724149373e+02,-2.625791766812318739e-01,-9.430409526771199591e-01,2.042692770517300360e-01
1.925492948715898592e+03,3.241203545242350401e+02,2.622196653245191555e+03,1.341988186305507480e-01,-9.226832525998568402e-01,3.614502627608857654e-01
1.557908047791188437e+03,2.077784341622912052e+03,1.566848548536070211e+03,5.549828996755148403e-01,2.223966296977214485e-01,-8.015820108802667043e-01
2.390673788879789299e+03,2.989887122690534852e+03,1.704652432652133484e+03,-6.958179552816123881e-01,4.723882220677541044e-01,-5.410053056665731219e-01
1.241612006929052768e+03,2.520501839840770117e+03,1.170599135674276340e+03,2.233065852075343249e-01,3.825742029676825195e-01,-8.965328483812473603e-01
2.073676544084763918e+03,5.941252487486686960e+02,2.430424626532520961e+03,-8.443190439361197841e-01,-3.082666633691714120e-01,-4.382887362253731212e-01
2.079351057416630283e+03,1.127025344544507789e+03,2.285420768458166549e+03,-6.357652250606471434e-01,-7.711704101655947330e-01,-3.314780669385286593e-02
1.306034343002831974e+03,1.651934925387802650e+03,5.673533686465168557e+02,2.140995840106642567e-01,8.969376825629116201e-01,3.868645263204347207e-01
2.769550291029625896e+03,2.823902667781713262e+03,2.405484556300962595e+03,5.193907451043449086e-01,-8.509430392983302616e-01,7.828919318573768216e-02
1.130753105197346031e+03,2.107005388367269006e+03,6.219723150898547601e+02,-3.493557172982951209e-01,3.911507903077729442e-01,-8.514409210465505584e-01
3.615723092344928773e+02,2.563686887539148302e+03,2.004443364324624554e+03,-3.069844571408206768e-01,-7.914834537529688574e-02,-9.484176730208628836e-01
1.533660410239988323e+03,2.313757678118848617e+03,1.239160848195182325e+03,-9.395877952359743546e-01,-2.822118856516748764e-01,1.937297773717991944e-01
1.434351403531973119e+03,5.010958945753358762e+02,7.248428085388761701e+02,-4.557095038185708658e-02,-6.138597056366501548e-01,7.880986932338991391e-01
1.623902287331690957e+02,9.497163135609404208e+02,2.877863071591595144e+03,-7.868518590947775060e-01,-6.051152266888810694e-01,-1.212423781866576178e-01
4.220682096064372217e+02,2.193312895584732814e+03,1.749377954307235257e+02,-9.430744896428807644e-01,-3.237989846542372874e-01,7.592578298381404134e-02
2.251272676605387460e+03,2.688530448750760115e+03,2.937203998672553098e+03,-1.184202231139863948e-01,3.006123800852019134e-01,-9.463661277207378042e-01
1.515162210905637323e+02,8.160755807518858091e+02,1.600165663001427220e+03,1.205413807233660789e-01,8.687295968702722915e-01,4.803942787491529143e-01
5.836152876866839279e+02,1.329186162986084810e+03,1.513038148999079567e+03,7.828794395809872408e-02,-5.969441358212640436e-01,7.984539414013922531e-01
1.718009274471900426e+03,9.857406077056826916e+02,2.102308209249607103e+02,2.983396084913397805e-01,8.235887277007556406e-01,-4.823847899856346655e-01
6.803246435390398119e+02,1.291640044637833626e+03,1.142144639003755174e+03,6.941798640202241355e-01,-6.417938034375469947e-01,-3.259064747102002890e-01
4.909610165811981801e+02,2.280086839098210874e+02,2.774580466427724787e+03,-7.111997574029041980e-01,-3.471284760434867889e-01,-6.113073909170219089e-01
1.665899252202045545e+03,1.927699016161137479e+03,2.520231089330544819e+03,-4.664401817963524932e-01,8.844334628534419318e-01,1.452606591114657952e-02
8.336846393983354631e+01,2.535899526985714601e+03,6.577398656014970584e+02,-1.220506897903586990e-01,-9.922267388635916952e-01,-2.428431192806490557e-02
1.205339367877881159e+03,1.498364276597103753e+03,8.871797438490902721e+01,-6.906070341893232045e-02,9.475859530537116271e-01,-3.119478815741043576e-01
9.026801109588917598e+02,4.792194109503019490e+02,2.825190955193500940e+03,-6.414859096522076420e-01,-7.539826885513564170e-01,-1.414423312963562218e-01
1.717421444550699789e+03,3.809974951497654274e+02,2.365744070572704914e+03,-6.899603180378631739e-01,4.713738959677524210e-01,5.493281439479260619e-01
1.274658014008233295e+03,6.727333616094852005e+02,2.288765132423037812e+03,-5.257251372305203896e-01,-6.961459270551615397e-01,4.888700525993183721e-01
1.394418098035980393e+03,8.953315452828611569e+02,7.971737716567085954e+02,4.543202755265692838e-01,-5.535963728618874535e-01,6.979427936440236735e-01
2.158819040594558373e+03,9.897663410973941609e+02,2.758042031091351419e+03,-4.379792272383669083e-01,7.363193158608226652e-01,-5.157596936538693111e-01
2.222980802062951682e+02,2.124117140446679514e+03,2.024036471030011853e+03,-2.132518498946528451e-01,-8.949265821268284071e-01,-3.919567082208208486e-01
2.411823662266798237e+03,1.553527027938416040e+03,3.973365062014296996e+02,-6.186098231403986958e-01,4.001987252395076966e-02,7.846784669642536958e-01
1.643259535708157728e+03,6.406428770626797586e+02,1.008573473401803199e+03,-8.128973759057230852e-01,-3.425586271396958149e-01,4.710110860879566097e-01
2.285893806125928222e+03,2.260738195472870757e+03,4.325658559574649757e+02,-9.464258458369559923e-01,1.184745315374209351e-01,3.004029022975499008e-01
2.505161347535531604e+03,6.591455239567293347e+02,3.882083178887729957e+01,4.503601195209199215e-01,8.455052933951587857e-01,2.868737729139232417e-01
2.801312810189244829e+03,4.454357963722163163e+02,1.560147994917731921e+03,9.262928185699149664e-01,2.674765450079700235e-01,-2.654014169826566238e-01
1.051411159966474088e+03,1.480313060935856356e+03,2.120203723501809691e+03,-9.327142280843789268e-03,-1.093320394859363795e-03,9.999559035614455915e-01
1.582352920244417874e+03,1.781046952748355352e+03,4.172010874471543502e+02,-6.564573709824962633e-02,9.877375475768074287e-01,1.416515947943457476e-01
1.301632968496808871e+03,1.961214803682241836e+03,1.851989158858932115e+03,9.068891417102225017e-01,1.656369167549897603e-01,-3.874487017090091356e-01
1.358493143511537937e+03,2.728546280976805065e+03,1.831088547080653825e+03,-5.445641930805902309e-01,-3.652408888766781048e-01,7.550158493085159517e-01
9.857454263090316999e+02,2.910279635766113188e+03,1.434746128659597844e+03,8.027612479723776895e-01,-5.256694774673518200e-01,-2.815066237462842125e-01
1.766218414533241685e+03,1.698192703146717577e+03,1.492051855402237152e+03,-2.258129521563930764e-01,-5.451337075297845169e-01,-8.073646955083222387e-01
5.106682915574201331e+01,2.178167061758128511e+03,3.879210374211806425e+02,-4.823958269467022025e-02,8.016580586657680030e-01,5.958332817472318244e-01
1.709292357037998045e+03,5.306105359530835130e+02,1.317112049765894199e+03,7.580717011877393663e-01,-1.348597881757483685e-01,6.380753352007262347e-01
4.399625490383766078e+02,1.852318713818562856e+03,7.539318915194881399e+00,-7.426986757551761187e-01,-4.268059051284797123e-01,5.159800348646903512e-01
1.872722682499000939e+03,1.797041369791178568e+03,3.072371775213655951e+02,-8.265713124500877473e-01,1.906728337915348237e-01,-5.295505036240124586e-01
2.853267713807200835e+03,1.932725807314442363e+03,2.539875501467826780e+03,1.898598873907298978e-01,5.560541363094927414e-01,8.091705757459817239e-01
1.829068713248166489e+02,4.434634271994081018e+02,1.762398721431815375e+03,-9.233932922564529466e-01,3.823226923137179600e-01,3.426640859178409215e-02
7.977196617139517230e+02,1.243341292260720593e+03,2.814648812132159492e+03,-4.138358906917090074e-01,-9.004084643351702999e-01,1.341806727102692609e-01
1.340143030737368690e+03,1.292428361748656471e+03,1.410613011791683675e+03,-4.516278731276324732e-01,5.213436607510044674e-01,7.240393992103970611e-01
1.227504972085548047e+02,7.585054796263131038e+02,2.692166453527768681e+03,1.316262127396509163e-01,4.832304097709442248e-01,8.655419754075601713e-01
2.262737737782174918e+03,1.084396318262343812e+03,6.169676358476765472e+02,-2.798481140748976803e-01,7.899891824736380297e-01,-5.455292151877442208e-01
1.369132976543806990e+03,3.812658362391007358e+02,1.114608233385401491e+03,8.304634276609842436e-01,4.304090815473102238e-01,-3.536644141543932029e-01
2.194051644721887442e+03,1.306686295526590129e+03,2.104628568549248030e+03,8.706557519812618828e-01,-3.713488147169561882e-01,-3.225811825730930948e-01
3.336087737235952204e+02,1.425545802853031546e+03,1.080392381860438718e+03,-2.128264762409122213e-01,2.940565725090082405e-01,-9.317916200391216375e-01
7.789480961523938731e+02,2.172008312436998494e+03,4.624195366723798770e+02,-2.160011127241950879e-01,7.182950309004341172e-01,-6.613590310002986916e-01
1.450936092485641666e+03,2.909476511193185161e+03,8.445927343347464102e+02,5.251484300952070639e-01,-7.802906657278458891e-01,3.396551241281877687e-01
7.597899661368911950e+01,2.535355273833047704e+03,2.441987588111880143e+02,-4.281683587163986893e-02,-9.267516284990864328e-01,-3.732266571940332511e-01
1.695468752795409273e+02,2.229735034124830690e+03,1.670298227050640207e+03,-8.540222105264692054e-01,5.155760473159691770e-01,-6.947951756830761383e-02
2.751148863775469636e+03,1.261379012851755988e+03,1.162842242022681830e+03,3.015258270725121870e-01,9.121921975628033419e-01,-2.774663408663853859e-01
6.904847329635631468e+02,1.663234756397732781e+03,2.344024190444967189e+03,-3.169660983329782300e-01,-6.999678833009691237e-03,-9.484110380018799802e-01
2.183491496769862579e+02,2.456173075736927785e+03,1.208958738917196342e+03,-4.475797139648436396e-01,-8.572362554067435303e-01,-2.545945837274885548e-01
1.116252346280327401e+03,1.687324839245281282e+03,1.083707434023865972e+03,4.484203713900301175e-02,-8.606176369602637211e-01,5.072735698399395421e-01
2.371037306938656457e+03,1.630417668739141845e+03,2.460203047341582078e+03,7.611880508125185019e-01,-4.540851596682932700e-01,-4.630328488015287292e-01
1.590647303642661200e+03,4.987354719483610097e+02,1.051319923754175960e+02,5.773050637673354801e-01,7.901628467332682051e-03,-8.164903107913510372e-01
2.278896667207316113e+03,1.250269873477959209e+03,1.825901579665171766e+03,3.997828503192056848e-01,-5.918594902194473928e-01,-6.999114347028683181e-01
1.057098706081343153e+03,2.568867351919296198e+03,2.131885441229961998e+03,-6.436389542561560262e-01,7.476726053879120260e-01,-1.634459290300422918e-01
5.243663139021120969e+02,1.354452229187207422e+03,1.109927200195332034e+03,-1.771474839551051006e-01,4.462022887587604458e-01,-8.772241939406479894e-01
2.406252848066233582e+03,1.434648410960229057e+03,5.524482568206552742e+02,3.075804741736640202e-01,-6.684905746880134281e-01,-6.771370640131830765e-01
1.508750078753711250e+03,1.343997049026334025e+03,2.233506872430148633e+03,7.281450198663339535e-01,6.779949927012357547e-01,1.006360766122533779e-01
8.036199982660712067e+02,2.919791979097714375e+03,2.450190101714699722e+02,8.763539958744502867e-01,-4.756370468921711780e-01,7.598074452503490728e-02
2.778755389271940658e+03,3.220827970631821131e+02,1.812788929932353028e+02,-6.061555850305816451e-01,-5.036718225435961038e-01,-6.155404957529974075e-01
1.437224747378890015e+03,1.605809728551062335e+03,1.329240993092510053e+03,-1.209765394132655408e-01,9.899899816625162829e-01,7.269465674615416262e-02
2.129785756089974257e+03,1.562523096912995015e+03,2.578525160625053104e+03,-9.460871423602432717e-01,3.868710392316386526e-02,3.215935743305005090e-01
1.752961640555864960e+03,2.280072993218864497e+02,2.407824320293442270e+03,6.899607008244781348e-01,2.149965166696804209e-01,6.911806776362450222e-01
2.942576613257320787e+03,2.372199323168853880e+03,1.193638368779936400e+03,-2.357629591461271601e-01,8.687873867671440653e-01,4.354587278824233465e-01
1.552562845968697275e+03,1.986682222286823162e+03,1.241507369927484433e+03,-6.351515754950679549e-01,3.437763132618669726e-01,-6.916648918271129931e-01
7.015124845123409614e+02,2.294726033037514298e+03,2.166334798363412574e+03,-5.384331878650027159e-01,-3.544351502644290108e-01,-7.645033855141272205e-01
2.907372955652487235e+03,1.017718884731842422e+03,6.078344894364384743e+01,7.208884524624218360e-01,6.930133943849823286e-01,7.230097464042462008e-03
2.193018257818128859e+03,2.577797919938514951e+03,2.665930505789330709e+03,-5.792345249612854685e-01,7.205896531498512392e-01,-3.811009274014576231e-01
1.301765466955742795e+03,1.214117598850429204e+03,2.776081895742180677e+03,-7.699793286688919602e-01,1.265405140020329500e-01,-6.253953403557654944e-01
2.227584776080620486e+03,1.306240507400517799e+03,2.589666336164703353e+03,8.531786435826969051e-01,-3.951582765640491157e-01,3.404939626444496437e-01
2.437207524475413720e+03,3.503196268772025519e+02,2.405790295278129179e+03,-5.967174084278351609e-01,3.968375037960987228e-01,6.974584790939526435e-01
2.906107364021477224e+03,5.548017075479838240e+02,1.854422874812626333e+03,-2.246306590032912387e-01,3.609218323616304458e-01,-9.051389384842916108e-01
1.610348974901989777e+03,1.809647569684859036e+03,2.968217304090373091e+03,2.652571020693499371e-01,-2.408743027444520124e-01,9.336049700377266891e-01
2.658188554042035776e+03,1.064753451472091456e+03,6.027937554907508684e+02,-9.795035130910554333e-01,-1.945749703840836953e-01,5.209077406138030303e-02
1.720874256624538390e+01,2.566654358285615217e+03,1.824706490606060925e+03,-1.431469242790298600e-02,-4.760734767900702824e-01,8.792889936066008438e-01
5.905427464924173364e+01,1.664370413288929740e+03,1.521994173460005186e+03,-7.061891256063136391e-01,3.424075897418845105e-01,-6.197208737508714815e-01
2.011229524991773360e+03,2.259386184773079094e+03,2.314187064081646895e+03,3.518661429891561943e-01,9.118904289153137999e-01,-2.112961501556043509e-01
1.604202329840145012e+03,1.845907830302506682e+03,2.384618933212118463e+03,4.109650315950875155e-01,7.987311285955159823e-01,4.394727830236841992e-01
3.453321136463177936e+02,2.753263418422315226e+03,2.069310178339889262e+03,3.263252019819385397e-01,-5.395061835741626899e-01,-7.761732670201216822e-01
2.135691380264253439e+03,1.462286627567045571e+03,1.814115644429668464e+03,-9.019100040122629558e-01,-4.072931861382315111e-01,-1.437727553744725384e-01
5.992932339868135614e+02,2.627688120030412392e+03,9.180271141568855455e+02,-4.706003164968236008e-01,-5.307521820883488450e-01,-7.048669827148563716e-01
8.746004679161358126e+02,1.884512165170018534e+03,2.143055622132308145e+03,6.619276137777931890e-01,5.958078358636396121e-01,-4.548239844620365346e-01
2.193601396927555015e+03,4.487994053018851304e+01,1.434652115111650801e+03,3.974774366726950281e-01,-5.243786739478314418e-01,-7.530197166374980045e-01
1.212010303382927532e+03,1.422703462484090551e+02,4.474283574200638327e+02,-5.389977132879639893e-02,6.512420857097096782e-02,-9.964204193555590283e-01
1.727335335707700551e+03,2.519718436275062231e+03,5.263749022300829665e+02,-2.433279659892999616e-02,-9.346698932384599479e-01,3.546831060020776416e-01
3.428930433848569237e+02,2.226608269882486638e+03,1.564411577949523007e+03,5.194534024729471344e-01,-8.523516830513012676e-01,-6.053735259236669997e-02
8.849263781525077093e+02,2.245295184126449840e+03,8.095415628480780015e+02,2.292871847184885792e-01,8.644273570855345312e-01,-4.474290236964824086e-01
2.404726788205241519e+03,2.102054802616801680e+03,1.149639556195348860e+03,8.666994706224617762e-01,-2.153136845104087482e-01,4.499689376893662995e-01
1.464856069617009780e+03,1.587182263538803909e+03,7.996805413668333813e+02,-8.614092621150699625e-01,6.297831162043396325e-02,-5.039918802994850511e-01
8.678459204855060989e+02,1.746938800452809801e+03,2.312374064559492126e+03,5.574068821518006756e-01,7.386049895286633804e-01,3.791572723464124994e-01
1.025486847092527043e+01,1.178090300622319774e+03,1.383083547459088322e+03,5.883032273070196716e-01,-5.518007389969192822e-01,5.911135738439773357e-01
2.325756749788640263e+03,2.794841377218931484e+03,1.453641443851934355e+03,-6.151129924223217582e-01,6.538679316965886335e-01,-4.405595696975406206e-01
9.484597448574224927e+02,9.111424163588708325e+02,2.948069531217484837e+03,-1.087500667880465371e-01,-1.364930484652852050e-01,9.846537821459118156e-01
2.163434560041760960e+03,2.046335180115756884e+03,4.395245739051679834e+02,5.177970962204286876e-01,-4.516657899887452365e-01,-7.265563854922305609e-01
2.039291637144409833e+03,2.414356015645631032e+03,2.153739114627133404e+03,-4.463968912374902676e-01,-5.430936616768049507e-01,-7.111814748290230526e-01
1.386741835206136102e+03,1.964497569319446939e+03,1.115610141562880244e+03,9.444074168502268884e-01,-3.269632326488257634e-01,3.449167282275179131e-02
5.250297119044405463e+02,2.722695347450980535e+03,1.449761113557681711e+03,9.577094224153962498e-01,-2.876448587012681579e-01,-7.286801732969472312e-03
2.389433029477561831e+03,1.680467810574327132e+03,2.070053290801211460e+03,-7.440643344595266884e-01,6.655231607774281244e-01,-5.871276397959146465e-02
2.962500603520022651e+03,2.181603292171789235e+03,1.365208476596226546e+03,9.998984062348058588e-01,1.594780114768098956e-03,-1.416452913021126747e-02
2.422729930420542132e+03,1.385090863573392710e+02,2.315137829602514103e+03,-3.885388260790980097e-01,-8.166643699580330429e-01,4.267281189119432327e-01
1.041984564372297200e+03,2.917794358585208101e+03,2.732212683015718085e+03,4.510414965121287700e-01,8.910233877218931564e-01,-5.137013681800173259e-02
4.204851886353322499e+01,2.616825756480783184e+03,1.090241626195785784e+03,-9.858220832177044812e-01,-1.653799235083227848e-01,-2.836020346694989938e-02
1.845389129622295286e+03,2.078428942135458612e+02,1.131287918093361895e+03,-1.974970014258451145e-01,-9.763939623395810896e-01,-8.746293348963575520e-02
1.548823812251331944e+01,1.795993498594579705e+03,8.923515202958665782e+01,4.637855761771195878e-02,7.400866863974510101e-01,6.709103710709363178e-01
6.988242517065732500e+02,2.603318780477290147e+03,9.020534877912663205e+02,-6.636286659798594778e-01,-5.701807219703132201e-01,4.842426437058229283e-01
5.932834222109397615e+02,1.551664736979932286e+03,2.501010618914104725e+03,9.723397788355969684e-01,7.501769790140759564e-02,2.211960657324527624e-01
2.053042956891858012e+03,1.834767317907278311e+03,2.689447875655588177e+03,1.632569268674893270e-01,-4.990838753754280877e-01,8.510361103795933690e-01
1.115988266268354437e+03,2.894056832120377294e+03,1.451477707592340948e+03,9.165157246715640582e-01,-2.230991489550763762e-01,-3.320025544559537800e-01
2.089327600367693776e+03,1.237093717861106143e+03,2.805377913246184107e+02,2.194881593764203553e-01,1.294345623574244819e-01,9.669910247571551487e-01
1.533278368071524369e+02,4.296884224495456550e+01,2.981515569059722992e+01,-4.527368046737903495e-01,1.097098767403919400e-01,8.848689895342554124e-01
4.239622116282668571e+02,1.463198609082675148e+03,1.556410151600313156e+03,-6.944178521826311901e-01,1.875034285510166487e-01,-6.947131140634063007e-01
1.725593658073561073e+03,5.578600426615555534e+02,2.865964186959140079e+03,5.546867921887895791e-01,-2.738730008810430494e-01,7.856946874961819871e-01
1.684078984132499045e+03,2.327303687847906076e+03,1.858240897526590061e+03,1.120810022477419510e-01,1.004288993390591717e-01,-9.886110889084174236e-01
1.661589544397339296e+03,2.087205084520961918e+03,2.818057658478227950e+03,-4.874779517695472797e-01,-3.441377948792628261e-01,8.024552477703696951e-01
2.049440625345038143e+02,2.313634677548403943e+03,7.978769674417541182e+02,9.878169610923494270e-02,5.400239307210457085e-01,8.358327169729442563e-01
3.368806086500244419e+02,1.481647397138805673e+03,4.469426903032511973e+02,-5.492201363364631606e-01,-4.781464467894108172e-01,6.853708611147821816e-01
4.230735827012258596e+02,2.568303302270251152e+03,2.202930449204128308e+03,9.680693089439612598e-01,1.093528780033093256e-01,-2.255742918711145517e-01
2.944438025682524085e+02,2.426830121853642140e+03,2.395482101649096876e+03,8.038510882667254664e-01,-1.748694846075259379e-01,-5.685455929347263959e-01
1.813769903251964024e+03,2.204854018742465996e+03,1.404941173704469293e+03,-3.785405685892966332e-01,-4.400146482211658161e-01,-8.143059297849277733e-01
2.936573717537455195e+03,1.900350753868090692e+02,4.815359381931573353e+02,-5.970667374354301504e-01,4.890606877623196458e-02,8.006993864647740100e-01
9.380005926443295721e+02,2.288998389615348685e+02,1.901733362435152912e+03,-4.904334324342865536e-01,-2.315262218218507029e-01,8.401610898867093447e-01
8.784131061801193709e+02,2.125256998475059845e+03,2.745508569690151035e+03,8.585498313774060641e-02,4.117221028839538888e-01,-9.072562107074457760e-01
2.414919582010784779e+03,2.107717474183092747e+02,6.987960967780156807e+02,-4.061257473425487485e-01,8.731387178960825501e-01,-2.696120484255877248e-01
5.121499437336123037e+02,8.471097011081964183e+02,4.594009453229705855e+02,-7.495056160354118813e-01,-9.665848036749892513e-02,6.549034048654989171e-01
2.543174132531035866e+03,2.281999981316073900e+03,1.158832107654057154e+03,-4.749012795737370118e-01,-5.556742663340473731e-01,6.824184085979403402e-01
3.117543765626672325e+02,1.224614311513847042e+03,2.142431089931615702e+02,9.125819141413654689e-01,3.576605982042148635e-01,-1.981745353830424439e-01
1.369143037539060060e+03,1.854246355332969188e+03,5.429028793014650773e+02,3.857186067198932200e-01,-3.919700295318503946e-01,-8.352129383449855560e-01
1.706161197118313112e+03,2.373757221651854252e+03,5.026219476853237325e+02,-1.161382064198420438e-01,-9.491456958462388682e-01,2.926334995624069180e-01
1.551291742111571352e+02,1.924765996433760392e+03,4.713483967160790939e+02,8.278944293178216451e-01,-3.971414852516017557e-01,-3.960674874269158874e-01
2.585185960097549014e+03,1.653682668305333891e+03,9.396957591944510568e+01,5.385684975378273176e-01,-6.722254255145180268e-01,5.079930617160755002e-01
2.375517576280109097e+03,2.731412490613971386e+03,1.704689123962738677e+03,-4.791841275702611314e-01,2.754208413958577628e-01,8.333822244381778876e-01
2.341997998286331494e+03,2.156789617233871923e+03,1.234338132010094796e+03,2.518640350097586800e-01,9.656740605389247945e-01,-6.354617746857972593e-02
2.046780463520982948e+03,9.763161813930049675e+02,2.172888916221558247e+03,-6.006434821186931172e-01,7.598128497533406245e-01,2.488209009268287364e-01
9.592592568049955162e+02,1.095689274265443373e+03,1.937346542313173586e+03,3.210537714633025508e-01,-3.590614095440702869e-01,-8.763557382737987567e-01
1.595327395426889723e+02,7.543675862373949030e+02,4.518188681181001130e+02,-8.952025447446168016e-01,-4.145128353169455493e-01,1.636811328170395541e-01
2.279330876193746917e+03,1.853164862984027081e+02,2.482109330875791329e+03,2.467937504299137774e-01,5.790305958398934694e-01,7.770562488198877737e-01
1.442589743463075251e+02,2.127626632368745049e+03,2.044036341686688047e+03,-8.858970740733920213e-01,-4.501639220382431250e-01,-1.119768611961844407e-01
