x,y,z,nx,ny,nz
2.689841184168056770e+03,2.982747928688922912e+03,4.575448930272278858e+02,-5.379462272023228797e-01,-2.479215391419121728e-01,8.056976896257628251e-01
1.881924511132522184e+02,2.182661244002065814e+03,3.700037756076757489e+01,4.310903522149680533e-01,3.483656011324473001e-01,8.323475933615736011e-01
9.277956509555831417e+02,2.374279326425616091e+03,9.215501774738434051e+02,3.163348851222995695e-01,4.423506064779858526e-01,-8.392009183760582580e-01
2.923154039040345197e+03,1.325686726502871124e+03,2.046413237402067352e+03,8.726128717331566031e-01,3.227500246072558254e-01,3.665776830381651252e-01
1.301702036763956357e+03,9.552879301668994003e+02,2.074445348455235944e+03,5.794091987363182428e-01,-2.726326808507771315e-01,7.680861942203205395e-01
4.735575890217228334e+02,2.370667770185040808e+03,7.171267252541459811e+02,4.225804620594116878e-01,-8.992939290360133509e-01,-1.126773370497546889e-01
6.778947505629072339e+02,3.128520973914417169e+01,8.912765368550265066e+02,9.658632546380031547e-01,-1.370372911961118545e-01,2.198384728879729799e-01
9.496949866387834618e+02,1.360450444407136501e+03,2.767883534596714981e+03,-6.590129226666143758e-01,-4.520389004851429471e-01,6.011345940857090175e-01
6.518669996445605648e+02,4.080073778915161142e+02,7.344391683676573166e+02,-2.660967287829062861e-03,8.426920077413946331e-02,9.964394718466249579e-01
1.847985510762072181e+03,1.673755693466157936e+03,1.444597781315029806e+03,8.576168760559459425e-01,1.230147743150704492e-01,-4.993602499240930026e-01
1.960681363393710626e+03,9.661251138938713439e+02,6.032490116203003936e+02,6.049018452793492040e-01,7.515580613052135206e-01,-2.631619996595009336e-01
1.744233487353167220e+03,1.892998269839925570e+03,8.917381424863137909e+02,-5.751124324650473962e-01,-1.861157508834493379e-01,7.966220040252629531e-01
1.133450224070659715e+03,1.736729442199649611e+03,7.904673114921636170e+02,7.887146836253111637e-02,8.684511639688077267e-01,-4.894607923823535156e-01
1.163762421187803966e+03,2.037587540702785191e+03,8.466375991013997293e+01,-9.587502320545268075e-01,2.810452135384789440e-01,4.256266535946440221e-02
2.792797264166331388e+02,3.141531795217682657e+02,9.855717097455336670e+02,4.792183926781770076e-01,-4.301125550106362216e-01,7.650836046741342766e-01
3.938407965100954300e+01,6.559394689471336051e+02,1.220061927551836789e+03,7.089477474580352379e-01,-2.976142532276598862e-01,-6.393894334831632387e-01
9.524557061577320383e+02,6.513505702536281206e+01,1.552900113756357541e+03,6.807264492118351995e-02,-9.473523052356941365e-01,-3.128733366364904178e-01
2.187971069904867363e+03,3.829371495271429922e+02,1.204039002535812415e+03,-9.125654234470238768e-02,8.686978998164782695e-01,-4.868636383359610798e-01
1.737108775695777922e+03,7.536558011886240749e+00,1.037302506310606759e+03,6.123979433612338763e-01,-7.094624036305893222e-01,-3.487575903140143208e-01
5.552421303450630603e+02,2.784570869044989081e+02,2.397417829305479245e+03,6.193526146657232223e-01,-4.863041379672329856e-01,-6.163689026083962741e-01
1.555497181230990918e+03,1.127779754371678109e+03,5.483995828501299457e+02,7.306996765556937889e-01,3.976883578607060543e-01,5.549071568320771419e-01
2.146026498054316107e+03,2.064013018755743815e+03,2.417013035224265877e+03,8.294354207971738058e-01,5.583448367859280559e-01,-1.696838122835364615e-02
2.765455535378762306e+03,8.578548165110221362e+02,1.155516985345849889e+03,4.598954432439401052e-01,-5.661841496682381569e-01,6.840553266716911107e-01
3.660558959833279005e+02,2.602811491068933265e+03,2.284147164698062170e+03,9.804723071853498062e-02,1.852110578758706383e-01,9.777952774425366922e-01
9.664375641492396198e+02,5.941559705766289881e+02,4.224543089956816857e+02,6.805787773918601236e-01,-7.317040792467588428e-01,3.770501528250136403e-02
2.830666360665945831e+03,2.001172131348892208e+03,3.898215035829296653e+02,-5.179565264004950542e-01,-3.303643158796269463e-01,-7.890376768903493154e-01
1.728142027155288361e+03,2.747318875139484135e+03,1.184912168040779761e+03,1.543689779762268954e-01,-1.794871845292413809e-02,-9.878502225259013780e-01
1.246835194013624601e+02,1.905561899988574169e+03,9.906991142098642911e+01,-5.220138431219770725e-01,8.526319232862022979e-01,-2.281120299974737087e-02
1.770287080723224108e+03,2.998525513016369587e+03,2.889058984546571082e+03,-2.949141472616620407e-01,-5.601450055692167723e-02,-9.538805069149307592e-01
2.948782619010167309e+03,2.669058991361946482e+03,6.198831203429062953e+02,-6.604294226468981899e-02,5.704874556936370134e-01,8.186466836634858080e-01
2.942231424557184255e+03,5.670997020045967929e+02,8.258720685405096162e+01,-7.111056251148288876e-01,4.259035251613682571e-01,5.594059145067811212e-01
1.714408633770682172e+03,2.132277609878634848e+03,5.600619777156363170e+02,6.659809586763870692e-02,-9.727624144151810759e-01,-2.220314813893569383e-01
1.598890505456096662e+03,1.650035407189935540e+03,2.313666290081994703e+03,-6.747958045559466767e-01,3.723733771810864845e-01,6.371724178905149305e-01
4.054864047990872677e+02,1.533587527902431020e+03,1.232984801376317591e+03,3.107152420697227302e-01,9.474672479250019208e-01,7.590686698169335500e-02
1.048098385243466964e+03,2.301845870085121817e+02,9.454747845803472046e+02,-6.533131059617964809e-01,-7.559033175680666128e-01,-4.233391156202515743e-02
1.909398943883936909e+03,7.849328805311506585e+02,1.373843498608783875e+03,7.365886050279506492e-01,-5.603945828517926664e-01,3.786755054837098733e-01
2.755532247195209493e+03,1.692971924712223881e+03,1.356516653437107834e+03,9.105643758144174038e-01,-2.425660351716092955e-01,-3.347151566314650606e-01
2.144957390767214747e+03,1.018154891000566664e+01,2.108687063442945600e+03,9.156633759474412937e-01,-2.975017201457871852e-01,2.702837554475530091e-01
2.998438893757211645e+03,9.790661299920770944e+02,1.612484162999615592e+03,6.198430081401984371e-01,6.208155792113233540e-01,-4.799819391062740692e-01
1.699502273696647308e+03,4.111339416074989686e+02,2.806752938859141523e+03,-1.100062139104500958e-01,4.593319842339310677e-01,8.814265489312242963e-01
4.714740806458557358e+02,2.514376711724586585e+03,7.199243220969724462e+02,1.281169617647323067e-01,3.154591454673499329e-01,9.402508025251472557e-01
5.888282793335869201e+02,2.724027553348716538e+03,2.988385784383518057e+03,7.123527850441545572e-01,-1.213626119758919597e-01,-6.912485993144765750e-01
2.832252437019154513e+03,2.476526217727742392e+02,2.669955600387212598e+03,-3.302235268142966751e-01,5.845402793871427027e-01,-7.411242028920177471e-01
6.387218077833754251e+02,6.569201445875629588e+02,4.303721837802206664e+02,1.724717108560335221e-01,5.929957892665851382e-01,7.865173252169925799e-01
1.296070217838806229e+03,3.178320117040145476e+01,1.179884117316775246e+03,-6.964866974470210748e-01,-6.494579611459196933e-01,3.051403562027266148e-01
2.981804085520637727e+03,1.822075859982607426e+03,2.540718713764639176e+02,-5.637787987740858764e-01,-3.411398119644156735e-01,-7.521815570364192016e-01
2.480135178025941059e+03,1.134982494463409239e+03,2.054050650084749577e+03,1.399950088033300177e-01,1.633970469764398636e-01,-9.765770847964510004e-01
1.830256455402415838e+02,4.812654537889641233e+02,1.838630548521293576e+03,1.709981860216207017e-01,9.544343586096043497e-01,2.445703896279934064e-01
1.489958107724446563e+03,9.763852095504408908e+02,1.721054054069283666e+03,-5.316147311166017353e-01,-7.787980251843208412e-01,-3.329555730556634785e-01
1.037024212204524929e+03,2.035992413720324521e+03,2.861403802035624267e+03,8.191742623805407797e-02,2.187579132833158968e-02,9.963990089478673706e-01
2.613719609029866660e+03,2.031752745624295642e+02,2.513337458579564100e+03,7.835321180623358028e-01,2.170365940454881959e-01,5.822134804432854693e-01
1.481761229932572178e+03,2.881942400078212358e+03,2.909030713444976755e+03,3.762429666065965073e-01,7.638783311572149293e-01,-5.243387504920227205e-01
1.858432049066893569e+03,2.337672650457266457e+02,1.545232746324169852e+02,-7.717276357238925799e-01,5.650841684624369199e-01,2.917470459372766833e-01
3.614697678725147512e+02,7.633498117893720973e+02,3.261268986346070733e+02,-7.941996167927488637e-01,-1.289229422609187714e-01,-5.938230743622536778e-01
6.555836315797046154e+02,1.803745338275427912e+03,7.828225925368141134e+02,2.914298616396445163e-01,5.692669735975218748e-01,-7.687676817581603483e-01
2.956779640300141637e+03,2.310752769875470221e+03,7.780196431020398222e+02,-4.639867129000569412e-01,3.809712496839679496e-01,-7.997357295797380417e-01
1.244389354408822555e+03,7.050800861700665791e+02,2.240395167579227291e+03,5.221109115336356465e-01,-2.282294211747565305e-01,-8.217734039063029350e-01
2.822833336578362832e+03,1.438606644437321393e+03,1.703255890395013012e+03,-4.173275454566326426e-01,8.305344809706101117e-01,3.688498281442211812e-01
1.179682080068713503e+03,2.393307447611503903e+03,8.627210293740150746e+02,2.046023653031783796e-01,-6.131284258999543102e-01,7.630277881347369284e-01
2.179057607776274835e+03,1.256948336229472488e+03,1.799473139316707488e+02,9.925345697013608914e-01,1.010291344217285198e-01,-6.832453399570903585e-02
2.437717601696096153e+03,2.337762692625557065e+03,8.317403702931267162e+02,-9.474447320870108546e-01,-3.188884999881269056e-01,2.566328536829787232e-02
2.561454135128157304e+03,2.257911441781997837e+03,6.709706404791618297e+02,-1.033000733222613488e-01,-9.946234841991296038e-01,-7.295171773117781200e-03
2.659041012755465999e+03,2.835436314672148001e+03,2.952424024482114078e+02,2.566171289856853943e-01,9.029286152858521097e-01,-3.447717575572537552e-01
5.454074595463555397e+02,2.180288592685488766e+03,1.281264466185497668e+03,3.300064715374379509e-01,-9.406296306783396011e-01,-7.944574647733348982e-02
2.660787838129595002e+03,1.710241529214618595e+03,1.619053794677463429e+03,-4.565223926619467187e-01,-3.924161925867380996e-01,-7.984966103835002826e-01
3.438762607210784381e+02,8.002631849918358284e+02,2.803397732505708518e+03,9.828374195154830906e-01,1.126413524313360781e-01,1.460908365455746427e-01
2.370364175019796221e+03,1.202057743429616039e+03,5.440183812458734565e+02,4.770756954232066582e-01,-3.594596038276665073e-01,8.019897593189834195e-01
6.647143085019014279e+02,3.645196026441237791e+02,2.722763054414988346e+03,1.413394784489786227e-01,7.148177571422730248e-01,6.848786212942123974e-01
2.362356088622707375e+03,4.208093421794409892e+02,1.456162095234594062e+03,-5.521766545464086295e-01,7.300817777777464102e-01,4.025935170004870667e-01
5.095623107748520511e+02,8.782755632478233565e+01,2.373415208930562130e+03,4.413434106618633335e-01,5.625018534968020401e-01,-6.991478088916649458e-01
2.473555714000606713e+03,5.069920282402308089e+02,2.517553325650443185e+03,7.843351901452997321e-01,-4.872009102460551078e-01,-3.839968522724528377e-01
2.881961347082761904e+02,3.872974388173533100e+01,1.528669367016286515e+03,7.797829561888858230e-02,9.664695313608404614e-01,2.446549209877670883e-01
6.347558934934643275e+02,2.506818497664597544e+03,8.757377845356530770e+02,-4.940551044160199079e-01,-6.172569886719894150e-01,6.122935274327692134e-01
8.769963913847693675e+02,1.787310920885370706e+03,7.021436102765552505e+02,-6.924616872072921758e-01,-7.171769266326879499e-01,-7.844786584555696329e-02
1.586287330438022309e+03,2.634567540400566941e+03,1.089308252685350453e+03,7.092497075734097711e-01,5.653454832618750592e-01,-4.211286464519241601e-01
2.179312446756430290e+03,2.704552373119926415e+03,1.032321040264601379e+03,1.286274672382005102e-01,6.748768696314647597e-01,-7.266334602179564950e-01
2.867881731245734045e+02,6.842630836581258791e+02,2.469615719802216063e+03,8.424623483606402674e-01,-1.357478627513755698e-01,5.213729081503075680e-01
2.873290541851060425e+03,1.933319883615842400e+03,1.670858690126703323e+03,7.469369341484950464e-01,-5.059594950817466463e-01,4.313817401576831578e-01
1.039750054599836631e+03,1.362036089338695092e+03,4.576950285380271453e+02,3.606887171960394128e-02,7.560597176040787515e-01,6.535080258951035947e-01
1.302073598220954182e+03,2.477520370143059267e+02,2.002689998751431631e+03,-9.770619881177815547e-01,1.084956955747165691e-01,-1.832445235664266481e-01
2.409771921967940671e+03,1.535987371082206209e+03,7.972956928633097959e+02,-3.999344419184818755e-01,8.518393661247878335e-01,-3.382634128714960831e-01
1.121898714626683613e+03,5.255340698079279491e+02,2.262771414356638161e+03,5.112871939331645743e-01,8.560185984873884824e-01,7.627295958357516170e-02
6.510179992757348373e+02,1.952478322845197908e+03,1.697904797153474419e+03,-8.914395264960162102e-01,4.371072074329637736e-01,-1.194690747043540974e-01
5.544781104378054124e+02,2.039815886673165778e+03,4.034163569077821307e+02,5.760935926910109028e-01,8.172480924574508920e-01,-1.489052836610249737e-02
1.291946106393307446e+03,1.767174613078262155e+03,4.274573723708630268e+02,-9.471143344450715096e-02,5.476545972674099483e-01,8.313267627514211444e-01
7.349075598038379553e+01,7.819718434888451384e+02,1.420942949203900298e+03,1.258175029103009435e-01,-3.544729139407866714e-01,9.265629548194467269e-01
2.843134328367771559e+03,1.800470038027229975e+03,5.164585567228097318e+01,-6.971785058767572540e-02,-9.330451795458253317e-01,3.529392500639920716e-01
1.826617667978380041e+03,9.800222916226737198e+02,1.809335944672172218e+03,-5.767189073865502946e-01,7.356090396594333614e-01,-3.553514353906424006e-01
1.036383205206956063e+03,1.804290937564297337e+03,1.333703273054635929e+03,-7.948511610858965959e-01,5.126793449017730264e-01,3.246097981138138522e-01
4.982716039719321657e+02,2.930067663209884358e+03,2.705165651095735939e+03,5.439645324069979360e-01,8.332362375164672486e-01,-9.909571117176387001e-02
9.977905741439416261e+02,2.007748962683800073e+03,6.793553975058493961e+02,-1.381664776010712303e-01,-9.894735062413676507e-01,-4.303725030397510115e-02
8.893368744003887514e+02,2.411700650933888937e+03,5.262901131606880654e+02,-8.683693144089188465e-01,4.958781571747683525e-01,-6.291822465709140388e-03
2.846871248235366693e+03,1.589466776742622642e+03,5.234479767880743566e+02,2.682346221513185261e-02,-8.040271226851614106e-01,5.939872792084135433e-01
3.104973627847439275e+02,1.504865975717345350e+02,7.912032258063637755e+02,-6.896884614658337354e-01,4.840885640248425159e-01,-5.385054208652473307e-01
3.845695130625080651e+02,7.787692267714147647e+02,9.338486943684112020e+02,9.907898053288525242e-01,6.460009417637574414e-02,1.190058380451064490e-01
1.407419022025728736e+02,1.602402966619899189e+03,1.815732156512543952e+03,-1.774472614200681489e-02,-6.994889184110729685e-01,-7.144231083288477002e-01
1.812707885004740774e+03,1.836893301597454240e+02,1.160822669722628461e+03,4.418984926043573180e-01,5.925693955984500105e-01,-6.734888519003743301e-01
7.484253267737617534e+02,2.549855293002136932e+03,9.166963768318008761e+02,-1.763942588334025119e-01,-4.256220719048036116e-01,-8.875420651203393962e-01
4.332426334558991954e-01,1.990228967091382628e+03,2.420891155623174200e+03,-4.483111804129480404e-01,5.213242033344698406e-02,-8.923560367179268482e-01
5.806834622115629827e+02,5.495634656745685334e+02,2.583885320651255370e+03,-7.436317476588731878e-01,-2.975305815536018472e-01,-5.987381538821336946e-01
2.509499278055609011e+03,2.206716817234966044e+01,2.097326709130321433e+03,-3.521766231743407305e-01,-8.902466584052426413e-01,-2.888468682326637560e-01
1.897598358148701664e+03,1.722318678900656778e+03,1.608297143394994464e+03,-2.485794980811766586e-01,1.220000834298379661e-01,9.608976078525863773e-01
2.051523091313409623e+03,7.705260255240308709e+01,1.618155452192860821e+03,-7.114280984450744860e-01,-3.662795463744842467e-02,-7.018037144970823427e-01
1.084414456395257048e+03,2.075135585565429210e+03,2.869352820078693185e+03,4.871216739665077400e-01,-7.478580927960053470e-01,4.510218928074212208e-01
2.620315284208531011e+03,2.845225091208873891e+03,1.839035645116510977e+03,3.956969179844163631e-01,6.198180169613636270e-01,6.776795518146587760e-01
1.502621819278557041e+03,2.009113192662917754e+03,8.574893777995066557e+02,6.553873980727739079e-01,-6.615916316891041760e-01,3.643677693297640019e-01
1.808973964923227186e+03,1.338396630921676433e+03,5.832741082712576599e+02,-1.168544196209968938e-01,-2.958461888674390750e-01,9.480612201475449030e-01
1.410625517316911100e+03,2.658697257547483332e+03,1.628513587827803519e+02,-7.258916573878035905e-01,-4.583507903123384963e-01,-5.128312146845610542e-01
1.670259979169543840e+03,1.437954113152038872e+03,7.133246662368064506e+01,-9.575793033685338074e-01,-2.723846690145966254e-01,-9.406630558304220069e-02
2.994938792747905154e+03,7.454711459369685826e+02,1.080178797233219257e+03,-4.391239600500447815e-01,7.186020660648827496e-01,5.392413359130108219e-01
2.485007413057515350e+03,1.002633426587761846e+03,1.862874218325018091e+03,-5.824370707253094803e-01,6.124118531518499831e-01,5.345266885423380909e-01
1.778777390001628646e+03,1.452931678950599917e+03,2.706605049502234124e+03,5.236575866888775188e-01,-8.471695665478385928e-01,-8.992473196139116887e-02
2.392972213896226549e+03,8.387970582983449503e+02,1.793449804028482049e+03,1.940211361842019699e-01,-6.726163323562986407e-02,-9.786887510379727040e-01
1.026960740517831255e+03,1.661451625354761973e+03,6.004840156631573791e+02,5.875635479153770158e-01,-6.143410541384299872e-01,-5.266442312996292285e-01
4.621677479377005398e+02,1.365803261629057943e+03,1.167446278408560602e+03,7.805212826984782026e-01,-1.475875498024716015e-01,-6.074573585018337996e-01
1.858182891232478596e+03,7.693451281353541162e+02,1.402153042768120031e+03,-6.077614375549994508e-01,-7.892291245425079316e-01,-8.799672718315698638e-02
1.325500447633809927e+03,1.724246484879785612e+03,1.473340885816981199e+03,9.241342988705000261e-01,-3.466629571020920508e-01,-1.606256263002965590e-01
9.457316381466073381e+02,2.255565817669048556e+03,7.734179028072207984e+02,-5.752643218943296333e-01,4.319190977871978920e-01,-6.946343303653730317e-01
2.848524472376394669e+02,1.592768136240187687e+03,2.797746658979304357e+03,-1.672717176057061383e-01,5.641005688565038367e-01,-8.085856297913076585e-01
9.796328298461303348e+02,7.971355604569445177e+02,1.772978474176682312e+03,-5.681501627991017989e-01,2.182034054268874035e-01,-7.934687557626094456e-01
2.803835661384589457e+03,8.481017953041518922e+02,1.991120766427282206e+03,-6.690703631277056251e-01,7.395364217587406808e-01,7.369348734073045970e-02
1.317732100883926478e+03,2.630670305938664114e+03,1.833606177135187636e+03,9.373392429339859611e-01,3.403193089005697169e-01,-7.468541788984463248e-02
7.911578116512632732e+02,8.779519875878006019e+01,1.953875968227242765e+03,-2.921952194555541560e-01,5.585626950212798647e-01,-7.762922577598498908e-01
2.646364259311408205e+03,1.396997662160177924e+03,1.888602362823770818e+03,9.379834730234284379e-01,3.425959918684748362e-01,-5.305648584822852953e-02
1.000650258108769776e+03,1.602193632441864111e+02,2.514681578077631457e+03,3.423301185890922360e-01,8.793780612328587765e-01,-3.309143625307255920e-01
9.290425043194873069e+02,2.488531092390307094e+03,2.187245151154980249e+03,9.411084436475384285e-01,-2.756332652653289417e-01,1.958090916542964965e-01
2.124143432859941640e+03,8.500227276842741730e+02,5.173706382315174324e+02,-3.819526049631719600e-01,8.978863685938170969e-01,2.188887312203513513e-01
1.934821745403652812e+03,1.892569820838959913e+03,1.241552017736149310e+03,-1.260177670618274071e-01,-4.874445562166586643e-01,8.640123419254470694e-01
4.056584911703960756e+02,1.655989220597608437e+03,2.363816528773573282e+03,3.386475958069433689e-01,4.839956931181261246e-01,8.068865935788509525e-01
2.511534648914290813e+02,8.077387483603536111e+02,3.824823205572680536e+02,-6.241588336589071195e-01,-6.827025686194928555e-01,-3.799249309612356407e-01
8.599550537780276045e+02,1.541078985741038878e+03,2.987194361011698220e+03,-5.012964527678457488e-02,-7.793585523287299699e-01,-6.245696643101472656e-01
8.228087110459615587e+02,8.147092505833145424e+02,2.255428240028986693e+03,-2.751089904354834803e-01,8.097515950267890616e-01,5.182831250707859994e-01
5.519882567169742060e+02,2.662455925296060286e+02,3.480235264153834578e+02,-3.145359275707679814e-01,8.165509769886446501e-01,4.840574885755684065e-01
2.215187200715175095e+03,2.366221652715620166e+03,2.667008303648899073e+03,-8.463241702655215359e-01,1.248187405327288862e-01,-5.178375042773550874e-01
2.269369632179644213e+03,2.007601075484223657e+03,2.435099582058942360e+03,-5.030430807690495776e-01,8.418860522797136925e-01,-1.953856030194210114e-01
2.087114269372483705e+03,1.241452970992925202e+03,7.544672699305268679e+02,-2.560495569308685604e-01,4.217227376411153417e-01,-8.698209913263699189e-01
7.590144901554006083e+02,1.687595108766282692e+03,2.991672367569468861e+03,-3.269509385999526674e-01,5.745395943711709696e-01,7.503381492689948917e-01
1.046510089529692095e+03,1.094939130204888670e+03,2.869398319289076426e+03,-4.041712831201672573e-01,-8.771742522292373945e-01,2.592506608035471949e-01
2.193693305297329516e+03,2.894327642141353408e+03,1.513360640517428692e+03,-1.780652964252991133e-01,-9.243665812840050622e-01,3.374006129429694134e-01
4.098863996590999932e+02,3.123863877481105646e+02,2.222417874707030478e+03,-8.063098812163831397e-01,4.591292880310124391e-01,3.729137599029537231e-01
2.763870075010864866e+02,1.927575333394903055e+03,3.961374163497272320e+02,6.686051419786659400e-01,-6.894488924022365017e-01,-2.786169213903160746e-01
7.283201619605318911e+02,1.039464582187316068e+02,1.184868098799039217e+03,-1.453041322176185091e-01,-3.043528263709607273e-01,9.414117410785212137e-01
2.527252637420460360e+03,3.327013118123294362e+02,2.513206462042749081e+03,-6.309918150928475744e-02,7.502895033717635886e-01,6.580912964194334247e-01
9.332097014423619612e+02,3.236261721757502983e+02,1.062507458058137289e+01,-4.782583342669309845e-01,-7.224288308495683264e-01,4.993651470232443046e-01
1.346109779076173027e+03,2.231005522927963284e+03,4.579090016890360175e+02,5.123774456518577214e-01,-7.269132238268994906e-01,4.572379229819651947e-01
2.517709055526084285e+03,7.756285303040667714e+02,1.854729996777636643e+03,1.847817439557351282e-01,8.118039968402191997e-01,-5.539223572080501645e-01
1.281297147337265187e+03,5.533115775642576182e+02,2.107104291247912897e+03,-9.783407763234174270e-01,7.564196465497062538e-02,-1.926852837297885479e-01
2.331542677833632297e+03,2.684251050281650350e+03,2.367300942453610332e+03,-2.925274087851100768e-01,9.526660847666192922e-01,8.279520544638874213e-02
4.557651199691434840e+02,1.344536535023000852e+03,4.840670899768323352e+02,-1.429091684588422451e-01,-7.905165587474997091e-01,5.955338276843835654e-01
2.915008943907442244e+03,1.331098741376900534e+03,2.445879095706232874e+03,4.405399586276611545e-01,-9.190382144740649739e-02,8.930163674063884560e-01
1.568858964761163179e+03,1.126497924518591844e+03,1.047546371109653592e+03,6.268732099906593191e-01,7.310660914978841518e-01,-2.693925545704893842e-01
1.376498057167789852e+02,1.777973857985188033e+03,1.876536361405322850e+03,-5.623198630748495880e-02,7.763583300408234411e-01,6.277783901124176502e-01
2.561548160620583076e+03,2.815781063157297694e+02,1.219000926012888613e+02,-6.539230059389036231e-01,-6.604839330441003575e-01,3.689792358580965548e-01
2.816659254129981491e+03,2.156668512362219190e+03,9.255308253678722394e+02,6.380675626973781878e-01,6.901229791409366765e-01,-3.414675081103117904e-01
1.946811088885766139e+03,1.349201197743431294e+03,3.570462044209998709e+01,7.066317551889882420e-01,-3.836672523724813932e-01,-5.945342732050697965e-01
2.616128893061847975e+03,3.542952819744173780e+02,1.088327558529389989e+03,-3.136498016602188438e-02,-6.147976860616347627e-01,7.880609387810341149e-01
2.812941384578933139e+03,1.815724253184320332e+03,4.592280635569653100e+02,1.317715118567969190e-01,-9.784693882640440599e-01,1.588518960955815906e-01
3.013945968780676026e+02,1.925262811920433251e+03,2.605756065820265576e+03,3.015970905889871490e-01,5.559496765120643946e-01,-7.745703016088270054e-01
1.048373284645478634e+03,6.728001023431830845e+02,4.159679769579317394e+02,-6.439214397593792105e-01,7.325084385923295027e-01,-2.208994495448910744e-01
1.809611432036517726e+03,2.671013613787549275e+03,4.226504913476919683e+02,-7.430590457713555086e-01,6.230452178461310941e-01,-2.442906281796943802e-01
1.316093622142597042e+03,5.952632611066665049e+02,1.628162916573587836e+03,2.114188236214696037e-01,-8.663108015023704978e-01,-4.525568209836576816e-01
7.232898058788580329e+02,2.298406786619662398e+03,2.197552409183280815e+03,-3.677964924788695300e-01,9.252524745538022177e-01,-9.291715908435049798e-02
4.878462978307777007e+02,1.946505086186504059e+02,1.200540657939510538e+03,-5.801681818393034096e-01,8.133763649040470778e-01,4.270561785942984107e-02
2.179116362719112658e+03,9.942019130272750544e+02,9.170342858338552787e+02,-2.801690589511547369e-01,-6.208869640937931811e-01,-7.321234023201397267e-01
2.878084515800004510e+02,2.614995487489930838e+03,8.215259529310087601e+02,1.924741844790796019e-01,-5.176855692178776724e-01,8.336398141479779422e-01
1.016304728234487243e+03,1.581459160254290509e+03,2.276109527668767441e+03,1.103777670466198763e-01,9.656792959557216616e-01,-2.351175150946096803e-01
2.196905688342181747e+03,1.272378051444835137e+03,4.207445518419439168e+02,-6.030857830197621228e-01,4.634929440324904726e-01,-6.492009158585152484e-01
1.872081311759229720e+03,2.080005073244072378e+02,2.628724344306821877e+03,-2.776383076543532114e-01,-9.131272003510139124e-01,-2.985225051850297628e-01
2.804893959257537517e+03,5.749872123161244417e+02,2.469832243875913264e+03,4.849487041890505612e-01,3.714014261949045159e-01,-7.917611602786231995e-01
9.031916423814195696e+02,1.137170912764216610e+03,2.448946089156783273e+03,4.862429001859361888e-01,4.755938474441535058e-01,-7.330609349106232964e-01
2.626742347937721206e+03,2.134131720898345975e+03,1.516062575324099043e+03,6.079726858066744066e-01,-7.479725184963484930e-01,2.662824156553498245e-01
2.686338321415067639e+03,2.875836565585892004e+03,1.562118208239743808e+03,6.309596673366756059e-02,-4.483126388698617237e-01,8.916471705845787632e-01
3.298359513354682804e+02,6.311124456924710557e+01,4.514727777396603301e+02,7.962430237093233165e-01,5.620882471606252206e-01,-2.237271767088877539e-01
2.244540617242051212e+03,2.516917144207011461e+03,1.483036789281486108e+03,-1.385815227490664638e-02,-9.994122420414244257e-01,-3.135477751888493536e-02
2.136708154745239881e+03,1.381269687215147314e+03,4.106426625768536951e+02,-1.166762309663487429e-01,-9.796191727182848030e-01,-1.635020904154760313e-01
1.843214680999301663e+03,2.648272835112533812e+03,2.250722083881780691e+03,8.792555721414484216e-03,9.797872998614312046e-01,-1.998487878225227998e-01
2.242829002739392308e+03,9.962705382899059714e+02,1.512511454389829169e+03,-3.486313466474614819e-01,-5.531760784862197466e-01,7.566058487253356502e-01
7.167760118762223556e+02,2.818646942232045149e+03,2.305224220060435982e+03,-6.804864596538542365e-01,4.821354071890850412e-01,-5.518003509987816635e-01
1.822064788034238063e+03,1.502274856122785991e+02,9.474748532258591638e+01,7.052260025295774559e-01,-3.866324238804686453e-01,-5.942824700093939372e-01
8.881078511892934557e+02,6.061283225675857693e+02,3.130258610582976644e+02,4.630389867172933216e-01,7.021076551194374016e-01,-5.409618631682897583e-01
6.126410833804061440e+02,2.523431529457629040e+03,9.749087454040294460e+02,-3.857454901998631502e-01,4.196700907996099295e-01,-8.216309583253995630e-01
1.584931313599522355e+03,2.166235633279694412e+03,1.829007835625599455e+03,-3.972095449911720033e-01,9.049139690409762071e-01,-1.528243632488397730e-01
1.522263881767076441e+02,1.454318873357796974e+03,3.225609806013359844e+02,-8.694024456770306220e-01,-1.576480646209640598e-03,-4.941021171373078946e-01
2.759123383394283337e+03,1.855394401650942882e+03,1.659978539278097571e+02,-9.045345319793425265e-01,-3.314054315133883599e-01,-2.683052746785585807e-01
2.214258745770814130e+03,7.591905942871630941e+02,1.980905337668404627e+03,-6.483016596175509294e-01,-2.093769984834873699e-01,7.320288454993936211e-01
2.533323479594746004e+03,1.856269109446805714e+03,9.760285441604543166e+02,9.728080589357755992e-01,1.103032995819426959e-01,2.036606554318845241e-01
1.819078379816427059e+03,1.404343762833493656e+03,1.690062148423936833e+03,-8.542362148022941692e-01,-4.465739697644263151e-01,2.661807259158522343e-01
1.708757634195982007e+02,2.041805456083676518e+03,1.527099714361806946e+03,-1.666515615963587993e-01,8.812731839210230511e-01,4.422497397615943182e-01
7.206911536947735897e+01,4.728843424697158753e+02,2.353708741425263270e+03,-2.800725238337420375e-01,-7.707405881844811013e-01,-5.722921693666951359e-01
1.186491465707319776e+03,9.291498067039484567e+02,2.213089893131786539e+03,1.233139136117363255e-01,9.806662392945212359e-01,-1.519454040690209062e-01
1.181939854192208713e+03,2.640979241781086330e+03,1.111818440058652868e+03,-7.979710883285225931e-01,3.304588560720826962e-01,-5.040229028876799244e-01
4.201776367169043169e+02,1.564785857262225363e+03,2.026868487912588080e+03,5.897376176517724611e-01,8.073384233507322483e-01,2.035221137777543099e-02
2.486417112685015582e+03,9.811772310546087965e+02,2.159903935575534888e+03,-2.429529973095237438e-01,9.088309201508546487e-01,-3.391167935624381791e-01
1.598249366026383314e+03,9.940877593402909724e+02,4.017759377818670146e+02,8.383460785287095707e-01,-2.265237704660640339e-01,-4.958455747804680347e-01
4.627352957481592171e+02,1.756171821904832541e+03,2.140557401845885124e+03,-6.738755652488659376e-01,6.434093371425911312e-02,7.360380199482217112e-01
2.853455008032670435e+02,5.552344738482531739e+02,1.723807099300358686e+03,-9.682557785953483931e-01,4.857935810844932201e-02,2.451954183554146127e-01
2.822213651358702919e+03,6.537831322710550239e+02,2.441395369007308091e+03,-3.215681605875773674e-01,2.685365656447193938e-01,-9.080099289149108355e-01
1.260765112386720375e+03,2.704035689527034265e+03,2.374201569687951633e+03,3.602984312812337886e-01,-2.606468682127595082e-01,8.956831194720387135e-01
2.833684664531915132e+03,4.734520869744393963e+02,2.620884028587937792e+03,-3.295619155025614755e-01,-6.234343388057218549e-01,7.090264938971990727e-01
1.462808435900319637e+03,2.872231722084319244e+03,6.348725293570856110e+01,-8.147829703543290059e-01,-4.152766020610421660e-01,-4.045665025693692129e-01
2.639530455365860689e+03,9.339795114815648276e+02,6.026702034859574724e+02,-1.042927791969892048e-01,2.058928319850207023e-01,9.730011089122951873e-01
1.265215186700655607e+02,2.451827881829568469e+03,2.217457325030900392e+02,-9.523648923942212852e-01,1.163303070239238429e-01,-2.819013504803817849e-01
1.883834347163836810e+03,2.852939433638929586e+03,9.480071445079174737e+02,-8.715627084849540684e-02,5.976748841882840724e-01,7.969871499982323915e-01
2.067333090909522070e+03,1.105206673070839997e+03,3.560640558840804033e+02,1.090649200414866987e-01,-8.369314762579407319e-01,-5.363306324134844427e-01
1.406656111312792518e+03,1.038588912919181666e+03,9.314075147984425485e+02,2.395666608190016034e-01,-7.855602971583286465e-01,5.705285571753196949e-01
2.939804877245574517e+03,1.839346668624820268e+03,2.018728544732600767e+03,-1.511597025418658924e-01,-3.692408948041469019e-01,9.169579630123114722e-01
1.621776828723465769e+03,2.832093984943907344e+03,1.263854726582266721e+03,5.590709098267599986e-01,3.672978395294046461e-01,7.433249725809771835e-01
7.110845049248320038e+02,6.753765470809470344e+02,2.325391991058212170e+03,-7.437009030624606165e-01,6.506090756924296503e-01,1.536775761479955982e-01
1.233257266995708278e+03,8.960215919351610410e+02,2.165630825116366850e+03,-8.602956758381892222e-01,1.808720647460689002e-01,-4.766305134258685960e-01
1.771949332077739427e+03,2.622896390781343143e+02,2.377905046266971112e+03,-2.058800881445235209e-01,-4.323688890018638487e-02,9.776215836118984370e-01
2.327891886849895855e+03,1.640386073979667344e+03,9.230409977969222268e+01,5.135586013035836617e-01,7.808953756824887904e-01,3.556121134956058416e-01
7.437141779199916982e+02,1.427879185185847973e+03,1.052146594861540507e+03,7.468319161759805480e-01,5.662330315534331859e-01,-3.487438070542932533e-01
1.600684330886611860e+03,5.111645681439295004e+02,2.408162922415155663e+03,2.636246107351337686e-01,-7.555708616255806254e-01,-5.996788621229922622e-01
3.735150445037383093e+01,1.095768063394049477e+03,3.651289875770494859e+02,-2.321260785374990032e-01,9.226473846248530730e-01,3.079598793799629419e-01
2.936206690649382381e+03,1.905904219194441339e+03,1.779093303669728584e+03,6.741510753188987293e-01,6.823646917241552590e-01,-2.826636784848224337e-01
2.022722582081764358e+03,3.541830371610351449e+02,2.002404456075140615e+03,-4.937414864446338925e-01,1.650986222495523237e-01,8.537925916138784377e-01
1.898265963647018452e+03,2.036646904511186221e+03,1.548409046732633669e+03,4.050624501653383169e-01,7.048170726039526546e-02,9.115682862011560417e-01
2.311919144730538846e+03,9.237162528962916497e+01,1.061644618164388476e+03,5.257221693046551514e-02,-6.399053749294236759e-01,7.666532939624337573e-01
9.164401776971568552e+02,2.336193657498781249e+03,2.692338561168187880e+03,5.589415120348291133e-01,7.803719155512176542e-01,-2.803641552394711689e-01
1.100870826711231985e+03,7.057888112161807612e+02,5.714217274014210943e+02,-8.647897414255738546e-01,-4.885841238687851362e-01,-1.158630960593609593e-01
2.085241756628190046e+02,2.086781509014477706e+03,1.054263041390998296e+03,-9.565502687015455807e-01,6.477376724702570143e-02,2.842814494891094945e-01
1.623982941350885994e+03,1.627376782908224186e+03,1.003394276645332866e+03,-7.324964797543925821e-01,6.458286107793430597e-01,-2.153005170598680795e-01
7.214531573969084093e+02,2.279078462250047323e+03,4.655582450297286528e+02,-7.927860502859598313e-01,-4.064045203720830224e-01,-4.542308271056960667e-01
2.781677047562311145e+03,2.309290957608973258e+03,2.834415145210999185e+02,8.632835686745420345e-01,5.465897459952946680e-02,-5.017508112123741926e-01
1.562869197765093077e+03,1.607013487022029494e+03,2.253157427755825211e+03,-2.356260828861473922e-01,-4.144400812876791185e-01,8.790448043677820955e-01
1.202888173521038652e+03,1.914028579169588511e+03,2.404855228029223326e+02,3.136337518874452446e-01,-8.931975105690733718e-01,3.222298508676912920e-01
7.542306237581498181e+02,1.770834708521701259e+03,8.070563869878742480e+02,3.157410388172608440e-01,-9.264073848539094991e-01,2.051266771893343055e-01
2.515985229149869156e+03,1.715280235861324854e+03,2.189109547568264588e+03,4.791053520361420182e-01,8.715531459137637604e-01,-1.041785750437489444e-01
5.739074324426004523e+02,3.842010252062455606e+02,1.122304659779360009e+03,-8.009309409495863896e-01,-5.993413800766823202e-02,5.957495505083391096e-01
1.163819133544508531e+03,1.268392487301266414e+02,5.242557384712437170e+02,-6.689129153538614370e-01,4.907083302237406214e-02,7.417193303529900916e-01
1.350817498422376957e+03,2.626933948514312306e+03,9.075016969343736264e+02,-7.716267729625772009e-01,-4.897553379814040819e-01,4.058716942163866914e-01
3.696535521760285974e+02,2.002768067871214726e+03,1.765776546881919785e+03,3.424677027790041794e-01,1.231342277673193736e-01,9.314256999382277691e-01
1.227551406360305236e+03,8.372841316437256864e+02,1.567245011546621981e+03,5.163166543276646037e-01,8.470717494201658315e-01,-1.260419128629315655e-01
2.867760391350625014e+03,1.346116257677650765e+03,2.018124144009157590e+03,7.874507332102621548e-01,-2.654839570121459436e-01,-5.562729647716071479e-01
2.265873574168047526e+03,9.502072018577707695e+02,1.941720915968008285e+03,-6.387056919727952531e-01,7.626597538433799173e-01,1.020055827350059285e-01
2.286091545769245386e+03,1.390653264058834566e+03,3.560657730155044760e+02,7.579525146741792341e-01,-6.516651754462945423e-01,-2.899111259745357216e-02
2.513928286101280719e+03,2.150046518610254680e+03,9.664682474169975421e+02,3.711207932503700069e-01,-5.627714633615066298e-01,-7.386187357785914953e-01
1.059623708023605786e+03,2.713942948966666791e+03,9.583650324194079531e+02,8.087125683534814868e-01,5.031026461407550610e-01,3.047486000513964233e-01
9.515735057695925434e+02,1.958507389558760678e+03,1.371342293136304534e+03,-8.391140110603935165e-01,5.304228140920695944e-01,1.205790808257709706e-01
2.358214868637957807e+03,4.158473619273741519e+02,2.650259128663674346e+03,-6.201929971662428764e-01,-7.478929373189188157e-01,-2.366786863543750563e-01
1.952319610200996294e+03,3.984857734568358865e+02,1.338695165620486023e+03,-3.150247559060530556e-01,-1.360291430131651269e-01,9.392845550829820311e-01
2.250464304307232851e+03,1.976832113367404645e+03,1.136751348755795107e+03,6.496994321701209107e-02,-8.496024377488657908e-01,5.234067292742450306e-01
1.189255857041737499e+03,1.187086931855420971e+03,2.819325746089691620e+03,6.037555235852696267e-01,-2.363938359156723262e-02,7.968189551483371158e-01
1.733628364413168583e+03,1.071109402114172099e+03,6.259758888748834806e+02,8.604857133752105147e-01,4.994799420381462740e-01,1.004197419769896765e-01
5.877603296278389280e+02,1.795470179238956007e+03,5.445049696865006581e+02,5.330405333343463115e-01,-4.162593418554810243e-01,7.366111254526892527e-01
3.044646833143272033e+02,1.702894243322677085e+03,1.363450218285981919e+03,-8.481586976825862545e-03,9.831230813425945181e-01,-1.827486514691607777e-01
1.382383640483823456e+03,4.031606936245860879e+02,5.603977839706511759e+02,9.369289449341006160e-01,3.488526907186746406e-01,2.158592881980792369e-02
1.223120178690847752e+03,1.497448013467787860e+03,1.421300607319532446e+03,1.325760319998127261e-02,9.245598287828904471e-01,-3.808061960608628560e-01
8.376486040586697754e+02,2.888589133890369794e+03,4.971077158615888720e+02,-4.485466228803587363e-01,7.626322780603544960e-01,-4.660449930672996288e-01
6.675829092987792137e+02,2.225237074926517380e+03,1.415030774589574094e+03,-6.797368488756031502e-01,-2.074118428025736038e-01,-7.035184032745027682e-01
1.903598218629659186e+03,1.257742933319035956e+03,3.822097747758895707e+02,-1.710905935886997686e-01,1.959100182954225944e-01,9.655813137778472832e-01
1.244472696025752384e+03,2.464004871794228166e+03,2.077660543722563943e+03,-1.807355656852277503e-02,-4.544913587472960703e-01,8.905677691096849369e-01
3.972389613683278071e+02,2.238138520445484119e+02,4.944530675521085072e+02,-7.009674107352819039e-01,-1.283769577919879890e-01,7.015440440878597528e-01
4.372484228891455587e+02,3.699980383066178433e+02,7.981215252485856126e+02,-1.220799488033378656e-02,9.997565976571963775e-01,-1.837689587249924719e-02
1.350812879671183964e+03,2.468611202562813105e+03,2.611191271107929879e+03,-9.869482248188977680e-01,1.219431939759347827e-01,1.051810770517875859e-01
2.106847153093598081e+03,1.625818450632219083e+03,5.867203967114625129e+02,7.450236252745028320e-01,1.479054335982500357e-01,6.504335327264046951e-01
1.617702989485694388e+03,2.294834858739068295e+03,6.639798263751767990e+02,3.460398376084483640e-01,-5.823371682272805439e-01,-7.356220859170492510e-01
7.326625680583366602e+02,1.546653044821935737e+03,2.758575584677089978e+02,-9.282696471563128826e-01,-7.267607648735950610e-02,-3.647377826256801847e-01
2.477814419948430782e+02,1.146129697153081224e+03,2.704483902275618448e+02,1.264843745282779042e-01,9.784328115607913157e-01,1.633123885730518587e-01
1.012695474738926237e+03,1.288177773571375155e+03,2.701040404872569979e+03,7.300686002710756739e-01,-9.601357554352043036e-03,-6.833064121105156818e-01
8.990737611555892954e+02,2.879683202970019920e+03,2.925416849162233120e+03,1.405968758691690801e-01,9.052380261955921270e-01,4.009696178332442518e-01
1.941570333593182795e+03,2.873910700224014363e+03,2.273068801460223312e+03,2.439378108833375747e-01,8.135756653221724033e-01,5.278152908139642774e-01
2.390513400834336608e+03,1.008243350835330716e+03,7.889941203082491938e+02,-3.594629595229709151e-01,-1.228255606710839526e-01,9.250406814712641701e-01
1.478360769710887098e+03,1.113966698891801570e+03,1.731030547698632517e+03,1.669451834284222114e-01,-8.860847184367984797e-01,-4.324155148498145529e-01
1.479516667743946982e+03,2.598262543575261589e+03,1.181219454080259766e+03,-1.918014957420968725e-01,9.695503389812230033e-01,1.522640023527888076e-01
1.314941852693571263e+03,2.001172366876496653e+03,2.801366407060947950e+03,-5.761778525223971714e-01,4.150355565530567392e-01,-7.041055098913608923e-01
2.712451347650246589e+03,1.055923582202976377e+03,4.008261211683424676e+02,-5.967866011670240889e-01,3.211425149628017173e-01,7.353320595152084138e-01
1.873276160804114625e+03,1.002097008785881826e+03,2.155300525868738077e+03,5.422454366638936873e-01,6.521447395510774347e-01,-5.297896989306611903e-01
6.872168338307878912e+02,4.266820108552128659e+02,2.128742132899542412e+03,-8.217273402379012825e-01,-9.216296146121047417e-02,5.623790241823070080e-01
2.312173592439611184e+03,1.885740329796480864e+03,1.775031032249768259e+03,5.259222435842271226e-01,2.883674816341463276e-01,8.001562280200742450e-01
5.937783170424447690e+02,2.092037145915085603e+03,2.490170428583728608e+03,7.605945795304590584e-01,-2.744592296496108363e-01,5.883604480665116654e-01
2.987443903864661479e+03,1.474817974408896816e+03,1.295421565824275604e+03,-7.489434770471962155e-01,5.094503206123069949e-01,-4.237263728120704287e-01
2.506084604163657787e+03,1.480882586798721832e+02,5.864484377150146202e+02,-7.818023734445093131e-01,5.635626073052676377e-01,-2.667999934854215494e-01
1.772945010524229474e+03,4.780741809640271072e+02,2.050167901316524421e+03,-1.910714652786005829e-01,9.779915975833861630e-01,8.381008419387604713e-02
2.128025595167623578e+03,2.267142406292551641e+03,1.280706459860021823e+03,6.351740439027812046e-01,3.310760625484537173e-02,-7.716591348259034255e-01
1.839900778440195609e+03,6.862745885538397488e+02,1.038883634040392053e+03,8.667341208016420342e-03,-2.766624709044166342e-03,-9.999586106355118353e-01
9.403181337762886187e+02,2.455804451112049264e+03,6.319892197768365349e+02,1.800405212984163839e-01,-9.822825108698437502e-01,5.202383616987350107e-02
2.608327662183264238e+03,1.062660063779078882e+03,9.130738357487401800e+02,8.394360461960455044e-01,5.196857985194969221e-01,1.589773416682498386e-01
1.088269405855337766e+02,2.593600198200429077e+03,1.945641779062758872e+02,4.397554911982595738e-01,-8.789730178749972644e-01,-1.844492933266413115e-01
1.702830603126027711e+02,2.401897523193308359e+01,1.895574036850783159e+03,2.334869544114325512e-01,-7.439751226276047902e-01,6.260869420702799282e-01
2.882403098063067773e+03,8.234477747467399240e+02,1.053906534758315729e+03,3.105692736836360157e-01,-8.675359408627314473e-01,-3.884946815016057098e-01
1.931113635303227738e+03,6.849346466094049219e+02,4.352512860620145716e+02,-6.519518171125162631e-01,6.269739966010837717e-01,-4.264533218885184773e-01
2.585705593565208346e+03,1.737697785935453112e+03,2.608419327233997592e+03,-6.819432861007401758e-01,-5.343608318383188394e-01,-4.994115096182547564e-01
1.645451338947441116e+02,1.888235085449451844e+03,2.854157932633583641e+03,8.215528599189196868e-01,-5.662845746067355357e-01,6.612623474471024387e-02
1.502084770548166489e+03,2.125555202473465215e+03,9.090813624679014993e+02,6.622436518919406767e-01,-6.242539996586636830e-01,-4.144155998982026468e-01
1.692720450217598682e+03,1.418484167460811022e+03,2.536959929323814777e+03,-9.214473152364059949e-01,-2.361021820017686623e-01,-3.085297471843244654e-01
6.797907942355959676e+02,1.892644793111068964e+02,3.685978069858444428e+02,5.073472509284372434e-01,-7.806122038041392042e-01,-3.650251419387471330e-01
2.436475260466364489e+03,1.446349176191008155e+03,2.383323343324325378e+03,8.276107447249992921e-01,2.683206008547710519e-01,4.930157303501245813e-01
2.331208481103204576e+03,1.572722954640690205e+03,2.000273123308910272e+03,6.830330751503727038e-01,-5.261961545284696840e-01,5.065406451708256430e-01
1.095435875273956526e+03,2.656036081056572584e+03,1.121067238914710742e+03,2.333164292772961779e-01,9.537907890726925464e-01,1.893319162460020966e-01
2.802309996280480846e+03,1.610223565785456913e+03,2.991867097505830202e+02,-6.611647841330096087e-01,3.398466317146667248e-01,6.688537920461739006e-01
3.493321060287904061e+02,5.560975136479621597e+02,1.907544444735941397e+03,-2.488197943263171508e-01,-8.672314717368906356e-01,4.312751840536108716e-01
6.207306663884542104e+02,3.402306033801005469e+01,7.255213695845673101e+02,-3.980490253153560337e-02,3.720719474596634324e-01,9.273500070890323688e-01
1.952495995916580569e+03,2.875041999168079656e+03,1.925743423631861333e+03,-5.832977773675730448e-01,-8.017192867203603024e-01,1.304219621790978501e-01
4.134748311900609110e+02,2.310327806053890072e+02,5.528004608675897771e+02,-7.261243125312081270e-01,-1.101221348770207581e-01,-6.786874082824931875e-01
6.121533434294051403e+02,2.985129782242365764e+03,2.232921011377951800e+03,-9.651929799465841509e-01,1.433916971847935817e-01,-2.187266162137051773e-01
2.620819575784850713e+03,1.907104536835317958e+03,5.025278956593047610e+02,-1.519476923049505324e-01,9.690238701445891278e-01,1.946911346035116175e-01
9.022028235572289532e+02,2.492438053608775590e+03,1.848717459514660277e+03,-1.997741249925165941e-01,2.050392808927880561e-01,-9.581488361807066756e-01
8.132104711646034048e+02,1.068034946854269720e+03,2.175069997623542804e+03,-8.711563550284033841e-01,4.826476789637787479e-01,9.020988351895575796e-02
2.843386157670731336e+03,9.083508520860785893e+02,2.747281569165269502e+03,-5.951519701365626247e-01,7.035700760468516224e-01,3.883082287745081573e-01
7.020266902537671285e+02,1.115129276806059579e+03,1.767483857474045863e+03,4.023241666802169214e-01,-4.231034233627221086e-01,8.118612923669992210e-01
2.092036501282951122e+03,2.754334009119831990e+02,1.992978624828495413e+03,-9.278927808285633572e-02,-9.937716804010647831e-01,-6.170897103101236070e-02
1.892627474030962276e+02,1.090216090596461981e+03,9.820438766800203894e+02,1.660661817622943459e-01,-1.939700957295082406e-01,9.668493291291968550e-01
1.058003418422768846e+03,4.237077991728558573e+02,2.997186500013741352e+03,9.917873883737102769e-01,-3.366129627033866839e-02,1.233883843652059387e-01
1.931509232807983153e+03,1.692007139276138787e+03,1.002988230177498849e+03,1.729527696607291998e-01,3.355501609773696714e-01,9.260094108240715105e-01
3.700196117854641784e+02,2.472358478953878603e+03,4.221814820619265447e+02,9.501382525248021071e-01,-2.951388714285743120e-01,-1.006496282207878235e-01
2.390180045006186447e+03,2.400491525812455620e+03,2.560400847334569335e+03,-4.026958416036712785e-01,-6.806777976723142887e-01,-6.119753221422239431e-01
3.323956443707813833e+02,2.207810910311731277e+03,2.009242358760374600e+03,5.094985155860419501e-02,-8.074399815737708375e-01,-5.877455136215885556e-01
6.613661476052190835e+01,2.846828188080695327e+03,5.430634051792713990e+02,-7.397835701555834920e-01,-6.204431817943205640e-01,-2.603277309331424316e-01
9.085183110612557584e+02,2.313229416330577351e+03,7.584053329137366291e+02,7.701297270249138904e-01,5.862751536267163388e-01,2.513595985684689005e-01
1.348188763031996359e+03,9.169472445172623338e+02,1.468944192310237895e+03,-8.003404052369158528e-01,3.672145418000416495e-01,-4.739290200397046071e-01
2.088500502648422298e+03,1.469919010278245651e+03,2.141608512989863357e+03,6.493631091342496608e-01,7.603167666399788249e-01,-1.568333069308791572e-02
2.587328585314846805e+03,1.469816256938852121e+03,2.667049934078770093e+03,3.921456329333487534e-01,8.922727217926036403e-01,2.237659324296761287e-01
7.184735833220776158e+02,1.878748711326784132e+03,5.912092934546823244e+02,-4.764598774351357369e-01,6.705236525223878807e-01,5.686686351492682423e-01
2.863690549481745620e+03,1.674602472858373176e+03,1.943497878058495644e+03,7.460305551802598467e-01,6.614948079608118370e-01,-7.657042365249089322e-02
3.667704791701293061e+02,2.432452325965214186e+03,1.047522363824195054e+03,3.324494349274891014e-02,9.600764395602511270e-01,2.777552950592941383e-01
