x,y,z,nx,ny,nz
2.668491364686184625e+03,8.646404413556093687e+02,1.330384934705366277e+03,-4.223629102074667463e-01,-6.278636114280581326e-01,6.537559617514747679e-01
9.172425196572993400e+02,2.831887999845125250e+03,4.830499448774842222e+02,-4.966866177645117286e-01,-5.606924868122047795e-02,-8.661169915698301303e-01
2.982871081882864473e+03,2.261217983801704122e+03,1.954534423315265940e+03,7.794487099028429844e-02,-9.965779469261217827e-01,2.751350190041290666e-02
1.295828282583683631e+03,2.579975401525665006e+02,9.752072565137483480e+02,-5.277528618845400005e-02,-2.441491352557142447e-01,9.683005571214000629e-01
2.607464495970848475e+03,1.041420753867536177e+03,4.739023095518734863e+01,-6.361822139573479751e-01,-5.682846441824663808e-01,5.218474430623711857e-01
1.889287461690357304e+03,1.372803121018696174e+03,9.188604904145790897e+02,-7.102067888801003592e-01,3.979506473282175549e-01,-5.807250634505705111e-01
2.680611973332384423e+03,3.915672075480875947e+02,6.199825609711386960e+02,-9.282031390776585011e-01,3.573798273368663514e-01,-1.035306313080948115e-01
1.571179371296984073e+03,5.450670810188246378e+02,2.092581950867355772e+03,5.016549918654429618e-02,-7.528369360491476980e-01,6.562925951216396214e-01
2.136651905090947366e+03,1.357196555099789293e+03,1.259100853839031288e+03,9.652952148853477521e-01,-4.748980973254959999e-03,2.611179719957363865e-01
1.965721426833212945e+03,1.905627386102070432e+03,2.404627678407789517e+03,9.117646137963150155e-01,3.373922283869144056e-01,2.342045542959585447e-01
5.318353135343684244e+02,8.416532362946138335e+01,2.219915805004374306e+03,-4.398493268187497751e-01,7.165663906556707374e-02,-8.952082974229627066e-01
6.224746454916854645e+02,1.599618517870794676e+03,1.697960198760983303e+03,-7.109015803404576950e-01,-7.027568697247122964e-01,2.741760609833665541e-02
1.751261522448709911e+03,1.371270610842246697e+03,1.599898938872257077e+03,-7.851856481188880243e-01,-5.639695730594753709e-01,2.557768923324293397e-01
2.282388585894322205e+03,2.345123821453285927e+03,2.087607816954284488e+02,-8.309956795637508664e-01,-3.804498702894059670e-01,4.058375004150724941e-01
2.467456904855484026e+03,1.177768433486245158e+03,6.005857535306809041e+02,-6.500801919202258139e-01,-3.681801896534066532e-01,6.647097802949373246e-01
2.398175313944796869e+02,2.975052720943547229e+03,1.956174209361549856e+03,4.446214045032173545e-01,7.953556753565803605e-01,-4.119722761736090977e-01
1.713124212919642787e+03,1.805453760811932625e+03,1.700327011135045268e+03,6.197759380287015674e-01,5.091739836659289198e-01,-5.971763901883693215e-01
1.570120739564914629e+03,2.620849009829094030e+03,2.312955420910533121e+03,-3.194336369526639685e-01,9.336471954309867316e-01,1.620650056213450707e-01
2.084254717718640222e+03,7.880053794440533466e+02,8.372850257395514006e+01,-9.743274433850309668e-01,1.101650600372885980e-01,1.963407563746508988e-01
1.783701447086152712e+03,1.303205176334304952e+03,1.159784691509949198e+03,-6.075440132237093227e-01,1.844436912997066136e-02,-7.940718338056240722e-01
1.491183121605914039e+03,1.741558252803936966e+03,2.565237370837457547e+03,6.660781163776008373e-01,-7.448614416977075159e-01,-3.900481450898208441e-02
1.035053966720565541e+03,1.706018971562712750e+03,2.754933992606407173e+03,4.064346669249178645e-01,-2.056140084847818961e-01,8.902436413906313906e-01
5.648903154639846207e+02,1.337401665428049455e+03,2.368465562474258604e+03,-3.179856461448500315e-01,-9.418434772401909072e-01,1.087013947746227199e-01
2.576950251743681406e+02,1.326293143942284814e+03,1.327000338937842571e+03,1.064227649284861105e-01,-9.938730847683749925e-01,-2.984102005580147043e-02
1.433269293730440268e+03,2.072006077583478145e+02,1.816488107271022500e+03,2.959195441264353965e-01,-8.782563511584773330e-01,-3.756293453043837438e-01
2.840565699577986379e+03,2.025959478511533916e+03,1.734232996600174374e+03,-8.578713715628639713e-01,4.964459140743279764e-01,-1.326580726972757251e-01
5.272477260398869703e+02,2.051541565301131413e+02,1.319415700738400574e+03,-5.416771478732570477e-01,6.892613530278084433e-01,-4.811493060310576553e-01
1.846898909157856224e+03,8.568027794578820249e+02,1.254296598391025981e+02,-7.771608859373836664e-02,-9.230997092382773328e-01,-3.766259900456925269e-01
1.212520624406983188e+03,1.512130407793487620e+03,2.625612459307760673e+03,4.074625810166020434e-01,8.924409471434551211e-01,1.937095788364162630e-01
1.909925021973607500e+03,1.053134282449638249e+03,1.511692145252312685e+03,-2.555356258101740274e-01,-6.824073649032297295e-01,-6.848516133204571865e-01
6.858099510993826016e+02,4.238325432174394791e+01,2.538973404543683046e+03,-4.630498510894366926e-01,5.996877223246395161e-01,-6.526557064020328536e-01
9.674622499855399838e+02,1.528588846314060667e+01,1.147908910814309820e+03,-5.592440806889857896e-01,2.593974153868724430e-01,7.873747767771975825e-01
1.446868635843155516e+03,1.276298809117408837e+02,8.469462752491672290e+02,-2.370140471520459646e-01,-3.063568618501027463e-01,9.219380752794434919e-01
6.327169166263037141e+02,1.875648549105856773e+03,1.165184133538110927e+03,-5.326034774918966264e-01,6.287451039171044753e-01,-5.665802062054484667e-01
2.361625323057142396e+03,6.058495996080769146e+02,1.291442831961009915e+03,2.494470813389260966e-01,7.483386097116481173e-01,-6.146262920070447722e-01
5.439557615856872417e+02,5.712899263491166266e+02,4.540924302239602639e+02,-8.218188518573317225e-01,-1.278302548363291768e-01,5.552235591906886647e-01
1.414775864495897849e+03,1.380864907392306350e+03,6.725136261343420756e+02,-4.401767522229551449e-02,-7.926514508940641912e-01,6.080839758319236399e-01
2.158305411466354599e+03,1.064772090707730712e+02,1.032541268894409313e+03,2.126313477598311685e-01,-4.319094614923225661e-01,-8.764942253222491875e-01
1.610401831671480977e+03,2.342965404958963063e+03,2.784083390480226626e+03,-6.235782723946873274e-01,-5.940584786000366879e-01,-5.081777860165346272e-01
2.611509990233169560e+02,5.152059462646545853e+02,2.516476789520916100e+03,5.271728800805624005e-01,1.406207174935996673e-01,8.380421041446248775e-01
1.776303595127290009e+03,1.998799349529859228e+03,2.711045318627158736e+02,-6.085618551702279833e-01,7.183739430706844731e-01,3.370331531894861232e-01
2.656141495709363198e+01,7.172872432614833542e+02,2.763108319206974102e+03,3.474354237106702659e-01,-2.225725386571242026e-01,9.109061924186869774e-01
1.612894205533817058e+03,1.850072831672222264e+03,8.230531063447264160e+02,3.012559172084822712e-01,-2.972860787771723357e-01,9.060164787199893599e-01
2.625079466269650311e+03,1.833536746857733988e+03,2.809645769186370671e+03,1.363338241798766615e-01,7.056521904283346025e-01,6.953186855882588224e-01
3.614281241163912455e+02,2.794434590349836071e+03,1.016244914939139903e+03,-9.322170336203199348e-01,-3.344771897586617526e-01,-1.381897672017709244e-01
1.637976173128345863e+03,7.865896941164261307e+02,2.678271439112753797e+03,8.431698932968926252e-01,-5.221068994790941664e-01,-1.283312766009674644e-01
2.341535310458903496e+03,7.468411477664938047e+01,8.135197989541242123e+02,5.369268306008180280e-01,-1.573289273322981963e-01,8.288288045220368883e-01
1.532665519066473962e+03,1.104762168021168918e+03,2.606459757476046889e+03,-7.377153222505250518e-01,-2.133375312415051739e-01,-6.405179162838335882e-01
1.450512098191626592e+03,6.855722591930418730e+02,1.699721028040073634e+03,7.726226501343677056e-01,-3.114224697594794034e-01,5.532361935270075914e-01
2.226394201267852679e+02,1.722548862877304146e+03,5.588665656257118997e+01,-5.690961386325593674e-01,-6.500150042529757588e-01,5.035971398245970843e-01
8.940412653341452369e+02,2.422353057913823250e+03,9.255590865330279939e+02,-1.296010061659369772e-01,-7.357077261771347576e-01,-6.647839655437297601e-01
4.007682538290824255e+02,2.355578405363548598e+02,4.544150609480622620e+02,9.271264180151411738e-01,5.240608972055366133e-02,-3.710663104872432005e-01
1.821000529710368255e+03,3.426907724739902505e+02,1.471897560059276884e+03,1.920651898207506314e-01,1.219715376324154998e-01,-9.737730263602002445e-01
1.488146856454668978e+03,1.552112096248363969e+03,6.782293783543727841e+02,9.990424536314862491e-01,3.069121197460950370e-02,-3.118052837123453172e-02
6.736857537951146924e+02,1.723932040862958047e+03,6.038914477949649608e+02,1.066383724464339544e-01,9.581650728370456616e-01,-2.656086420227221634e-01
2.758861107410842578e+03,6.494806345504198362e+02,2.988336889011093263e+03,5.932647395783106070e-01,-5.298661838229620225e-01,6.060352927131972267e-01
3.658819829963749726e+02,1.640665958316113120e+03,2.204289618550567866e+03,-4.116532379570699840e-01,-2.665967251559142048e-01,8.714744963655574050e-01
6.833678319716929650e+01,3.313042735430282448e+01,1.155143308559964908e+03,2.616030902936999913e-01,-9.411910674303943791e-01,-2.138298336014436973e-01
2.046964750331803486e+02,1.584980125586856730e+02,1.565902061858963862e+03,-1.971905118540532298e-01,-9.671380935994599026e-01,1.604986291017431732e-01
1.865188008763968583e+03,2.029499779382717179e+03,4.848787662204908884e+02,-4.468892571250051571e-01,-8.537075264911083705e-01,-2.673451908650961717e-01
3.244016992788838252e+02,2.376259524282420898e+03,1.367067071831520025e+03,-5.087473251101388705e-01,-8.234281677803644006e-02,8.569689724361888583e-01
2.242548427491782604e+03,1.423716882868160610e+03,2.860633491536219026e+03,4.665915525371130412e-01,-8.692538257026124482e-01,-1.633710794552658552e-01
4.912569592541041743e+02,6.163636748767846711e+02,1.182353801085471787e+03,-4.437535721260409960e-01,-3.656817072346361108e-01,8.181440314634951250e-01
1.637259552351782077e+03,2.742926690730080736e+03,1.198853067097939174e+03,-8.499656541686078093e-01,3.408867130862370254e-01,4.016897255033942682e-01
1.382682079013468410e+03,1.529841045073046416e+03,3.018147585592937503e+02,3.879394405641941046e-01,-8.661444467396898217e-01,3.151139283445543726e-01
2.195594863723541494e+03,1.988633370811928671e+03,9.473136861961879731e+02,-8.438740586846912306e-01,-4.893898520515961859e-01,2.199412325780298882e-01
1.236873055146681111e+01,1.820353142999085776e+03,4.292559273663450767e+02,4.027935697919086677e-01,-6.973373661309907323e-01,5.928557479959044585e-01
2.171680831730064085e+02,2.068582076940012485e+03,4.332562811957970439e+02,-3.656391491931427207e-01,8.063154775996925760e-01,4.649337191046638562e-01
2.193969625097188327e+03,2.893296847830039951e+03,7.501772190677636445e+02,-1.691761628485736746e-01,-9.719453814082398280e-01,1.634062467686721309e-01
8.137950993667996613e+01,1.629391753171277060e+03,2.467021932823675797e+03,-9.979603474641978167e-01,5.382789851789875762e-02,-3.431766644578982534e-02
1.620470019065003726e+03,1.285027011405712528e+03,1.630470791854428398e+03,7.766087565439900864e-01,4.745490986978643799e-01,4.143452572242650178e-01
1.540262956270090399e+03,1.611147143304043993e+03,9.002375872224719160e+02,2.585377686391795993e-01,-7.370626160576949637e-01,-6.244172660947654441e-01
1.464908382856260687e+03,2.934476389675223800e+03,5.916236242512384251e+02,5.587267232532050487e-01,1.665531051324805889e-01,8.124558522735036981e-01
2.387457982979784902e+03,2.285439858259237099e+03,4.393723525517128223e+02,2.994587153922415590e-01,9.468566050856355165e-01,1.174182574446305249e-01
2.181963461290657051e+03,2.218317084646107105e+03,2.963253682490276333e+03,4.094781282510505105e-01,-8.670464724541797619e-01,-2.838275481498926389e-01
4.576867654185081733e+02,1.022588827925871101e+03,1.925649928088826755e+03,3.349360787195547473e-02,5.508310935605010839e-01,8.339444133745739229e-01
1.034757003362312616e+03,1.306102354949525989e+03,9.806741403381936379e+02,6.242087375617295930e-02,2.780682649415983643e-01,9.585309982216980718e-01
5.007837708768291236e+02,2.188202838665361014e+03,1.651758564742196995e+03,2.766013020237055309e-01,-7.978278131548999230e-01,-5.356888091749358871e-01
2.558471381365859543e+03,2.089790298401953805e+03,7.951911850909516488e+02,8.701004925176554494e-02,-4.492091553174831220e-01,8.891796140871419674e-01
1.889787254006970898e+03,8.104907934540183589e+01,2.350979086775701035e+03,4.295346800958000366e-01,7.351156845422807118e-01,5.245044222262886802e-01
1.845297639805039807e+03,2.630974880345372185e+03,1.121894745190495087e+03,-4.838360125057593053e-01,-8.651803036880854059e-01,-1.317791907423902231e-01
9.543871990623998727e+02,1.873109068087519063e+03,1.011715795185751517e+03,-4.860286848098052115e-01,8.650443747524826366e-01,1.243959293993877058e-01
3.345006552184192969e+02,2.820224321944548137e+03,1.272631918994873558e+03,7.146298972926582449e-01,-5.130242483366165285e-01,4.755104946414270839e-01
1.313626797956446524e+02,2.402333927191067687e+03,2.725623124075068063e+03,-9.746172953273619655e-01,1.575596362296299568e-01,1.590474416014431291e-01
1.510640470028042273e+03,2.426931346397869675e+03,2.755605109689763594e+03,-9.090105498572531584e-01,-4.119630132058462735e-01,-6.313712060724707698e-02
1.760700344028042991e+03,2.907991428032756630e+03,2.896852953608454300e+03,9.073940028233459243e-01,-1.970226975307306505e-01,-3.712387106673278314e-01
1.395624955965247409e+03,1.026264394290443761e+03,2.818782597474990780e+03,3.989378638811748035e-01,-1.499252241671835961e-01,-9.046386062513278592e-01
1.142028598970172766e+02,1.009161459615379783e+02,7.235496466064545302e+02,-3.053148479758535649e-01,8.657815275611963068e-01,-3.964910971753124458e-01
1.561550752462860828e+03,1.522556289921699772e+03,2.690626948389962308e+03,-1.176246886079137938e-01,8.774595471355640663e-01,4.650044900541736581e-01
4.871302326125277204e+02,2.798558305809150625e+03,5.511515218459715015e+02,-2.047823250470847956e-01,-9.639028245334794187e-01,-1.701632868884783989e-01
2.374159757779729716e+03,1.601163858581719296e+03,1.195911030733891494e+03,7.604677633590803953e-01,4.998802141204512495e-01,-4.144979522537231009e-01
7.777384523546116952e+02,7.520204067847074612e+02,7.554129823774254646e+02,2.628348831606129934e-02,-8.952632113037064521e-01,-4.447616898161470544e-01
2.604414892869910545e+03,5.633709201508182787e+02,8.555304792743901316e+02,2.239440111614226236e-01,1.894320647722963491e-01,9.560149437644984705e-01
4.388244011798183806e+02,1.392613089317023423e+03,1.288440616228550880e+03,5.630567819612133373e-01,3.968374869099434155e-01,-7.249048691176540604e-01
1.068957766519262833e+02,1.604559017788144047e+03,2.199601049751287576e+02,5.714178688354729641e-01,7.649136574498112129e-01,-2.973023979423630170e-01
2.581885287728952790e+03,1.652003503505023900e+03,9.038478310949538752e+01,7.303141335341007956e-01,5.817046067525813990e-01,3.581354727518069048e-01
2.194963943843454217e+03,1.351260926096319736e+03,1.828199248038221867e+03,-4.478900392050617074e-01,-7.743974711680543521e-01,4.468814937199914183e-01
2.748341028151767205e+03,2.749881336191018818e+03,1.076742734586863435e+03,-6.816489888081550541e-01,7.190703727915085386e-01,1.352496026992344724e-01
2.470441883689466977e+03,4.464327577208233606e+02,1.546792609011024751e+03,-3.043945430972688770e-01,-6.744215542118509044e-02,-9.501555229565050720e-01
1.557839709304472535e+03,4.100943561415155614e+02,2.110140008938867595e+03,-8.170805316755496150e-01,-5.598628203434249384e-01,-1.375973370160450404e-01
9.249157763951909317e+01,2.283078359151908899e+03,3.828346031321757437e+02,1.787175548693238358e-01,-6.699507162494793278e-01,-7.205734337167446490e-01
6.786902359844405055e+02,1.859931626249385999e+03,2.478982557915712732e+03,-1.480577645386086175e-02,9.974469047428075053e-01,6.986029775624326421e-02
2.993950631160308149e+03,1.750992572161739190e+03,1.609885582159288333e+03,-5.230898873000320304e-01,3.043454341058797752e-01,7.960846855349896778e-01
2.089211600981705487e+03,4.471486634233290260e+02,2.428857053912944934e+02,6.162814658447279825e-01,-4.948130101360647126e-01,-6.126640513824521683e-01
2.832958506698790643e+03,4.801020419687787921e+02,3.176177571373678461e+02,-7.686928464359072954e-01,1.534415215797285958e-01,-6.209404216940304089e-01
2.768128038126146294e+03,1.962663298114401414e+03,2.889878704470143020e+03,5.189549591892130831e-01,-1.477202611230958307e-01,8.419408974427162740e-01
2.263167364061525404e+03,2.885528047964665348e+03,6.109957959468993067e+02,2.270377373489211939e-02,-7.129260981611876824e-01,-7.008715411677518548e-01
1.258667638373222189e+03,2.691174104498951692e+03,2.667230258599998706e+03,-3.219822097391865645e-01,3.673509287481384611e-01,-8.725713447961436220e-01
2.736446022154324965e+03,2.945832481994430964e+03,1.315078939430885157e+03,-6.811143273814809218e-01,2.606405845544287336e-01,6.842147022088890251e-01
2.984091144634408920e+03,7.926665084275586537e+01,2.546857078553398878e+03,9.261457980677222368e-01,2.687053429104652724e-01,2.646722490418504936e-01
4.614801247040907128e+02,9.510308782953145510e+02,2.106398635874400497e+03,1.903179937157937207e-01,-8.625624785836605302e-01,-4.687910321322362184e-01
3.763656136073588527e+02,1.984839790752175531e+03,7.371599656276235919e+02,1.697979246989664848e-01,5.675396028464683162e-01,8.056472329554649203e-01
3.252616289910865817e+02,6.610794404641666233e+02,1.004231226667759188e+03,4.250270104362980916e-01,-7.393616814607129051e-01,5.222033553963153496e-01
4.699944602635712840e+02,2.995572160501220424e+03,7.274334581449370773e+01,-3.666945538506128366e-01,8.012351342054442604e-02,-9.268847429823450224e-01
1.146264627566433489e+02,1.642399952985470691e+03,1.056763414818168712e+03,-9.530167573895229616e-01,-2.749066932976016453e-01,1.272217360160503574e-01
2.817278347721456157e+03,2.630862492828547602e+03,3.434413637863922304e+02,-1.702517065903474958e-01,7.293445343921457491e-01,6.626242574456344681e-01
2.045747052732742304e+03,6.008855571793426407e+02,1.650936996462139632e+03,6.109783357278804339e-02,-6.845624326022160810e-02,9.957815008782846533e-01
2.910246136145035507e+03,8.725841591450224541e+02,2.315683016212864914e+03,-8.565365072520965128e-01,5.015230596183629652e-01,-1.217367340428319317e-01
1.707091006785401078e+03,1.982467685146935082e+03,2.197932584036659591e+03,7.868301889185266296e-01,-3.295237993434866342e-01,5.218355291398520945e-01
1.576378881112570070e+03,5.332437470091600744e+02,1.075432672468767350e+03,1.861359387032750778e-01,-6.414446681002251571e-01,7.442460279295032288e-01
2.079801495391439857e+03,2.449277410048711317e+03,2.494322383622818506e+03,-5.958878251113712832e-01,-7.546368648854036021e-01,2.746650724791359632e-01
2.689521256544351218e+03,1.348992986169931214e+02,4.829799037678786817e+02,-9.102153429116517369e-01,7.371306667635912913e-02,4.075222856843425667e-01
5.300634754695350921e+02,4.616352922037912094e+02,2.674874696516186759e+03,-3.179855161243395067e-01,-7.778487299417177203e-01,5.420669376222776448e-01
2.350259985315237827e+03,6.140529930920468615e+01,2.399909202537525289e+03,-1.977763850145218896e-02,-2.028165209955677672e-01,-9.790170089567189482e-01
1.635387976670883518e+03,4.380465602039530495e+02,2.950567379606973191e+03,1.349197332433701157e-01,-9.902629888638467826e-01,3.429108438032724138e-02
2.982747026637303861e+03,2.261584959719838025e+03,1.391956096248477252e+03,-2.260975421616701411e-02,-3.508439088415683527e-01,-9.361609640671062493e-01
6.386780449012019290e+01,1.265044418275291491e+03,1.114078324939892809e+03,8.193444222265486854e-01,3.660090301888668102e-03,-5.732899105210427226e-01
2.425273961870655270e+01,1.755499796524788053e+03,1.614240669958342096e+03,-6.896990516223954204e-01,7.101021930069009169e-01,1.416689580605383914e-01
1.296206902524506404e+03,1.774042079251431687e+03,2.985636886165209035e+03,8.951195345254717717e-01,1.076784250569993856e-01,-4.326272942015414458e-01
1.674127291136749591e+03,2.113789859881447683e+03,1.322923117725014890e+03,-8.522883860667375133e-01,5.187038944916080307e-01,6.745944570625206360e-02
2.486683555115888339e+03,6.602614714706096493e+02,9.393928573068615151e+02,-4.511092422342051489e-02,-7.492943705303016788e-01,6.606988351793181558e-01
7.136279885526118960e+02,6.041606208973729508e+02,2.293645664217368676e+02,-1.763495501336388160e-01,-7.744703932780033773e-01,6.075330823119660106e-01
1.638023480217673978e+03,1.545235295543126540e+03,1.492956713845378317e+03,4.764456304519898988e-01,7.985416368488348349e-01,-3.678733687588564560e-01
2.262634698630158709e+03,2.676345481217769247e+03,2.508167775368828643e+03,-3.776647515919661635e-01,1.031429306614083663e-01,-9.201798037663913021e-01
1.263511995660171806e+03,2.083427397840853246e+03,1.766804884856387616e+03,1.270929317558609217e-01,-1.419054151954255438e-01,9.816874450841845956e-01
3.838765684296270138e+02,2.000813405435533696e+03,8.823742938022356839e+02,4.060605410524989467e-01,9.021256786798057536e-01,1.458907017827100194e-01
3.529289562586945976e+02,2.696307183045276361e+03,1.250572864482165187e+03,-7.459622055186306833e-01,-3.899622774133978953e-01,-5.398794403682514176e-01
5.444600942533675152e+02,2.430454833778114789e+03,2.936482805177805403e+03,-3.777055472549361026e-01,4.509509909287373053e-01,8.086913647079700951e-01
1.384469975526181315e+03,2.201494994537904859e+03,1.223354734035621277e+03,3.831399130367938999e-01,3.330698130599089035e-01,8.615499443830261228e-01
2.703196647350267995e+03,9.159733230856191994e+02,2.875849306840079407e+03,-4.469723195649775715e-01,-8.582140093332699671e-01,-2.523578010025004925e-01
2.810970018423195597e+03,1.277539297233729940e+03,1.205317837949758086e+03,-1.982828100668238003e-02,7.362030021106931166e-01,6.764702350846805157e-01
1.185191191134854080e+03,2.734662817863963028e+03,1.233282517789426862e+02,2.681194222582876097e-01,9.489051635252091499e-01,-1.664060276644996339e-01
2.045336891058287847e+03,4.214515092729807861e+02,5.865647746395924287e+02,3.612013138940203816e-01,-7.738312254382846422e-01,-5.203064917699145031e-01
2.014308899074610508e+02,3.122811650958279301e+02,1.604463822192626594e+03,4.212498813643886786e-01,-6.953737696354136411e-01,-5.822403781545240076e-01
2.895972287838024840e+03,6.071644327789410909e+02,9.120176639649708932e+02,2.284984575933382833e-01,-9.724671315405895022e-01,-4.578354454040556298e-02
2.612709363068747280e+03,1.538563768361458415e+02,1.375706355557108282e+03,-5.926840092770094826e-01,2.554323772858970720e-01,-7.638586032646389468e-01
2.890035438343720216e+03,7.440386309678991950e+01,2.783717314105182595e+03,-7.108148599557262415e-02,1.324237875092826588e-01,-9.886411699147257259e-01
1.252941681705619203e+03,1.063830798256925846e+03,2.232600363915349590e+03,8.351007966911985214e-01,5.029796514322325551e-01,-2.227512729724243912e-01
1.786984192617025428e+03,2.790547175168969716e+03,2.041096746056215352e+03,2.799621944471374357e-01,-7.620245080832499518e-01,-5.839005212883647822e-01
1.459041637039851366e+03,2.905088400684323005e+03,1.860244132199501564e+03,6.658127216030328421e-01,5.840093718183588661e-02,7.438297858299609544e-01
1.644287966042816606e+03,2.911888397596861978e+03,1.761793263470113970e+02,-5.175062740260754079e-01,8.454610965993104577e-01,1.318438109307373818e-01
2.154177797047673835e+02,4.808421609165945938e+02,9.354259029213540089e+01,5.032607956886143707e-01,-8.150440036488401097e-01,2.871094628167668028e-01
1.965508631811780106e+03,6.830284358496976438e+02,1.827638426171545689e+03,-6.888477270801554031e-01,7.194446610608540293e-01,8.881547482019637452e-02
1.813933724037952288e+03,2.852920688248045280e+03,1.244432780928546890e+03,-7.672038822202205122e-01,5.824071900529074197e-01,2.687007035362927176e-01
1.050647863849252644e+03,2.287559795832446810e+02,4.428675835646771475e+02,6.439128371525101313e-01,-2.255507833158937880e-01,7.310971907317054264e-01
1.515653243286941915e+03,2.597085310390527866e+03,2.242138084153964428e+03,-6.483684004793059952e-01,2.454555793532984531e-01,7.206732795270287539e-01
2.961424822719436634e+03,1.689649678386975324e+02,2.170650068272260341e+03,2.065819441559042235e-01,-2.315360371236999948e-01,-9.506392395971352549e-01
2.327652992308046578e+03,3.358989454355858584e+02,2.340022060276940010e+03,9.098300219614877116e-02,-9.783996302469407658e-01,-1.856239662436543203e-01
1.860744051091128995e+03,9.428982989849216665e+02,1.355241251774067905e+03,1.472526593110971005e-01,1.956139835359968493e-01,9.695626971841422304e-01
5.518984464592824679e+02,2.612064033890637802e+03,2.265283239825578221e+03,-7.661992812402899089e-01,-6.144115218482668617e-01,1.882475584090264054e-01
1.812608524233219896e+03,2.744303693432142154e+03,2.961855078594729548e+03,7.982649986894353455e-01,5.641034278578968553e-02,-5.996589573200299395e-01
1.618810034611998105e+02,1.981743527095670743e+02,1.375137065762407474e+03,-7.022846867468517107e-02,-6.340738941302945797e-01,-7.700767877101950543e-01
2.429495600702884076e+03,7.009200765635770267e+02,9.234286238292190774e+02,4.839136177565056367e-03,9.960658366829918675e-01,-8.848407627401866371e-02
1.053198308959389806e+03,1.913877976514742613e+03,8.867768669173481157e+02,1.818818607686786271e-01,8.966928071448574400e-01,4.035604023414567365e-01
2.010216361867092701e+03,1.591620558232473968e+03,1.333203627550811689e+03,2.885127285908315464e-01,-3.528722067101326687e-02,9.568255940861889464e-01
1.721753316343325878e+03,2.648643240800791773e+03,1.622078822934658319e+03,5.717707140954888523e-01,-8.192165065446946892e-01,4.430085673484552428e-02
2.194027230382347170e+03,1.631082433041039394e+03,6.449193441801512563e+02,6.435475012290574615e-01,5.277277508768600800e-01,-5.543915895973594576e-01
2.499234564574005162e+03,2.460342185680648981e+03,2.349484624120155786e+03,-8.381542515913633640e-01,-1.822119509257204006e-01,5.140975155349074566e-01
5.273399581616133958e+01,8.708470644823170232e+02,1.652070541803453580e+03,-2.609332550929517880e-01,-1.999986744031688191e-01,-9.444121804718381696e-01
1.521517235988241055e+03,1.749611881623415684e+03,2.093286394782574462e+03,2.209013280951799274e-01,-8.626405426513698016e-01,-4.550317542984620989e-01
1.017844746305849071e+03,2.631179828708916830e+03,1.845102559081623781e+02,1.567294453645480812e-01,3.341448183527288007e-01,-9.293993336148584916e-01
2.369615588112120349e+03,2.222395288500851166e+03,4.556477213590658266e+02,8.919015851597664746e-01,2.251498203297479794e-01,-3.921978082485648720e-01
1.395131685010434921e+03,1.052909869928822218e+03,2.074912947095825075e+03,4.366672599572321012e-01,-6.416844236826817482e-01,-6.305258158747091279e-01
2.148427307623716388e+03,9.648963110890023245e+02,1.638175415523195852e+03,-4.816416170317420198e-01,8.742749857565920157e-01,6.053595645035891870e-02
2.904509421967382821e+01,2.208465057944550836e+02,5.382521984719575130e+02,-3.866101877862764824e-01,8.634016208525859826e-01,3.241453436484743045e-01
2.807390935149912821e+03,1.170935933670431723e+03,2.439182539181594578e+01,1.789584494600137132e-01,8.839183985613312533e-01,4.320441390085500988e-01
2.622598553960963272e+03,1.686629543185156081e+03,2.556515490662181946e+03,-8.283918250917817749e-01,-5.474084747957032038e-01,-1.187895022421967678e-01
1.351037564677327737e+03,1.168349861693318189e+03,1.006342781392208281e+03,5.340510984606521294e-01,1.062409556418711098e-01,8.387504298522135970e-01
7.200722455177422034e+02,9.142954501987408094e+02,2.739327754134324167e+00,3.280738184002069957e-01,8.846296764668543089e-01,3.313576695874969058e-01
2.403877104970113123e+03,1.872922624483583149e+03,1.909636945472420848e+03,-3.592899224149151971e-01,3.076209127558662826e-01,8.810676056275885681e-01
2.772504660311768021e+03,2.008535551805150362e+03,5.522247456656137388e+01,9.483853967012292330e-01,3.646581426338417475e-02,3.150164816544689383e-01
3.005169132489862136e+02,2.183236605730037354e+03,2.078497880038964013e+03,3.025794508292937168e-01,-6.814323298006943475e-01,-6.664050238692990069e-01
2.192065854189402216e+03,2.263499742552466159e+03,1.580902041324271750e+03,3.002497541141215254e-01,-1.637092944260312710e-01,9.397070565197116476e-01
1.827770915637446933e+03,2.645978619417227264e+02,1.098531809095892875e+01,-6.822725258177531060e-01,6.209859101805443871e-01,3.858506185967625068e-01
1.622550222911559331e+03,1.989797279734048288e+03,1.762952278866805500e+03,-8.783868689199383351e-01,4.728760673574265438e-01,6.946030110503322030e-02
1.900347968755240117e+03,3.977530654280848808e+02,2.116756185298967921e+03,-5.319140923607570404e-01,-7.234431559101243137e-01,-4.401106662134326442e-01
7.795145125633277985e+02,2.891153961552812689e+03,2.933422826342325607e+02,-5.038090382071415130e-01,7.514418039193828669e-01,-4.260418621956989504e-01
8.863064094414655756e+02,1.200024942371728002e+03,2.735145170057498945e+03,4.145481285769099244e-01,-1.571282784874085403e-01,8.963596115359979688e-01
1.387879886402892225e+03,1.610496257776880384e+03,9.158314936307989456e+02,-2.367854050063508964e-01,9.629866506736584064e-01,1.287997771749156417e-01
1.215065177521192936e+02,2.920480149721263956e+02,5.231557261955174454e+02,-7.754823673839615905e-01,1.523778444982995528e-01,6.127055494955294668e-01
1.517073839379373794e+02,1.839079907284207366e+03,2.642510689668173200e+03,-8.940923103796705185e-01,5.629869647230974217e-02,4.443302795167821118e-01
1.435416564549780333e+03,2.138753372069201760e+03,1.619709138445279905e+03,-8.911772582867976134e-01,-1.758190642088522382e-01,-4.181994153189959040e-01
2.528415941326310985e+03,1.293642608639734817e+03,4.242195443756724558e+02,7.353049053801171686e-01,6.588830694853251568e-01,-1.587444388617540447e-01
2.110234969880338667e+03,2.459931525985777625e+03,1.232531941299907430e+03,-7.988390673746881276e-01,-3.768191104188677309e-01,4.688960465381124543e-01
1.824893085327524659e+03,2.249332035081325557e+03,2.860308389356579937e+03,-7.585027680531695182e-01,-6.469803222197146875e-01,-7.803853865977949944e-02
3.515770590953529791e+02,2.765065813321254673e+00,2.787300954531958723e+03,-3.938893626085899213e-01,9.183097003565732219e-01,3.947738915910826291e-02
1.280995634404531984e+03,3.411703593295596306e+02,5.985469278579436292e+01,-1.639577529799154387e-01,-8.979966750068156811e-01,4.083133930138473922e-01
1.576423585287507649e+03,1.309822956923932225e+03,2.731022462764500688e+03,1.506326866859385993e-01,3.773161240853099563e-01,9.137517913563917293e-01
4.375901514608472098e+02,2.837486854561700056e+03,1.622160797633380980e+03,-8.659256824806367547e-02,-2.390404192223370416e-01,9.671408403651526875e-01
1.633844953263091156e+03,2.262110808848176021e+03,3.081460766686552120e+02,-2.057697896863365239e-01,7.219258541390202177e-01,-6.606677340222445460e-01
1.720177492675868962e+03,2.647987351432437663e+03,4.374180353831913237e+01,6.389125102300353687e-01,-6.280990134637938482e-02,7.667109758992713964e-01
1.725563874892177637e+03,4.056005832201648076e+01,2.519230661960492853e+03,-7.677340885991353892e-01,-4.719577458971055406e-01,4.334054167757693254e-01
1.475646879455403223e+03,5.058300449653925170e+02,1.078160997385006112e+03,3.442585210279899277e-01,7.843252088090435503e-01,-5.160620481359496914e-01
2.001349260558882179e+03,6.489607163864490076e+02,2.966189804963806637e+03,-9.172939590890818451e-01,-3.850702991755337590e-01,1.014527343719378027e-01
1.624374007037854284e+00,2.965606025055451482e+02,3.040786878616140712e+02,2.580829931626275053e-01,-8.377642153522686375e-01,-4.811904904665269544e-01
4.186598702421684379e+02,2.440401896928106453e+03,1.287171426976995292e+02,-8.762296459477653121e-01,-4.681137292163336516e-01,-1.144165376221066982e-01
4.564852211200768579e+02,2.223046887917043932e+03,2.377376274059554362e+03,7.253938277938379864e-01,-4.695552871861691235e-01,-5.033106663623553301e-01
1.634903243238635696e+03,2.242849820666899632e+03,2.129701990726653548e+03,-4.174163456032882746e-01,-1.146841232810932310e-01,-9.014494696268022800e-01
9.286452047100771097e+02,2.705073298004993831e+03,4.542364217189074225e+02,8.508703533333829006e-01,-4.187827383890457833e-01,-3.172391209256769096e-01
2.438934185742850786e+03,1.050361007508751072e+03,1.206171395145852102e+03,-5.325523754781660291e-01,7.179796494181597266e-01,4.482111002573885283e-01
2.901953406504355257e+02,2.883593047062527603e+03,2.933348803036898062e+03,1.008672681401877047e-01,-4.612606812806623879e-01,8.815125513130455115e-01
2.665950214469370167e+03,1.736578824589385249e+03,4.526812307329944929e+02,-6.871948532107960417e-02,7.525580161372651400e-01,-6.549305800500917485e-01
1.633892631870725609e+03,2.891509561403211592e+03,2.145867797620203874e+03,-9.716977840030573965e-01,1.077692416833855998e-01,2.102122905791565799e-01
1.313531462006378433e+03,1.781639269831085585e+03,2.736260127051624295e+03,6.231637978084725304e-01,-6.316775124517080009e-01,-4.611403271930829550e-01
2.241224890016752056e+02,2.210765021592712856e+03,6.529022449469140383e+02,5.815198574356235106e-01,7.863877578526732304e-01,2.083961364984910081e-01
9.390986632664299805e+02,8.180161510019929665e+02,1.838898320139514226e+03,3.585201509797110164e-01,9.245868024286046927e-01,1.288508677360520327e-01
1.019009553046253700e+03,1.163679562256529834e+03,2.285464852717932899e+03,6.253360761035307025e-01,6.125568685959090764e-01,4.834551423445752061e-01
1.986258712917321418e+03,1.487934586377031792e+03,1.631130895669443134e+03,-4.431985995478686380e-02,7.501012971821492403e-01,6.598361872307740850e-01
1.928334090325411978e+02,2.185008014895927317e+03,1.493886720088581569e+03,-2.631967074938395545e-01,-9.044446017566349916e-01,3.357193106118328552e-01
2.660527694588555732e+03,9.472645521003319402e+01,2.980493345965402568e+03,4.054952614153464752e-01,7.527867066412369246e-02,-9.109921595231993408e-01
1.813947183796449281e+01,6.465341825758039249e+02,1.794335843732972307e+03,-2.098511081766908370e-01,5.414856654553333870e-01,8.140981430413716247e-01
2.927674875626309586e+03,7.892719507459778470e+02,1.835267926211611893e+03,8.660388147373384582e-01,4.327163516278575983e-01,-2.504662260709460408e-01
2.906997254776861610e+03,5.571023129083221193e+02,2.779425841680257236e+03,-2.985028307447941676e-01,-7.517265736464612269e-01,-5.880503537207476539e-01
1.201350971655908552e+03,1.156616577118176338e+03,2.070652556292674944e+03,7.327026749919997028e-01,-5.430253593116461941e-01,-4.102075684382551213e-01
1.921136107914138620e+03,1.231457502820657737e+03,6.749252209168699324e+01,9.180969883537292153e-01,-3.128443506003522612e-01,-2.433646076841418093e-01
5.849445914630741754e+02,2.684405838629052596e+03,1.534782129466007973e+03,-6.670341002550315146e-01,-1.839410560703531317e-01,7.219634318915908455e-01
2.767096377336302794e+03,2.245467985486189264e+03,1.891825312331133318e+03,7.923179144288239328e-01,5.838035942819886498e-02,-6.073088638478720824e-01
2.138360075522219176e+03,4.203528983915507524e+02,1.506274150370320967e+03,-4.804031880899309326e-02,-6.468534306412485613e-01,-7.610997089976960783e-01
1.159634260952767733e+02,4.416917993054675549e+02,2.623018340693171808e+02,-4.370771072107498822e-01,-6.538644116480903934e-01,6.175960925494745624e-01
1.574520394735222453e+03,1.727032207592698114e+03,1.473407701404997283e+02,-8.994593147321492399e-01,-1.287667266851370840e-01,4.176027672805435742e-01
1.519413196396449393e+03,2.503612055795989363e+03,2.256063608699019824e+03,-4.851323817007357486e-01,-8.282326865443019326e-01,-2.804945439130322460e-01
1.514232411505396612e+03,2.184787124266618363e+01,1.438871933083055410e+03,5.798761670900032250e-01,2.326545856411447732e-01,7.807787616355570393e-01
6.531228040862810076e+02,1.905521309088968565e+03,1.880878942253440982e+03,9.935748535084016897e-01,1.077645671787987730e-01,3.458046466611275349e-02
1.033726664303012939e+02,2.423457795652381719e+03,8.725091687701906267e+02,3.232790692002627253e-01,-5.719629585157973706e-01,7.538892607690257375e-01
4.237433074939090005e+01,2.344826612960571310e+03,1.216153609066694116e+03,-8.019911700869774007e-01,5.079440130364264450e-01,3.143295129684318123e-01
1.169780660473982380e+03,1.557087023226616111e+03,9.915148464887930686e+02,5.121478247308228759e-01,4.435015266382824617e-02,-8.577515197201235342e-01
1.343824865428473458e+02,1.716774819483476222e+03,1.074867718357236299e+03,-4.078879731482171200e-01,5.877056509884758251e-01,-6.987341906313524476e-01
1.562051768732507298e+03,2.200360834470276131e+03,2.370487479974766302e+03,-2.425977579198755896e-01,-6.186474658623702938e-01,7.472761476417648652e-01
3.823821456975433648e+02,6.241376077585695157e+02,1.690441720738801450e+03,5.590229509915314310e-01,-1.847265772910690884e-01,-8.083127067583724124e-01
5.276993462624487847e+02,1.801726248952091737e+03,2.247708679448739531e+03,-9.009108963453589247e-01,-1.763306733447487784e-01,-3.965690992550849892e-01
8.385744390058708859e+02,5.841382422855389223e+02,1.913978970621826647e+03,1.807223421086582293e-01,-4.799600338518931336e-02,-9.823623662996308070e-01
1.084731120889243812e+03,2.985791236930294872e+03,1.303950432047108961e+03,7.587288568760035545e-01,6.431745034873657119e-01,1.032331332829419385e-01
1.058654489213723082e+03,2.338015756968120513e+03,2.483200169902609105e+03,-4.799315816620435826e-01,8.103444498060384804e-01,3.361659554326080213e-01
1.622242282829685337e+03,1.777288869712255291e+03,1.765227547527816569e+03,5.582903524372333504e-01,6.575228101233994149e-01,-5.059403487990833392e-01
1.794576374569556947e+03,1.771392818105808828e+03,6.229363583392799910e+02,-3.039073880616154910e-01,3.509497332306671935e-01,-8.857056984274687128e-01
2.617844530678248134e+02,2.238394499669340803e+03,2.572223811587453383e+03,-9.899550686996549942e-01,-2.554960679685813058e-02,1.390545919715977519e-01
2.469232481594480078e+02,2.272448277023230730e+03,2.804530504525788274e+03,8.746790034174521944e-01,9.656934650070406190e-02,4.749852653473365383e-01
1.531728001990824623e+03,9.060945379950844654e+02,2.364637866317595581e+03,2.645088496483681828e-01,-6.138701541876001588e-01,-7.437731524163729846e-01
2.286242267078070199e+03,1.364361083462083798e+03,2.006640981685035740e+03,-1.199107658905055607e-01,8.711619031965996962e-01,-4.761284980364342556e-01
2.307411142389299584e+03,1.927423863992813040e+03,2.615306519714830301e+03,7.400246533610120581e-02,-7.964207418899986735e-01,6.001979981735721115e-01
1.992024667314948147e+03,4.261571777091577360e+02,2.772338214245246490e+03,6.591870783642761467e-01,6.721461961310700728e-01,-3.371822752519810784e-01
1.017842355892488854e+03,1.919305894530445585e+03,2.218106143005098147e+03,4.982598035975600581e-01,8.659463260059986345e-01,-4.329120690895172513e-02
1.602832706905072200e+03,2.324036540964239066e+03,2.525305344128076285e+03,1.747059121481506772e-01,4.416511846620029269e-01,8.800125427214842144e-01
6.048022544105506313e+02,9.544727003503149945e+02,1.911074263076607849e+03,1.021055329056051869e-01,4.605861563799639735e-01,8.817226620095424128e-01
2.236377126079848949e+03,1.977512407845323651e+03,1.221838217804253873e+03,-1.144585996232551361e-01,-9.548212533663844592e-01,2.742546318517338211e-01
2.215417303624324632e+03,2.654560054448377741e+03,1.619601888796974265e+02,-3.527515774399113124e-01,-7.640058210351012846e-01,5.402420106194398830e-01
3.467706777990294995e+02,1.413873887531955688e+03,2.315605449256484462e+03,-8.630530222859382761e-01,-3.906035631635163541e-01,3.202629188137033900e-01
2.487948209536414652e+03,2.823637078180936442e+03,1.702380869770133813e+03,-8.343561984253908825e-01,2.002784681163367331e-01,5.135545437031039384e-01
1.459830619155395652e+02,1.464361897554145571e+03,4.632697927763022108e+02,-7.109834291362050751e-02,-9.908656640551987138e-01,1.145873528422201026e-01
2.830782832778467309e+03,1.813864524057075869e+03,2.867687823326793023e+03,-6.261586671828284212e-01,-1.221167730480105795e-01,-7.700732544713941863e-01
2.468306411836565076e+03,1.783590452280969430e+03,2.233280208084799142e+03,5.101831495149571349e-01,-1.607552412719234769e-01,-8.449088154082691204e-01
2.876331314270939401e+03,4.209849022376312746e+02,1.585532187689313105e+03,1.334557567606058648e-01,8.102043741195281701e-01,-5.707525147951935107e-01
1.915640394007815075e+03,1.994524333161925597e+03,2.780341008381544270e+03,2.469442562304063893e-01,-5.932397646196212182e-02,-9.672120760885649648e-01
2.870203652633385900e+03,2.152486027272282627e+03,2.963720460610533337e+03,7.090107087455699286e-01,1.392702111704144652e-01,-6.913086309056561962e-01
1.305638352260876445e+03,1.353291339687709524e+03,1.534177644260560328e+03,6.189521261627598525e-01,-7.171238218795542574e-01,3.203618104760000418e-01
1.964670520451062885e+03,5.433334347522599046e+02,6.048571443180078404e+02,6.372718529576882895e-01,5.553775628212613835e-01,-5.342661772399509568e-01
2.482316341348289512e+01,2.635292007883484530e+03,1.842586444965571900e+03,6.972941856869769861e-01,5.800320869436503823e-01,-4.211218312115028173e-01
1.304177665633734478e+03,7.234662500342384419e+02,1.547221415116330718e+03,-8.400663651165519996e-02,-7.441311580930367597e-01,-6.627304916609122465e-01
2.176802871907587814e+03,2.364995333479394503e+03,3.311969676816104311e+02,-1.864591303095356478e-01,-2.088168808362312612e-01,-9.600148451987806641e-01
8.190932237844197061e+02,1.379331820736191730e+03,2.553060402595090181e+03,-6.773801371756659195e-01,-1.915803615214218825e-01,-7.102486288893471444e-01
2.003436687786847017e+02,2.296217362972587125e+03,2.358864958311932241e+03,8.730369071165419159e-01,2.872286228690779653e-01,3.940891739405125715e-01
3.182004213837101929e+02,1.885486803706209230e+03,3.733793994891160537e+02,-3.329670885112796519e-01,9.407812564743847084e-01,-6.374594445766579298e-02
2.080702401923614161e+03,1.495481995354055016e+03,2.234984682774582154e+02,3.477569848287554444e-01,2.669902414398711565e-01,8.987665383617104986e-01
1.779387490846110722e+03,1.232612775872011753e+03,1.616304063157859673e+03,8.075075678163765036e-02,-9.020661878118455546e-01,-4.239763060429166952e-01
6.480534798961911065e+02,2.134706184836200464e+03,1.547086953911730461e+03,-2.717491763528230853e-01,-8.758503713477510111e-01,3.987963291726352999e-01
2.523833562993359919e+03,8.326886336643835307e+01,2.541260404334713712e+03,-4.575735801054530150e-01,1.016515382199011525e-01,-8.833421667547669553e-01
1.962729061661767673e+03,2.199263760812367309e+03,1.530643802616012863e+03,-2.417205208781078585e-01,7.837679519469078482e-01,5.720830248201443924e-01
2.008020518348706673e+03,1.613307520479164850e+03,1.428944849942016390e+03,1.930648606124863165e-01,-1.492142814897903513e-01,9.697737147377045730e-01
1.191125542820084092e+03,2.006431715054288588e+03,2.852146455883712406e+03,-6.504167251956390894e-01,1.087459704361374846e-01,7.517528832666244831e-01
2.767943758724841246e+03,1.084612727204374778e+02,9.047493007358323212e+02,5.727377910789045456e-01,8.141284407684056257e-01,9.574081993623173581e-02
3.194533228669227469e+02,2.434577691530283118e+03,2.449575845883280635e+03,-1.704514657898878460e-01,8.114083419493814051e-03,-9.853326643628232961e-01
2.214773875245707131e+03,1.916396219322100933e+03,2.664031043405768742e+02,8.680961468396053426e-01,-3.690494995310620863e-01,3.319812445577357551e-01
1.065408913492916099e+03,2.314371674573661039e+03,2.974792673332704908e+03,-2.892368793094801660e-01,-9.526309557465981737e-01,-9.400154148010675392e-02
2.845768768427024042e+03,2.419608287433099576e+03,8.206343903594088260e+02,5.394780587952734408e-01,-8.349530736274893838e-01,-1.087050547053438621e-01
2.179278850473864622e+03,2.633451888462983334e+03,1.593797527260272091e+03,8.639890705694894812e-01,-3.386207734535131020e-01,3.726377030336762708e-01
1.106016744375038030e+01,2.578030480838997391e+03,1.350731238968844082e+03,-5.919373655910022958e-01,-6.247601790728385396e-01,-5.092002296366908709e-01
1.957293750555044909e+01,2.529936063610703059e+03,2.286592625703633530e+03,5.341139644479944160e-01,-1.015414119408769439e-01,-8.392923296698830971e-01
2.785467773391793799e+03,1.392861380894210470e+03,1.156735050141839110e+03,-1.668937649441074034e-01,-2.353032064885795249e-01,-9.574857034123140931e-01
2.676504192152743599e+03,2.275263869324481220e+03,1.448258589825349816e+02,-9.230161873232591019e-02,4.089089780079184222e-01,-9.078952907047772580e-01
2.147557683256188739e+03,6.957553518504901149e+02,1.112414111305053211e+03,-6.931196359933756712e-01,-7.126677674185081246e-01,1.081194870646804418e-01
1.486848737147053953e+03,1.958034927500405502e+03,1.980872639592822452e+03,6.258718720078841891e-01,-6.914629771961480209e-01,3.607815835050150466e-01
2.726186846489107211e+03,1.799960197326807929e+03,2.640821291047973318e+03,-5.605812305126443018e-01,-7.436571476885083243e-01,-3.643113101301163059e-01
2.251173400493815279e+03,2.328985241521392254e+03,6.439251799208943794e+02,-4.054028953108100852e-01,-5.462015341351383890e-01,-7.330159456533218432e-01
2.758626913720390348e+03,2.543713903808349642e+03,2.427199709286232519e+03,-9.552110716563692872e-02,-9.759300746013910288e-01,-1.960515431573399692e-01
2.896975733462734297e+03,2.505613050226397263e+03,1.879546860957317676e+03,4.707299109338798360e-01,-7.529363650745128922e-01,-4.598914883976017443e-01
1.778862976715595096e+03,2.081161070524075512e+03,2.078522631271609043e+03,8.571517875363536820e-01,5.014586147258124349e-01,1.176013215933511269e-01
6.886056022037739694e+02,2.295988454795492999e+03,2.844661325174712147e+03,8.658802898690879379e-01,3.128288875215480824e-01,3.903708630882370412e-01
7.675618079429492013e+01,1.565903266407805404e+03,2.086203100911272941e+03,6.769152640650906161e-01,5.799688378780000209e-01,4.532348975598974317e-01
8.869430291528290411e+01,7.575702554648978548e+02,8.401962719365194516e+02,-9.416502972280382799e-01,3.365051879871547302e-01,-7.679595567277930357e-03
3.155992997122747568e+01,2.278008345758642463e+03,2.579284515746545821e+03,3.465304712576828400e-02,6.711668848797093245e-01,7.404959007082796418e-01
1.790484228933659097e+03,9.394058489047586136e+02,3.750803693922293292e+02,3.586408243798768769e-01,-6.576552582500410082e-01,-6.624698637554725655e-01
1.607569717032987228e+03,2.196361383966898302e+03,2.425848469943875443e+03,-8.945355939934530598e-01,4.405090449389431062e-01,-7.588051400564221893e-02
6.234121881631457427e+02,1.157378172366898525e+03,8.461698042177310981e+02,4.834827399514681212e-01,3.656947050900993812e-01,-7.953061189492296457e-01
1.637470728958508289e+03,5.049086903680035903e+02,2.926928718906851827e+03,4.492076207947814370e-01,-6.122437452579920780e-01,-6.506689709924384779e-01
1.570464263449207237e+03,7.857632253895559415e+02,2.566714686983793399e+03,-7.500468184040181008e-01,6.463868602113420625e-01,-1.400492668603910140e-01
1.422118613715499578e+03,2.503826271785977951e+03,2.511050767648972396e+03,5.312114467051686217e-01,4.721166316489309733e-01,-7.035057107158899647e-01
2.115279526271169743e+03,8.720352761329742179e+02,1.489390724826046608e+03,-7.500884046262604743e-01,1.754844921030687122e-01,6.376304402054213671e-01
8.835407094700309472e+02,8.316557918151574995e+02,1.993365900290312084e+03,1.170857719474750896e-01,9.919398108930885805e-01,4.843896750393873046e-02
2.779201202086949706e+03,4.945563930254851357e+02,5.978521406059588799e+02,5.076566611590865863e-01,1.879929417413508386e-01,-8.407992437176912137e-01
2.979436194151915061e+03,2.050525936729685327e+03,1.046024844022091003e+02,5.611250181221859590e-01,3.648911618051821348e-02,8.269263923939911276e-01
1.402318181835582891e+03,2.355174196214882613e+03,1.920580662335817351e+03,-5.490733908110846384e-01,-7.795279967352348738e-01,-3.014208251086336610e-01
1.193568465604672383e+03,1.107863643388389846e+03,1.853257971116433737e+03,8.859711345027334595e-01,-3.098720963592611066e-01,3.450136703463447252e-01
2.829463410354511552e+02,3.269888397215492546e+02,1.243457548944722248e+03,-2.443559090118194443e-01,-5.038405199435270765e-01,8.285136813559832447e-01
9.872363187606091515e+02,8.024967697925829953e+02,1.463988995388394642e+03,-8.415583188856613772e-02,7.045044880907344043e-01,7.046922890305780118e-01
1.396093782219316836e+03,2.000869080578641842e+03,1.457181651138286725e+03,4.040420300503082957e-02,3.770772888765758779e-01,-9.253000694872013376e-01
1.138529309854289068e+03,2.551411972363925997e+03,2.617142251262609534e+03,-8.802449345324397934e-01,-1.802533863749148091e-01,4.389505347192967921e-01
