x,y,z,nx,ny,nz
6.993337663244624309e+02,1.611675947311853179e+03,2.100367376705047263e+03,-2.582783875986989774e-01,-1.147871106685340176e-01,-9.592268729157800156e-01
4.005740552937454595e+02,1.883177248923658908e+03,1.896137811800583904e+03,-2.183509252830927172e-01,7.097732508951425379e-01,-6.697348772027318375e-01
2.411407396618755683e+03,2.124791243997713082e+03,2.050018929889617993e+03,-9.180119825429685632e-01,2.834775026281299293e-01,-2.772985853033642645e-01
5.660984419616239620e+02,1.764575267914043025e+03,5.050687225892309584e+02,9.784797115123690103e-01,-8.912737957032333680e-02,1.861014894341221915e-01
1.218784199979899768e+03,9.857600661963411994e+02,1.657627249123753927e+03,-9.582359094698061908e-01,-1.413366011023488578e-01,2.486119606764907175e-01
2.485554955825118668e+03,2.640771932546148946e+03,6.624833106388392707e+02,-8.597965062849736162e-01,1.129971865565156386e-01,4.979775131574371017e-01
3.014639132265086801e+02,1.069656532350427597e+03,1.970902303787329686e+02,2.326395270127560033e-01,9.305825505039779788e-01,2.826569779234053836e-01
9.015912751579147653e+02,6.502589379329074291e+02,1.860303160375422294e+03,6.772368444512105734e-01,-5.251500582404604600e-01,-5.153325846943970223e-01
1.679184376629652036e+02,6.816210960879643608e+02,1.163798520256362735e+03,-7.476875779802284461e-01,6.332205165344321207e-01,-1.999876575539769608e-01
7.676016929368145156e+02,1.839966886405998366e+03,1.334592285932553978e+03,-5.895161203063338240e-01,-4.548132542073145546e-01,6.675444911736752029e-01
1.202882318813583424e+03,2.957762411544010774e+03,2.661912591810872073e+03,-4.127855278006677398e-01,6.079079495820768342e-01,6.782743050368630344e-01
2.064414106696237468e+03,9.636069920489982223e+02,8.410137546607955983e+02,6.796761040238130658e-02,-5.055032455606900399e-01,-8.601435186431383162e-01
2.532876863372550815e+03,8.695561980897059584e+01,5.306785940349233215e+02,2.424132190442825907e-01,7.700079501257172110e-01,5.901894509187536331e-01
2.324735763824876358e+03,1.438548071477270298e+02,1.715442485025410633e+03,1.122741795992580061e-01,2.697212314530622046e-01,9.563707261824554440e-01
1.593124718085016184e+03,1.785496523343943522e+02,7.626737357562374200e+02,5.995971736969110122e-01,-2.893054860247522009e-01,7.461806517530846783e-01
2.119704155651545079e+03,2.654618098927053325e+03,1.109968913834231444e+03,-9.090903652489551456e-01,-2.171260528615686081e-01,3.555432251924885989e-01
2.472433566930640609e+03,2.151147660606191039e+03,1.245620166164696457e+03,6.669289645587853643e-01,5.985338115255240954e-01,-4.438051742524808940e-01
2.703784054219100653e+03,2.653359121371993297e+03,8.742211172382153563e+02,9.559568538198904841e-01,2.759320557762273141e-01,-1.000399631641360060e-01
1.316163219258683512e+03,1.941062872269278614e+03,1.354162313778302860e+03,8.601380079584389771e-01,3.459346560845067420e-01,3.748223859176269546e-01
2.868792734085543543e+03,1.430357020914892701e+03,1.730958720652139618e+03,-4.854122479630331721e-01,-6.987214978788615083e-01,5.255123385129936153e-01
1.159045874582514216e+03,8.170310260196133640e+02,2.016776244261637657e+03,1.506055672304121296e-01,1.319560565683473574e-01,9.797477033676256220e-01
1.563756411900182002e+03,1.540329101657272531e+03,1.553286316012341103e+03,-4.523053794958391549e-01,-3.941671762658685574e-02,-8.909916756348910116e-01
1.878533473203350013e+03,4.405989434986370270e+02,1.272944494659995144e+03,-1.281120581586873107e-02,5.972807861460168732e-01,8.019298819138362955e-01
2.025789927744790475e+03,2.503541386971243355e+03,9.224188151119947179e+02,-2.538285520842918919e-01,-2.496240085791910923e-01,9.344832371357165712e-01
2.351573480916531935e+03,2.114303116846825105e+03,6.406611032340349539e+02,7.310679837083866595e-01,6.792687260261804916e-01,6.429308702593085345e-02
1.488167794187942718e+03,1.107161199174946432e+03,8.915603557935430672e+02,9.592624457260404691e-01,6.054753579687023601e-02,2.759520902776821938e-01
1.918909568882599160e+03,1.886499761708154438e+03,1.511986709564194825e+03,-7.044750470696931055e-01,-5.781309708145935256e-01,-4.116788659150836249e-01
2.066490512241395663e+03,1.069587335142879738e+03,3.168709891554181013e+02,7.082920939692504136e-01,-9.148498218787069758e-02,6.999662903702859040e-01
6.680535592831056420e+02,2.284876542007855278e+03,2.039066308599284184e+03,7.152592590722089971e-01,2.973613334621642013e-01,6.324400601425230750e-01
1.355612231877562124e+02,9.661703625309022527e+02,2.072511956538344293e+03,1.340463130489552290e-01,-9.070267522684298811e-01,3.991667028039360687e-01
1.221125305904662582e+03,2.590009655056069732e+03,2.135726241747071072e+03,7.406641753368554959e-02,-9.968796660491714423e-01,-2.729646884522396455e-02
5.355992521810321705e+02,2.090134081346624043e+03,8.682703272269612853e+02,2.019077089947746151e-01,6.792892525586847752e-01,-7.055489978780671301e-01
1.003587736924306455e+03,1.108037384554440052e+02,8.241269188023893548e+02,-3.528408972285061451e-01,-5.085572578528995136e-01,7.854125137328296091e-01
2.527595035869133881e+03,2.670902996552457580e+02,1.881632811620448365e+03,3.657629987572039165e-01,4.922592745543852844e-01,7.898722905352029144e-01
2.974977819851210825e+03,2.172529555541440004e+03,9.824745565602546549e+02,-2.726275477162873329e-01,5.293172079886030446e-01,8.034285989142739837e-01
4.824736914307776487e+02,5.432980663742891920e+02,8.710160348109006918e+02,-1.886981873110071817e-01,-7.380796728876670709e-01,6.477896190705547674e-01
1.435709269778102453e+03,2.844154239454374874e+03,2.371984200053074801e+03,-8.556428115838403681e-01,3.649878082357367604e-02,-5.162782369839866714e-01
1.831523167256003717e+03,2.265248423620997073e+03,3.050680667266864248e+02,3.141555134839069119e-01,-9.039342861210057922e-01,2.901880764651963429e-01
1.059149367022580009e+03,2.471668940843541350e+03,1.684064393191116096e+03,4.721661848421246921e-01,-8.815020875085562979e-01,3.628168916991691972e-03
2.583873538780640047e+03,2.299395885285634449e+03,6.517811864408092788e+02,6.102543799675284042e-01,-2.509128237470849010e-01,-7.514202197237654923e-01
2.393059927486837296e+03,2.724688396822089089e+02,1.687448217163560912e+03,3.797301295431029788e-01,8.633954711855503783e-01,-3.321946553655850676e-01
2.082035800561545329e+03,2.413950256250358507e+03,2.272215524745441598e+03,-4.684129987040335230e-01,-5.587650445196892246e-01,-6.843762763772607283e-01
9.338344499775823806e+02,1.997023469630809586e+03,7.546804946228323843e+02,-7.753327973546889629e-01,-4.951502868295484805e-01,-3.920270995719157825e-01
1.807717183350857511e+02,1.087030938212932142e+03,3.837323704133914930e+02,5.243572652016217361e-01,7.711251102132427038e-01,-3.611308943151920747e-01
1.316515764088079095e+03,2.208196238243639073e+03,6.306300036940937161e+02,6.105786680316478421e-01,7.231076885699118106e-01,-3.229689781941578741e-01
1.775287546205483977e+02,3.620890062071363786e+02,1.212897417184908818e+03,-1.327061196757887140e-01,-6.744489850952134491e-01,-7.262972203613557998e-01
1.185829850156308794e+03,2.049787500174281831e+03,2.962905879345561971e+03,5.977801245404176234e-01,4.737950034328823889e-01,-6.466662334052072358e-01
7.227156561935332775e+02,1.466955673443508658e+03,1.120262052397453999e+03,1.138545819949140364e-01,-9.829271226261805383e-01,-1.445385961069944880e-01
9.480069087747505137e+02,2.248136916556091364e+03,2.039454920392644453e+03,7.827598951601977273e-01,-5.200518612379408934e-01,-3.418084378006922552e-01
5.215954451114301946e+02,2.421149396625226473e+03,2.460546743070140110e+03,4.496393928643253046e-01,7.442499195417360269e-01,-4.938790070925474507e-01
2.287401481939625683e+03,1.490799538858290134e+03,2.872768550793362920e+03,-2.105036747251382567e-01,9.678155109003471201e-01,1.379178733446591310e-01
1.587847055603797131e+01,2.002295851695634610e+03,1.166050031209522331e+03,-1.125894389552858088e-01,6.679603956584230229e-01,-7.356307008734592756e-01
6.412033995392573615e+01,2.178807480388593376e+03,2.997882350315308031e+03,9.187169086738244950e-01,2.105885526842166122e-01,-3.340833776098095509e-01
4.514656193661406860e+02,2.642321038042231976e+03,2.769101619982080820e+02,7.253709785584875336e-01,-6.825563890065925454e-01,8.918362681223124255e-02
2.814416322863914047e+03,5.696613465763043678e+02,2.309998827685002198e+03,-3.289039612347459118e-01,-9.136271166800170596e-01,-2.389721237949131716e-01
1.157643281728110878e+03,1.165378768630345803e+03,4.230490328233515811e+02,-6.470848439868234214e-01,-7.340248004472885723e-01,-2.061281082503467754e-01
2.100655191442217529e+03,1.843759397378212725e+03,2.350045899134479441e+03,4.789317978505452378e-01,-1.261154736342063598e-01,8.687457742732704880e-01
2.144134208915372255e+03,2.313487931472674518e+03,2.241332673897865334e+03,9.336144642003812999e-01,2.612603316651925245e-01,-2.451674353049946575e-01
4.193759128062285413e+02,2.370774471880235069e+03,2.443575436324897510e+02,-5.532050826386290115e-02,8.062658786048179094e-01,-5.889609277049107083e-01
1.058315027183644361e+03,9.016660105842200323e+01,2.539294947761882668e+03,8.619526622674081873e-01,-4.814916447029020663e-01,-1.587558001819828757e-01
2.982186789834837555e+02,3.001511894697632670e+02,2.261831069308759652e+03,4.367479581243376430e-01,8.051509623153438669e-03,-8.995478832541434766e-01
4.976081355319112731e+02,2.946480017191970546e+03,2.237261065135571243e+03,6.565357609199143907e-01,-7.212973046547974665e-01,-2.206603565007392298e-01
1.519701775660489830e+03,1.461848998137909803e+03,1.304940945759521753e+02,-7.181940450661018494e-01,-2.734822787350291717e-01,-6.398474481073483933e-01
8.277074722613590438e+02,2.718124599004539959e+03,5.352330367600739010e+02,-2.082729969924797531e-01,-9.568489653453740029e-01,-2.026386346214808232e-01
2.599805492488910659e+03,6.092663447724470416e+02,1.152765568025643915e+03,-9.393342690909667336e-01,-1.497976377145132099e-01,-3.085640916349321472e-01
2.799620527709238104e+03,4.706458820261115648e+02,2.523791501297051582e+03,-7.482607380484577186e-01,6.103157253870837851e-01,-2.600395801419761455e-01
1.712123514685663167e+03,3.234407463118389501e+02,1.648855721740063018e+03,4.054434024137070214e-01,-1.471930900664106534e-01,-9.021916878778579729e-01
2.873514508043518617e+03,1.827021042262201263e+03,1.620392855207403500e+03,-4.155474399619536463e-01,6.142893233030507494e-01,-6.707972513486817334e-01
4.983473029266530716e+02,2.152560529427059009e+03,1.341505681304115342e+03,4.569616037935304020e-01,7.888944575124684500e-01,-4.108912600245382962e-01
2.860301372384755268e+03,2.597151375417598160e+02,7.584080173690820175e+02,4.601830502907720555e-01,-7.273387535149723471e-01,-5.091266029784409231e-01
4.836871403244213070e+02,2.066769543201426586e+03,1.501961451593485663e+03,-8.216433872277354444e-01,-5.058998410673649637e-01,2.626166312954088533e-01
1.658967652683987126e+03,1.514586465554100414e+03,2.915337570799594687e+03,-1.319263719584431171e-01,9.779202033000721217e-01,1.620725404238119172e-01
1.594986231737217622e+03,2.620517583926417501e+03,2.603776585185970589e+02,2.158760173308625907e-01,-1.699558552248751353e-01,9.615157577575867975e-01
2.452179044979583068e+03,2.911719739930967535e+03,2.677514769174731100e+03,-5.570527730298303615e-01,-4.730844350301574019e-01,-6.825564631530297577e-01
2.537845157496794400e+03,1.246439044328765476e+03,1.345494276498250883e+03,4.844001891444512653e-01,-4.879173952754817800e-01,-7.261494833327427623e-01
2.436107047517572937e+03,1.797732378479556019e+03,1.379561442247042123e+03,-7.610603460078927407e-01,4.581288293312212878e-01,4.592440804952757638e-01
2.641413077805786429e+02,3.351620293234150836e+02,2.961113636791417775e+03,-9.204271287113287014e-01,2.481827018727585377e-01,3.020252426923231703e-01
2.622014680830507132e+03,2.028948405376234405e+03,2.836803004486191639e+03,-7.573970956756743700e-01,-2.154091905825332998e-01,-6.163996431493379280e-01
1.769160863303925453e+03,7.397811163692330183e+02,1.088483158342813113e+03,-3.136254562048833572e-01,9.096411925971442658e-01,-2.723820367621990202e-01
2.537762859573360856e+03,1.917080540636271962e+03,1.100652546447051918e+03,9.162235977043874380e-01,1.493228551657239112e-01,3.718023721478724841e-01
8.322640030741381452e+02,2.967838900456216379e+03,6.101014551714557683e+02,-5.341003188451425299e-01,4.832938291686028065e-01,-6.936598042967938582e-01
2.882709302722538268e+03,1.345167748538038666e+02,1.934386054350270797e+03,9.855280838456116355e-01,-7.642197326499185206e-02,1.513078912478858229e-01
5.609527361123401761e+02,2.319642107420959746e+03,2.853955410472625772e+03,2.718586376144970784e-01,7.072683152334766632e-01,6.525828770517880795e-01
2.158525877456202124e+03,2.041584829053247404e+03,2.539645468093528507e+03,-7.793053648446739423e-01,-5.193928282685842390e-01,3.505912695254556066e-01
2.264060991618896878e+03,3.239909900420485656e+02,9.193423203405782260e+02,-2.146365853967392989e-01,8.890099619007079124e-01,4.044656028026736294e-01
2.091867249727541491e+02,2.953755221099800110e+03,2.095284020256960957e+03,2.998246512297672028e-01,8.551621897127562599e-01,4.228508103346053648e-01
2.136806490970675441e+03,1.099944975953919993e+03,2.065050871401541372e+03,9.259426422577107241e-01,-3.773264797432799855e-01,1.596718301246080954e-02
6.740511249492368506e+02,1.391315371642674791e+03,2.325680491412130323e+03,-1.794130106654540646e-01,9.260970758053537200e-01,3.318963359073592856e-01
2.060450344583264268e+03,5.381150125557982165e+02,1.580614824084183283e+03,4.964500738537578478e-02,3.056085316350549697e-01,9.508621343988683527e-01
2.963854700768567909e+03,2.533299576453313875e+03,2.898840449033827099e+03,-9.575758363414405006e-02,9.704804346135458282e-01,2.213553957075666823e-01
1.808704193421610626e+03,1.143320034659527437e+03,2.738483514802571790e+03,-8.003196424932933206e-02,-9.215403826295580636e-01,-3.799450063908746955e-01
3.577724192789461881e+02,1.848911186348788760e+03,1.159752745940568701e+02,8.646064763461737135e-01,3.658782461165595579e-01,-3.443671733468849361e-01
2.876497151473263784e+03,2.246239941985214045e+03,8.131404652342583859e+02,-4.690543387815951926e-01,-8.442708761742971912e-01,2.592194339050315488e-01
8.227191039633684966e+01,1.722194556151249344e+03,1.928438504926325777e+03,-5.408294203723899018e-01,-7.025925534765034008e-01,-4.624578271140316055e-01
1.605477184506952426e+03,1.713854940386441967e+03,2.581352157522330799e+03,-2.727176749244675791e-01,2.791822220413375799e-01,-9.206966692021067988e-01
1.819197770345409992e+02,2.545946307177503968e+03,5.391420104978134304e+02,2.811117506264645960e-01,9.375006193205990268e-01,-2.051067342463863685e-01
1.693788213529917357e+03,6.131408701788906228e+02,1.176490522134763296e+03,2.670493605358812469e-03,-2.062673431674590663e-01,9.784920294036847377e-01
2.068473240260254443e+03,4.205570551468107396e+02,4.497086915869309678e+02,-2.165104080884483195e-01,6.353872035906114046e-01,-7.412194983287181405e-01
1.151932840399574843e+03,1.057279168030976734e+03,3.229144827289628097e+02,6.970773365032073565e-01,-3.148775029992881835e-01,-6.441547523992411373e-01
2.369120783178191232e+02,9.005290939286790035e+02,2.097308958807356248e+03,-5.378119758049856869e-02,8.097280676343215911e-02,-9.952642801546025542e-01
4.133381485586618282e+02,1.898399454313134356e+03,7.395730963939129197e+02,-3.247065563166486035e-03,-9.574197974206627437e-01,2.886811183160509775e-01
1.772838998925995156e+03,2.210809970938621063e+03,3.962454660115133152e+02,-7.124023934182699413e-01,6.996843929588005828e-01,-5.407938703235593003e-02
1.804651233737034318e+03,1.812456368157568249e+03,1.349063785834361397e+03,1.469164192486099862e-01,-9.842137126602333863e-01,9.868603531769992721e-02
2.715533775957047055e+03,2.477285720057761864e+03,7.639712554920358798e+02,2.780985441654113544e-01,-9.592929775432132988e-01,4.917502383685135037e-02
5.272427133092140821e+02,2.893837329541098825e+03,2.590065768289961397e+03,-7.558917968393648046e-01,-3.930509786456782284e-01,-5.235823905142638068e-01
1.209961906978442840e+02,1.073516211687392570e+03,9.134905885189781429e+02,-4.377923134696798946e-01,-7.363891953956084313e-01,-5.158186146034999808e-01
4.806464203044700412e+02,8.682815159084489096e+02,8.824037501410840605e+02,6.906852675409890230e-01,6.710954256133466744e-01,-2.694156471377888717e-01
1.241921433050274118e+03,2.499150798659175052e+03,1.960304436170777763e+03,2.297026459314338021e-01,3.136315786738297362e-01,9.213424593009158503e-01
8.892270632860235082e+02,1.016792144553301455e+03,8.848770013984861862e+02,-4.295850591755575043e-01,-6.828810959397445535e-01,5.908723091677814399e-01
2.805041628964303300e+02,2.086000364796004305e+03,2.250067487944260392e+03,1.988671035242718377e-01,-3.696473462064593374e-01,9.076412917989069573e-01
1.059981484981200992e+03,2.659572635179929421e+03,2.065302477907540379e+03,9.792637953571894927e-02,6.058917804122605499e-01,7.894970390190754195e-01
2.994803008776149909e+03,2.195642443589425170e+02,7.738314197479957102e+02,-2.378178443402035880e-01,-7.011788031243267882e-01,-6.721539696844134326e-01
2.932166883142135703e+02,1.698375303605502268e+03,2.965077876595695670e+03,8.252978604497898107e-01,-2.811324185738989234e-01,4.897427944991017412e-01
2.469062781271111817e+03,2.492085623535625928e+03,3.227787490782008035e+02,-6.229895198645942767e-01,-3.102335575567156112e-01,7.180802169009994351e-01
3.906554673430355820e+02,1.241580331580860729e+03,2.442283238113342577e+03,-1.262999275413399236e-01,-7.924787388705883950e-01,-5.966789561742009695e-01
1.069838346085901321e+03,1.936518208036451142e+03,9.648933977707073382e+02,-4.322404990688663018e-01,2.326584527942919256e-01,-8.712279812471954710e-01
1.676177131808535989e+02,7.189363118918048485e+02,2.807207324305342354e+03,7.775725530047342682e-01,-6.064268674214496890e-01,1.662148587915874831e-01
2.895480316510579996e+03,8.156682506921603135e+02,1.870913117300021895e+03,8.135133936848783220e-02,9.846453072379899307e-01,-1.544525121749653618e-01
2.986049128723539070e+03,2.187759691708733953e+03,4.374515557376791435e+02,8.908228722977595826e-01,-2.688032683132471901e-01,-3.663050820494933579e-01
2.828392517505852538e+03,2.517629256813853772e+03,1.377234011863078422e+03,-6.973600842437139846e-01,3.302732390608508761e-01,-6.360884376121407335e-01
1.316119806184954371e+02,2.069123467092496412e+03,8.422914372811402473e+02,4.803877439374685809e-01,5.926531202991671687e-01,6.465213797503761572e-01
2.946516295973602610e+03,1.279868005297182208e+03,2.214199079922713054e+02,-2.205478649910887490e-01,-7.666308672146158187e-01,-6.030221825784176648e-01
2.731332027535127054e+03,2.955263927691398294e+03,1.860536863214491632e+03,4.169359230000656003e-01,8.940274775754279979e-01,-1.639490940877721681e-01
2.940831834641889145e+03,2.198451196724168767e+03,1.034781253159200787e+03,4.483865251204616209e-01,4.115250619204243732e-01,7.934712644461603404e-01
7.959662919293095911e+02,1.566603990383591452e+02,2.373512357695287392e+03,9.727105979978767358e-01,-2.214109935162052178e-01,6.936327913802897704e-02
3.189006459517662506e+01,1.685223099538761971e+03,1.603452522954845335e+03,4.151997791225146006e-01,-8.358711904870308462e-01,3.590661447845073795e-01
2.980677147058012451e+03,2.091270332441800747e+03,2.842549562768890155e+03,5.930974437722619230e-01,-5.605627723967716164e-02,-8.031768895908528716e-01
8.258096156401377357e+02,1.206499203505456080e+03,1.403113364352563849e+03,-2.527868386224036423e-01,-2.703087597115074181e-01,-9.289951499564017556e-01
3.133176397914110112e+02,1.864231168512147178e+03,8.399987880857880782e+02,-6.257391627842981974e-01,-2.964688515659142931e-01,7.214961678409619328e-01
4.213590003724455642e+02,2.613680586166865851e+03,1.863942661080485777e+03,8.438531386516896493e-01,-1.590506366799737323e-02,5.363384279887181139e-01
2.698956523586396088e+03,2.223268626424904596e+03,1.587916690897743820e+03,5.158685257817355874e-01,5.943391851330550590e-01,-6.169607743796643451e-01
7.833495662237653505e+02,3.871435181112096302e+02,2.719954375740674550e+03,8.445129498513073152e-01,1.895597700032858879e-01,5.008642242461969207e-01
1.096240745860317020e+03,2.577640071200925377e+03,6.442853646573555579e+02,1.293379860983738527e-01,-9.915899140016306568e-01,-4.596498912822878126e-03
9.290996972508904719e+02,2.258845094420206806e+03,6.940463187170777246e+02,-2.479579859719467927e-01,-4.324396161331232613e-01,-8.668983882736043256e-01
7.457166070208372730e+02,2.878090523314876918e+03,2.622291589529976136e+03,5.322627493296084450e-02,-8.036931407240975878e-01,-5.926586700705531729e-01
9.162256605146365018e+02,2.406123210617263794e+03,7.336621537711332621e+02,5.152316925589830454e-01,3.486952638852498787e-02,-8.563412982638671789e-01
2.481702547423088163e+03,2.944429576311676101e+03,1.979810756183162312e+03,-5.766603147637260340e-01,-2.554424587361710519e-01,7.760232159229645266e-01
2.528348202875662082e+03,1.653113291299967159e+03,2.751776685194436595e+03,3.695164947148846246e-01,9.103927979704861118e-01,-1.861249943911200688e-01
5.413241453733310209e+02,2.316307813541806354e+03,2.141768680120464523e+03,-2.321377436014359086e-01,4.691390819245274124e-01,-8.520684185009121947e-01
4.722826912059385762e+01,2.094040450953307754e+03,3.465972668523825746e+02,6.620004624589919118e-01,2.732379005210408551e-01,-6.979229451901799441e-01
1.765521861745213755e+03,2.241794364768145897e+03,2.233202354850200663e+03,4.877085570727937580e-01,-2.815981679964723594e-01,-8.263430493076129313e-01
1.496612761890285356e+03,2.745795514638869463e+03,1.985832337833324175e+02,6.879042638543217958e-01,-6.665521628229852391e-01,2.872210612177390487e-01
6.818581649576851760e+02,2.888141799703353627e+03,1.652015073657788207e+03,-4.379921441083953759e-01,6.140021709784432291e-01,-6.566309585551760586e-01
4.309787322236404634e+02,1.906991975482198313e+03,2.924384137109162793e+02,-8.201571601844450665e-01,-5.403417793638354283e-01,-1.880770960859154961e-01
1.440988960512314861e+03,6.723149909963588300e+00,1.231143940230195994e+03,-8.513543768329833172e-01,-3.035670501808980792e-01,4.278349811455240403e-01
1.578330196739639860e+03,2.114219464691244411e+03,2.067914339178089904e+03,5.181835845237320326e-01,-5.251149170500264418e-01,6.750852513732470417e-01
8.409889672101971883e+02,2.465625820801123155e+03,1.603959928503401215e+03,-5.236444841897225366e-01,4.574755544467408730e-01,-7.186880903850616509e-01
2.246713849819519965e+03,1.839871450348353164e+03,5.711747431154812205e+01,3.900771004493052557e-02,9.638158443635859163e-01,-2.636994818173874489e-01
1.187267701863627053e+03,1.486832366499073032e+03,2.149782622784145588e+03,-4.838641564916062454e-01,-8.740936777254422196e-01,4.284531039772354610e-02
2.328700449375391599e+03,6.263263709572692051e+02,2.107015219145935134e+03,5.110183544232942410e-01,-8.567326692913707076e-01,-6.978090577938456107e-02
4.896170389963908747e+02,2.458858093811303206e+03,1.451053571676088950e+03,-5.121875117383404286e-01,8.390618493681285539e-01,-1.834098300370603507e-01
2.790811440248306553e+03,2.985248361828513680e+03,2.447108099549605413e+03,-4.792427683813344497e-01,-5.862879793534844231e-01,6.531407001709530480e-01
2.950996898448639968e+03,9.668473935051331409e+02,3.160924362494309321e+02,-4.104529691701202521e-01,7.406540359717838085e-01,5.319398077772899969e-01
2.757986218611190452e+03,2.731676501328343875e+03,9.470407010491616120e+02,-1.948459531782470167e-01,-8.826675415841225281e-01,-4.277067518334281004e-01
2.672259663463325523e+03,1.109683309385596431e+03,1.193145580373772873e+03,2.304857217256592872e-01,7.806297062973719392e-01,-5.809419882627531173e-01
1.564394367605125808e+03,2.293284694966042423e+02,2.588864090377108823e+03,7.002238230030877197e-02,-7.490012547761915052e-01,6.588580927033379497e-01
2.638370022930618234e+03,1.001765495816522503e+03,1.792532090306311375e+03,-6.980065997926746535e-01,-6.714946251048774517e-01,2.487604371702405726e-01
2.776196336633981900e+03,1.138846060397362407e+03,1.367658181969937232e+03,2.855977365550127142e-02,-1.143128962196693216e-01,9.930341892838421280e-01
2.233165787146921502e+03,9.463655599995868783e+01,2.884569437365501017e+03,-8.581372797656425591e-03,9.889481183338381109e-01,1.480134429194475132e-01
1.314671812378334607e+03,8.362714312771561254e+02,1.069703909613856467e+03,-5.322558793621724460e-01,-7.440504880612126559e-01,-4.038471865697122465e-01
7.719713598664104666e+02,6.266325833246733055e+02,8.529214513966672939e+02,4.305281966555393053e-02,3.009901126068444399e-01,-9.526549253700231645e-01
1.847562488098204540e+03,7.089801421168007778e+01,1.141032318016903446e+03,-6.426912005414557871e-01,5.634750608587078304e-03,7.661046079564861611e-01
2.349527692662600771e+02,9.762178952552833380e+02,1.036108607154077845e+03,-4.657750832050676637e-01,8.767077160864694685e-01,1.201547020293367574e-01
1.133618173120698430e+03,2.056370831408576578e+03,2.316436026944752030e+03,6.768209160220892695e-01,5.964869467254649282e-02,-7.337271160716913876e-01
1.080110874372006037e+03,1.506014303296969729e+03,1.254095554322572923e+02,6.166021620254563684e-01,-7.859181496522965604e-01,4.619995489871642214e-02
2.662460330245472960e+03,1.943393411820640040e+03,2.346841302538482523e+02,-9.885602042402897860e-01,-3.971499541751841167e-02,1.455040952392170628e-01
8.539252346790045749e+02,5.726961546684017179e+01,1.528860628578671026e+02,6.702321587100087408e-01,3.639690016553198126e-01,6.467730817411554423e-01
1.802252950774582359e+03,2.981613012547943072e+03,2.068882167362628024e+03,-4.373988741800236557e-01,2.761691277221197671e-01,8.558112161915449878e-01
1.515025524525892479e+03,8.292985718962689816e+02,1.813377695768645708e+03,-6.721688538179486361e-02,5.990956134889731111e-01,-7.978510739591955225e-01
1.793528674849658728e+03,7.207244715718684347e+02,5.779085770483482065e+02,-5.775226456649590334e-01,5.299416393442262230e-01,6.209907025337015885e-01
3.266999681316307260e+02,2.178127912305345490e+03,2.134322218290464207e+03,-4.030251640814778991e-02,-8.526094724855601825e-01,-5.209921252754841081e-01
3.448420568475215759e+02,1.673703868267257349e+03,1.798781501350726785e+03,4.467615258751659324e-01,8.663659148827630441e-01,-2.231910404273578230e-01
1.534003351663231172e+02,2.025826941637036725e+03,1.986185273596580373e+03,-2.602367187070584453e-01,4.308309339083087053e-02,9.645831728267191263e-01
1.789322405519487120e+03,1.343046636591384129e+02,2.205118871779204255e+03,-3.021346798208008333e-01,-1.955463942756960616e-01,-9.329931633915418132e-01
3.217087803844653848e+01,2.294309657424481429e+03,3.826143321553959709e+02,4.359768492255746142e-01,-1.337362239860072632e-01,8.899656225570204970e-01
2.177723655958244763e+03,2.855323704021728190e+03,2.672750030466436328e+02,4.713734264959447418e-02,-5.439134261656758396e-01,8.378163615999931757e-01
1.020619842692237427e+02,2.730996650846244393e+03,6.733183292454192497e+02,-2.435680446088273887e-01,-3.594971906612905999e-01,-9.007976340733094833e-01
1.605133928327718650e+03,2.970257197234349860e+03,2.301325455716380930e+03,-8.641722875407519266e-01,-3.157765566287026315e-01,-3.917798153686631313e-01
1.992671732938038303e+03,1.122002240440662604e+02,2.971780804042254658e+03,-2.500817188524525614e-01,1.249812874866017554e-01,-9.601243730236173057e-01
1.148337818304923132e+02,1.645026715954784549e+03,2.177355515155670673e+03,-8.216631817224702428e-02,6.499716370957945299e-01,7.555035189388794592e-01
2.249804255218864739e+02,2.824624227091368539e+03,2.307735957653804689e+03,4.403961925285589385e-01,-4.333033202855220978e-01,7.863201804836823516e-01
7.353847660264186743e+02,1.363282141328135140e+03,2.938281930056178680e+03,3.275623303995151003e-02,6.091820617241363589e-01,-7.923536110036748514e-01
1.929842955812689524e+03,2.635609560317512660e+03,1.232808182631928730e+03,-5.181381321118625483e-01,6.388261129568083285e-02,8.529079012564458884e-01
1.861401049503626609e+03,9.791910467128736855e+02,6.134750158814640599e+02,9.080828818855377071e-02,2.112670491204118525e-02,-9.956442723863900834e-01
2.975632209530133878e+03,5.451787631656048916e+02,9.559232617544613504e+02,2.627650352577987070e-01,9.596855400573075512e-01,9.979078339647329265e-02
1.249010815709038752e+03,2.850471821480064591e+03,1.421197936477766916e+03,-2.577210764834763079e-01,-9.492765465206662867e-01,-1.801496182676929625e-01
9.718566684912910887e+02,1.517459426925845037e+03,8.181141776994006705e+02,5.773697764493190832e-01,5.951183938737287793e-01,5.589975299730909342e-01
1.387206997822858511e+03,2.811688571626947578e+03,1.589204562985862026e+02,-1.488884881333898402e-01,3.488985866459251572e-01,-9.252577988527463937e-01
2.289102833036394713e+03,2.523374402426246434e+03,2.457279363533467404e+03,-7.780655488942007647e-01,2.027930043799177906e-01,-5.945494083745546110e-01
1.949391710621742277e+03,1.000487452745296196e+03,2.898106360174331257e+03,-4.076851023722075640e-01,6.402198270493758558e-01,6.510848104176827356e-01
1.764851976141118485e+03,7.356623176184974682e+02,3.057563271258112536e+02,6.473985495677083701e-01,6.658640402121033253e-01,3.708101912974370862e-01
8.637402189430647468e+02,1.244136880843711651e+03,1.678120855634118470e+03,-4.865107990279216033e-01,-3.650322927708215537e-01,7.937623496133401346e-01
2.591679423614767984e+03,7.901780822984699171e+02,1.680326363273703919e+03,-5.538572410460211870e-01,-1.310937407011537881e-01,-8.222266036135466027e-01
4.810731045397546950e+02,1.980222881338058642e+03,5.945201662129049964e+02,6.269742621836562613e-01,-1.358781694600300904e-01,-7.670986883207736584e-01
5.331893612201844235e+02,2.134831526962340376e+03,1.963496269301656838e+01,-4.675671289983452383e-01,-8.537681137267921772e-01,2.290436374659641228e-01
1.778613585068667589e+03,1.986996612072965036e+03,4.467216689959343512e+02,2.890630459321169021e-01,-8.388995596872560467e-01,-4.611833520769966221e-01
2.226659442396230133e+03,2.284845328229859206e+03,2.347379588083878389e+03,8.588923936935205505e-01,-4.312775494529992870e-01,2.762309385156382913e-01
1.125143086205469444e+03,1.013832467834777958e+03,2.603467178334028176e+03,6.444310465463567450e-01,-6.045926668300950491e-01,-4.681627211370433805e-01
2.391089322141784578e+03,2.186379904765423817e+03,2.585440031585013458e+03,9.447472687147950854e-01,-1.008657700329704393e-01,-3.118953264984756224e-01
2.730765709311427599e+03,7.884531396780743080e+02,1.048220961469872350e+02,-7.157717134642165302e-01,-1.276092286391093400e-01,6.865760984556854574e-01
2.892192808919358413e+03,8.239741749022488193e+01,2.555773612356387275e+03,5.232772956127246244e-01,-2.124927609784625637e-01,-8.252440235639293409e-01
2.845097524052875997e+03,3.890419833326135404e+02,2.816028035711830398e+03,7.132502991179043295e-02,9.916108443323330413e-01,-1.077992277829473711e-01
1.063586056880974184e+03,1.456303534442907448e+03,2.233093246723463210e+02,-7.494162766692370470e-01,-4.410950325322350873e-01,4.937716238693794502e-01
5.581469865817548452e+02,1.267736229435788118e+03,9.451402755389617596e+02,6.268773082911595074e-01,3.699349674349115824e-02,7.782392444154431210e-01
2.208051153146931028e+03,3.853408913275995360e+02,1.038139381253761258e+03,8.054487977035912349e-01,-2.308553484844559078e-01,5.458553309751217331e-01
2.535285314704895882e+03,1.109647109352604275e+03,1.806860185971269857e+03,4.510748298481817020e-01,1.630821320325250290e-01,8.774598088169964782e-01
2.069003363204941252e+03,6.469001103795994823e+02,2.696976701379361657e+03,-6.353345361496575139e-01,6.626245765237122054e-01,-3.965837840384685009e-01
1.748545184738041371e+03,1.909187985723425072e+03,2.788257445225687206e+03,6.482885119141053032e-01,8.172183092550447392e-02,-7.569963987169148201e-01
7.798941148855908523e+02,1.995115358577404052e+01,2.626625186369490621e+03,3.746861045501108656e-01,-9.199634372780067793e-01,1.152284562454004291e-01
1.041544675511621563e+03,1.426202199039709740e+03,1.488351657559356454e+03,2.408723752673412044e-01,-1.308047852403525502e-01,-9.617019325088695947e-01
3.438095814226960556e+01,8.731128831539830344e+02,2.559307878980191617e+03,-5.746245669472930251e-01,-8.171175849103446964e-01,-4.610270589587717183e-02
2.034678901649521322e+03,8.895666100384455603e+02,1.999059448307021512e+03,-5.149492817758548335e-02,9.628905314329574416e-01,-2.649341368127975382e-01
2.054007098593443970e+03,1.712866782584096654e+03,2.731443803415434559e+03,4.960535890831570538e-01,-8.533816960079787517e-01,-1.602202161909169753e-01
2.940692522076082241e+03,1.537563957785049524e+03,2.040192511672313913e+03,-9.671194907269673458e-01,1.721597015606574355e-01,1.871922215653116783e-01
1.303324272250011973e+03,2.713749837115446439e+02,3.808317314192991603e+02,6.705211240038995157e-01,-5.684836036730721576e-01,4.766841875072265200e-01
1.074114112077127174e+03,2.024984512330352800e+03,2.658902106153725072e+03,1.836124683053602658e-01,3.135955092494361329e-01,9.316352924086763743e-01
2.940102907523559679e+03,6.759204540157526253e+01,2.784821302117466985e+03,3.023422056390233648e-01,2.450830175738100969e-01,9.211533559545044270e-01
1.630771174680583954e+03,7.582049942231287787e+02,1.666291515522458440e+03,7.881061010251801946e-01,4.518578687557083806e-01,-4.179871289530785461e-01
7.537094092229676789e+02,1.471253266998616482e+03,2.251527203540246774e+03,-2.079307740934459858e-01,-6.487427447595176533e-01,-7.320503017599184759e-01
2.683619847288700839e+03,2.422163612549724348e+03,1.408905209701060812e+03,-2.679985620742242336e-01,2.053898309565109770e-01,-9.412713679199022909e-01
1.882316165644561806e+03,1.310682315631327810e+03,2.598515144403450449e+03,-2.979244537783557467e-01,8.900864180406601323e-01,-3.449451960245507043e-01
4.216285661771935906e+02,2.656921667093956785e+03,2.423219616506825332e+03,-6.532116616666937547e-01,-6.534001326821121669e-01,3.826000413926207711e-01
1.734991583352715679e+03,1.865626965526107369e+03,2.428378983027188497e+03,-5.871055426605125138e-01,5.703082770960389292e-01,-5.745046134306084351e-01
1.573790190548078499e+03,2.120348610976171130e+03,7.159230115947451623e+02,2.955287693668502413e-01,-3.929508615882730815e-01,-8.707768754701452618e-01
2.140684085944588332e+03,1.336788918633210415e+02,8.402796593245058148e+02,8.972072702539610756e-01,-3.638157306060754159e-01,2.503142592162967972e-01
1.754934068263316021e+03,2.511016600527664195e+03,3.488623316683673465e+02,2.871171774945304178e-01,-4.493447221879481313e-01,8.459627929344233355e-01
1.079210643370986986e+02,5.421770952932765795e+02,2.951020727366084770e+02,3.822593902806012967e-01,-8.602352774706606420e-01,3.374507755766441019e-01
2.079770403567109042e+03,1.143010586159889044e+03,5.260554339972368325e+02,1.518667599692307968e-01,-7.333650625188516958e-01,6.626553948268806282e-01
1.833390175366090489e+03,2.181324998849521762e+03,5.431043339078867405e+01,9.874501470736218867e-01,-1.747770790574584843e-02,-1.569609402706415857e-01
1.445900417909747830e+03,1.544762534939575289e+03,2.798967697321784271e+03,-8.441111961902669769e-02,2.766262202595954900e-01,9.572631284811674579e-01
2.965544714263900005e+03,7.320667096266776070e+02,1.625894824558123673e+03,7.897573305050140102e-02,-6.502123293704922258e-01,-7.556366589332035311e-01
1.676236506835683258e+03,2.376642159238675504e+03,1.177680045600788162e+03,-3.319212983843298215e-01,9.123151807405401881e-01,-2.398108893883184323e-01
7.851656288850285819e+02,6.834253441432214515e+01,2.766252139637537766e+03,-5.240733042802982189e-02,9.673972122843599308e-01,-2.477823750428111982e-01
2.469784799858693987e+03,2.615656651545846785e+02,6.319663595977558543e+02,-7.853060558484397102e-01,-1.948272652864237731e-01,5.876535844770971462e-01
2.554683014122689656e+03,1.282908791498929531e+03,1.676509473065216753e+03,7.302492944109587603e-01,2.515542576196416746e-01,-6.351821970787026039e-01
3.558787386306196936e+02,2.679082662408939086e+03,2.008950193065979420e+03,-1.211802676944120638e-01,-9.561744802288342504e-02,-9.880144970369117985e-01
2.359348496938511744e+03,1.432469738575591464e+03,2.197171706612389244e+03,-8.458845937472541099e-01,-2.916604830189272746e-01,-4.465572938674375880e-01
1.806214747992363982e+03,2.326205665888913074e+02,2.391158529996496782e+03,-2.693711229631264303e-01,-6.413146554584091552e-01,7.184390793991137780e-01
7.187028003845866806e+02,5.429331376703905221e+01,1.594141719553761504e+03,2.578947594865937942e-01,2.442287102529005494e-01,9.347955017636513375e-01
1.372282732469627945e+03,1.103674126796516575e+01,1.251060952864984529e+03,4.440614090777923462e-01,7.369581193496275162e-01,-5.096098461494888987e-01
2.426093151148254947e+03,1.893667030158272553e+02,3.498455071065927768e+02,-4.698798476243540301e-01,2.535281443468290208e-01,-8.455391231756028692e-01
2.716346399459809618e+03,2.895628267760892868e+03,4.829381807643369484e+02,-1.597542326827333936e-01,9.869824221978087397e-01,1.855487570687519919e-02
5.530718375878557254e+02,1.239017897852250371e+03,7.949219938797904206e+02,-2.270996096543483056e-01,-4.943223254924095644e-01,8.390895100134543316e-01
3.124017136518253324e+01,1.638274435682807280e+03,1.068270025701119948e+03,-4.462698835396912700e-01,-5.888009445586669388e-01,6.739114472482954366e-01
2.579080295425959321e+03,1.594486779026687373e+03,8.911501760057174124e+02,8.760893025535839707e-01,4.296853543096467720e-01,2.187190669396890108e-01
1.748602678147284223e+03,4.791299811657878394e+01,2.034842807938591932e+03,5.380387614897830240e-01,1.732856543176520547e-01,-8.249159794441149884e-01
1.072583541547018058e+03,2.391751216844246301e+03,8.493829136000441338e+01,9.215735622980011366e-01,2.180075991728164242e-01,-3.212084307366118718e-01
6.054993052201725732e+02,2.964297118973702709e+03,7.953777836679516895e+02,-1.178296395697438770e-01,9.638179266597295403e-01,2.391049566366294510e-01
2.246279479418635674e+03,5.121203644950745115e+01,2.737456585466338765e+03,-1.679915170493775645e-01,-9.657734884367084049e-01,1.976370897180985686e-01
1.455143538735296261e+03,4.863411298782183394e+02,1.315975346568631949e+03,2.119304406579149702e-01,-5.289041205948202817e-01,8.217943292213458761e-01
1.404802854010644921e+02,1.317443039954562437e+03,2.334505639937146043e+03,9.108632404097906088e-01,3.708989001002770403e-01,-1.810032131609289330e-01
2.363079067851826949e+03,9.236257792665805937e+02,1.924790636515729602e+03,-7.863836233484979843e-01,-2.000208489052123298e-02,-6.174145394541012966e-01
1.053434216641947614e+03,1.237374545090382071e+03,7.557441106681544625e+02,-1.898640751093273182e-01,-9.130253720734202716e-01,3.610211945759865260e-01
1.021515572655014921e+03,2.833993393903495416e+03,3.104769672707785730e+02,4.306911582010625739e-01,-2.892294313652353233e-01,8.548985099294359458e-01
9.392910170525998410e+02,2.774094706291966190e+02,2.147167176536724128e+03,4.108836616491188809e-01,-8.552963822150848605e-01,3.156623435882079942e-01
6.474760181599724547e+02,1.673654263814188653e+03,2.109525376110980687e+03,3.237415947258595605e-01,-2.779513422152634639e-01,9.043972750982229858e-01
1.473759809733847760e+03,2.257921750713815072e+03,2.176294662288839845e+03,-4.251846509002416008e-02,9.869991488269094226e-01,1.549995494875547053e-01
1.030771291189106933e+03,1.101391013379449305e+03,2.806261799097040694e+03,-2.704127970785402679e-01,-6.874172535510375548e-01,-6.740433507546148562e-01
2.239321491638063890e+03,1.410868443471215869e+03,2.617497492836680522e+03,4.314274243461195257e-01,8.153106116527191194e-01,-3.861851680846151158e-01
2.750079850004365198e+03,1.260098414869296676e+03,1.445854214569996657e+03,2.319818686489063392e-02,7.731431907223281774e-01,-6.338071084848130310e-01
2.800011006262972160e+02,5.180677548675193975e+02,5.768807779647921734e+02,-8.060002457470732962e-01,-4.473093077790266658e-01,3.876570482138890217e-01
7.296550573266580386e+02,1.116632020936549225e+03,2.783831875345179014e+03,7.701293367499101317e-02,-3.942736873849237433e-01,-9.157604858709873508e-01
2.035133158458810613e+03,2.676652187006198801e+03,1.930895629552492892e+03,2.365916246967732228e-02,-7.736571976356596547e-01,-6.331625261951083772e-01
1.091991418015653181e+02,1.553674787665093504e+02,5.321183640402205128e+02,2.318020729598694041e-01,-8.621464144529202844e-01,4.505234278231053935e-01
2.342330992942202101e+03,2.853202922614807903e+03,1.167876405148841286e+03,-5.711975719154067654e-01,5.352088887560406683e-01,6.223220864106204786e-01
2.714444586651957252e+02,2.490244666838360899e+03,1.884183104611813860e+03,-5.904148066334455880e-01,-7.309442706158517655e-01,-3.422438156663341058e-01
1.174554348556856894e+03,5.718487178696933597e+02,1.622125332093916086e+03,8.132243930166215273e-01,-2.698475684241319339e-01,5.156048646185671380e-01
2.079338043080904754e+03,2.001739547800791797e+03,1.321892719755109738e+03,-6.365865553946330191e-02,-9.508329474644382495e-01,-3.030912100193552949e-01
5.549102183346299171e+02,1.014148073567781807e+03,2.848618532214620245e+03,3.694590573588341642e-01,-1.920608995016123144e-01,9.091823886427592427e-01
2.746479477796975516e+03,2.739739011868301077e+03,6.619852187293959105e+02,3.110328318667529013e-01,-8.942188216842057447e-01,3.219181207180776827e-01
1.939343136676983704e+03,2.549371355141443019e+03,2.532224978349892353e+03,-2.436544923009047459e-01,8.861076509140748403e-01,-3.942660515098004304e-01
1.259407623122736140e+03,1.313783105009289784e+03,2.669936329976908837e+03,8.982194437361869233e-02,-9.904668302559234139e-01,1.044388647569785139e-01
6.642276831841398632e+01,1.412305547023673284e+02,2.059225378292577716e+03,-3.639135605024685360e-01,7.199358975207718059e-01,-5.909815766530941428e-01
2.269430480000997250e+03,2.528469151569455789e+03,1.402577456370287109e+03,1.072694290523292515e-01,7.545721665708354786e-01,-6.473902339604626910e-01
8.140609635805943753e+02,4.880640925515965591e+02,3.337623546896105609e+02,4.048579642419236624e-01,5.143228462021876002e-01,-7.560172211427238498e-01
2.541938322504264306e+03,1.184938676930794827e+03,1.483050936815558998e+03,4.919694902344259879e-01,-5.742982359928499037e-01,6.543298532192918238e-01
2.976876213794640989e+03,1.226944915249712722e+03,5.635680087765401822e+02,8.507892365161939807e-02,-6.019969859579934468e-01,-7.939528988849233748e-01
5.566746882852041836e+02,1.606660061887105030e+03,2.306435682547337365e+03,2.151856957816440929e-01,5.324221545379063114e-01,8.186707309341062500e-01
8.413334220813650290e+02,6.988434052055361008e+02,1.448917097047219613e+03,8.376863778989687703e-02,-9.929187889859861782e-01,8.423237976828069906e-02
1.809813607905348363e+02,4.660296622024318935e+02,2.263909402687631598e+02,-1.234070569850602983e-01,8.201561773847937387e-01,-5.586721247599961693e-01
7.302187150619776901e+01,4.161244931046949205e+02,1.414262685247432501e+03,-8.213903440338981010e-01,3.219581732882596525e-01,-4.708087057189591640e-01
1.635801702124953636e+03,2.626251683370935098e+03,1.150166073869831962e+03,4.626724978319615156e-01,-8.360585927669705875e-01,2.948562178595635075e-01
1.726218743131716110e+03,2.518233125773137544e+03,4.739442651515043394e+02,-2.036858019588053681e-01,9.667983682110919963e-01,-1.543146438442188906e-01
1.928479765017418003e+03,2.766896563867471286e+03,1.741452672158403630e+03,-2.780337701775571491e-01,-1.552531621741221057e-01,9.479418116507938308e-01
1.162850977478090726e+03,2.036298811505225558e+03,6.087745955909745135e+02,6.364301906574443279e-01,-7.061639887805147842e-01,3.103047427438421213e-01
2.678528211492535775e+03,2.083046909603040604e+03,1.791228427946749434e+03,5.301625374921593581e-01,-6.216972319834760535e-02,8.456137471430531516e-01
2.849361573063925448e+02,2.563864961856148057e+03,6.461818616031039255e+02,-1.443720762067903229e-01,-8.876859145034234899e-01,4.372303978498768839e-01
2.231396112732440088e+03,8.007358814889690848e+02,2.481799208063654987e+03,-1.116828318897502142e-01,-8.676162367134654385e-01,-4.845296800529868553e-01
2.485651172969153322e+03,1.054693985384907137e+03,2.056491759390888092e+03,1.925129855825458425e-01,3.613447372372382560e-01,9.123424418786214574e-01
1.334073909396405952e+03,2.482420804674032695e+02,2.745099472741907448e+03,-1.524525832010760473e-02,7.164552310778748989e-01,6.974664751512449357e-01
3.322960119183048278e+02,1.340016508366763219e+03,1.783580509696092349e+03,4.882078597695752586e-01,-2.898329280443214320e-02,8.722459827350443895e-01
1.993185715004070062e+03,2.024588816401923168e+02,1.647965600562950385e+03,1.771068385221757635e-01,-4.643200323835926513e-01,8.677788170242342058e-01
1.522386925979628131e+03,2.745168096078326471e+03,1.564956602621363572e+03,-9.444938282447004063e-01,2.636177143522799859e-01,-1.960538423172322464e-01
2.618817979707710492e+03,1.222284394339931168e+03,4.324318583163862968e+02,7.301495486555437120e-01,-3.492403499524098232e-01,5.872927843616198018e-01
3.313346033302576643e+02,6.457933986188690767e+01,1.694468146378349616e+02,-4.615334790991539871e-01,-3.040285974918381928e-01,8.333987398465254604e-01
2.549118395034419336e+03,2.903431080236441630e+03,1.850148840350608225e+03,1.667950177285985602e-01,3.151529713148901873e-02,9.854878021100161867e-01
7.833981336543539555e+02,8.505773565741792481e+02,1.814419742507124056e+03,-9.929311630037903624e-01,-4.606132467093081162e-02,-1.093894871799820923e-01
1.889888786781967156e+03,9.210744558548833538e+02,5.894659228472791028e+02,-4.055109469499621477e-01,-6.214211360039404441e-01,-6.703705271201272353e-01
2.361623131338669737e+03,2.175746167258480909e+03,4.214786240623872118e+02,2.318347031760259747e-01,9.545353858217952014e-01,1.873896144862903235e-01
1.620856051778435813e+03,3.511003075044095567e+02,4.354113916824120167e+01,-1.670712079812679551e-01,9.774963170490390540e-01,-1.287950372461790227e-01
9.140051865196087419e+02,3.328208575885782672e+00,2.988376444942053695e+03,-8.867277270838918035e-01,2.773319824140942358e-01,3.698660697480962156e-01
2.234084219446681800e+03,1.684782468813307332e+02,1.511699006362273167e+03,3.301787942226089290e-01,3.809214993947132033e-01,-8.636438937111681202e-01
5.137185125302528377e+02,5.671464136685640369e+02,5.074670865693161659e+02,-5.318252923153824474e-01,8.468427769837386654e-01,-4.378301511753557307e-03
3.482575942996274421e+02,2.422031013874161829e+02,8.545641085387557041e+02,-8.966261347489832279e-01,-3.057017936209773246e-01,-3.203248161819745587e-01
2.626484934560635338e+03,2.635215732550978828e+03,1.158473902317959528e+03,9.973109377610833715e-01,7.134116081212595051e-02,1.677296026606223470e-02
5.710901366170973006e+02,5.219512195612141170e+01,2.152920387657046831e+03,8.554617130654141866e-01,4.840715314804559521e-01,-1.840108961158357648e-01
2.296900571064521728e+02,1.555390676123342473e+03,1.958312837153674309e+03,-8.181110248271051821e-01,-5.684853217508263334e-01,8.671095669062434119e-02
9.482675194090666082e+02,2.423285192062049020e+02,1.267820989394931075e+03,8.895916810293816868e-01,4.370394613426065167e-01,-1.327522138146226827e-01
4.102044582548894027e+02,1.724426761147426987e+03,2.658494457008081554e+03,-4.822684510858037815e-02,5.414087692066598123e-01,8.393751938418259062e-01
6.698083577701021341e+02,7.400467339635578128e+02,1.992411152049603061e+03,-5.906764243813822368e-01,-6.043911182005237137e-01,-5.346145694987615160e-01
1.235897900901924459e+03,1.916939403349210806e+03,1.190817997241903413e+03,4.081249212686686167e-01,7.540792438256945784e-01,5.145857971910143824e-01
1.686055704019762061e+03,1.578855651704802767e+03,2.923017334538119485e+03,4.222701891895945803e-01,-2.130629635126543298e-01,8.810743787564074836e-01
2.178287385054235074e+03,1.456698488136916694e+03,1.417636328981551515e+03,-9.416291093818200952e-01,-2.541351279959645493e-01,-2.207939244709304916e-01
2.861466126870550397e+03,1.370802745602193227e+02,1.820131474035946212e+03,-6.343918942801238248e-02,-9.004273344568080040e-01,4.303557651614818291e-01
1.280254034473471620e+03,1.424285719142092830e+03,5.556610833154625197e+02,9.840501956495845137e-01,1.448189047122214745e-01,-1.033087473545542118e-01
2.068206767738093390e+02,7.264100592667751926e+02,6.986569896417793757e+01,-3.557488350132776977e-01,-2.257361486219154056e-01,-9.069101154976937362e-01
