x,y,z,nx,ny,nz
1.919816164895142947e+03,4.011183388891510617e+02,7.646088993774856135e+02,4.867861680861363394e-01,-6.443925875897885680e-01,-5.897435202012417665e-01
5.545343720987305005e+02,9.695879914556915082e+02,1.770263951206569118e+03,-7.995371733599315744e-01,9.267051234571876961e-02,5.934243713879576720e-01
2.134405757908294618e+03,7.897205988161956611e+02,2.040610493211820767e+03,-4.137339454607196210e-01,3.358926505221693226e-01,8.461680386889463001e-01
1.655239335621652117e+03,1.327961384564602668e+03,1.947322821741351163e+03,6.533899511031997231e-02,9.488945325249852347e-01,3.087555373789487856e-01
7.233626901272663190e+02,2.512276422254505633e+03,2.596770442909496523e+03,-8.691629019075509666e-01,-4.215647366028578147e-01,-2.585324405188025310e-01
1.197523766509562392e+03,2.162109964740649502e+03,5.725433953745230156e+02,-1.513567097524986804e-01,8.828021065015471125e-01,4.446926884594899487e-01
2.092671981861778931e+03,2.818808270154225283e+03,8.986821083271833004e+02,5.402339713403868648e-01,2.595901652431232276e-01,-8.004749854422947841e-01
4.970405743648741463e+02,1.864022227243382758e+03,1.935647550768927431e+03,5.279913920742925759e-01,2.375769590771955320e-01,8.153418169155088879e-01
1.628014730394395428e+03,2.577523841435701343e+03,2.637159311669152885e+03,9.972538175328984345e-01,9.658270963827582031e-03,7.342711500562872085e-02
7.012051567641201473e+02,2.992044809943221480e+03,2.452205071191587194e+03,5.940022453056037488e-01,2.805137103960343437e-01,7.539717440672104587e-01
2.978524377051393003e+03,7.957052897853074001e+02,1.997737550939845733e+03,1.315199726243553302e-01,-5.759326059123294483e-02,9.896390822594665071e-01
1.688228636494445709e+03,9.496248548302399968e+02,2.337326501310345066e+03,4.648045054084246064e-01,7.899802940982030286e-01,3.998598588112423080e-01
2.829795243764897805e+03,1.384282966122646485e+03,2.608790165974149204e+03,3.806819719035381966e-01,-3.801746738829422934e-01,8.429403618321003044e-01
1.984266912700916691e+03,2.116266216682480717e+03,7.797580435675737363e+02,-8.204595094073025008e-02,-7.613789803747943452e-01,6.430944799776077136e-01
5.570193719499667395e+02,1.009930586930998061e+03,2.880696814045393239e+03,4.662435049782965857e-01,8.813322471783500145e-01,7.661895424183941261e-02
9.059744351765502870e+02,9.063328696970686451e+02,2.730479853485449894e+03,9.910885947894045866e-01,-7.441818363893633326e-02,-1.104777408451360771e-01
2.407991472141764461e+03,2.245121906526710973e+03,2.636228878901303233e+03,-4.735134429931666111e-01,4.455521363082664554e-01,-7.597817536213258283e-01
1.819875545573429918e+03,3.576153334813685092e+02,2.807617487799401260e+03,-7.923272620195705995e-01,4.407433599080019526e-01,4.218563743237457864e-01
1.539652462931809168e+03,1.892761716936694029e+03,1.170508919572926516e+03,4.047837366885387311e-02,-8.707148882917631338e-01,-4.901194594914459746e-01
8.986785328882174326e+02,2.009365165861001969e+03,2.826477507117621712e+02,8.619309137287591849e-01,2.623550607975301194e-02,-5.063465198650480836e-01
2.481488155101763368e+03,9.001328266944508982e+01,2.343271560614168266e+03,5.036293545924919179e-01,5.362211294889687174e-01,6.773657604886187400e-01
6.202410365055039847e+02,5.592556965218072946e+02,1.672588138491909831e+03,3.544459367430673469e-01,-8.308339559458310930e-01,4.290489664056194030e-01
2.782115172662683108e+03,2.071239187676836082e+03,9.852219481997807407e+02,5.515948594913617775e-01,8.340192650459958834e-01,1.244895637561605102e-02
2.219550296983393764e+03,1.379615957088557025e+03,1.091829984135613813e+03,4.983949964029862345e-01,-7.945248133510487420e-01,3.468901101645136542e-01
8.762552592527287061e+02,1.275772671990551316e+03,2.967722424508166569e+03,2.013758147850771285e-01,-7.646329718924729235e-01,-6.121962099805349222e-01
9.933804350008247184e+02,1.516674516740538081e+02,2.074341997456082936e+03,7.116834929275309696e-01,-9.517241741424275342e-03,-7.024357821211162367e-01
1.072654205154222382e+03,3.658607537389579534e+01,2.594571040574860945e+03,-7.719238252377793597e-01,2.707699675643725490e-01,-5.751671345752145115e-01
2.035956338417718371e+03,1.709074217044144234e+03,2.820352403256108573e+03,-4.192069335596915747e-01,-3.058727592058533840e-01,8.548142500165041291e-01
2.565228958022536062e+03,1.839758596375115076e+03,8.495801962320588245e+02,-8.788186242999367348e-01,-4.525267690431738488e-01,-1.513186997132627276e-01
2.301069451181760087e+03,1.512120769070894085e+03,2.623181769895199977e+01,-5.858478939313963574e-01,6.561919181553893532e-01,-4.755990030726495732e-01
1.471535793849907122e+03,5.999700312547148542e+02,1.175052045795471258e+03,-7.913282011281305151e-01,-5.747144206295831115e-01,2.085737587035337015e-01
9.793338651404372968e+02,4.864417882052788400e+02,8.542816802152633500e+02,-2.133866319259098698e-01,-9.713468674197006658e-01,-1.046489773922842925e-01
1.405168352284441880e+03,1.353542823013025782e+03,4.382087726028271959e+02,-5.797597141570546286e-01,1.646423391608423104e-01,7.979796826963556633e-01
3.653836577232841591e+02,4.480658197972105086e+02,1.495776704667508511e+03,-1.091616904739932115e-01,-7.103348444081748481e-01,-6.953474916561317443e-01
2.661174699044460340e+03,1.594625921840640785e+03,1.552315520819143558e+03,5.880375402956828923e-01,-6.552278329724503525e-01,4.742239324425013280e-01
8.109722286200002372e+02,2.186029707002044233e+03,1.151504828673422480e+03,9.812199813193878128e-01,-1.843197052860470198e-01,-5.686470348858829738e-02
2.107883045754044360e+03,2.410672437986285786e+03,1.784799275046844059e+03,-1.279916396579154902e-01,9.854100381076729143e-01,1.121837643080008107e-01
1.803424508039587636e+03,1.738900640344891372e+03,2.310472191589468821e+03,-9.023688793464756941e-01,-4.231814600397383330e-01,-8.153439437207499196e-02
7.189021612603451103e+02,2.186143619766643042e+03,1.160047993856298945e+03,-1.034707930529274282e-02,9.062373478249600156e-01,4.226426473476527779e-01
1.566975149659102499e+03,2.866522012534222696e+01,1.462699208200593148e+03,7.869248480429342704e-03,7.195471091073978309e-01,6.943990442847252087e-01
2.337833103537945135e+03,9.369676871618188443e+02,8.604301264888614753e+01,-5.235044571426078486e-01,-8.268603238343561479e-01,2.055360995552055758e-01
2.389705574739356052e+03,1.371194479069984027e+03,2.177722719884145590e+03,2.172491245762841194e-01,-2.825659145913206882e-01,-9.343229215758375172e-01
2.530191516632091407e+03,2.354762025459100698e+02,2.187207832135353840e+02,4.595345719644143845e-01,-3.429258356197009694e-01,8.192861822550239204e-01
1.002578635204951752e+03,1.156953378726074334e+03,5.952192826374861170e+02,2.905617101664260127e-01,7.946374794734698543e-01,-5.330339283771836634e-01
2.223504548695873382e+03,1.923784107590970279e+03,1.247741163650020781e+03,9.812733727946397755e-01,1.187896920102898407e-01,-1.516297362535872217e-01
1.516936707632878779e+03,5.988713427477587459e+01,2.669774364391463678e+03,7.454806716791713139e-01,-6.627116789227778249e-01,7.121656248461061267e-02
2.560753972485274971e+03,8.732128768141916453e+02,2.596234293603267361e+03,1.358962606842696874e-01,9.803195663324657527e-01,1.431983037530801806e-01
3.134181558958425171e+02,9.529585529454988091e+02,1.410801888592658315e+03,1.468149373432365012e-01,6.455037104585762409e-01,7.495133981171464566e-01
9.863237430430409631e+02,1.114092321079536305e+03,4.025670383079198587e+02,-9.031998289444688188e-01,1.630522593626848871e-01,-3.970441155733279714e-01
2.618151675221254663e+03,3.359907236701663464e+02,5.647260469336766846e+02,-8.422915172417468899e-01,5.389949623465323247e-01,5.424992871548629282e-03
2.394821533622995048e+03,9.443857035189362250e+02,8.683697431289073165e+02,-4.909267470708238990e-01,2.223710025335958740e-01,-8.423431997960586504e-01
2.802611353322475225e+03,4.924575940061819210e+02,1.728935917015078303e+03,-6.154879292389184853e-01,-1.137529511173236280e-01,-7.798941435049298043e-01
2.883905504809421473e+03,2.147068167782815067e+02,2.557456397949634720e+03,9.688365879731209995e-01,-1.148835129641256336e-01,-2.194480445427178517e-01
8.276716888430779306e+01,2.944400926282427918e+03,1.167076313720287715e+02,3.526739096002430296e-01,-3.583787299598342746e-01,-8.643990972922496185e-01
1.201131552574194075e+03,2.894695274112154038e+03,2.944308945039933405e+03,-9.854592504234177541e-01,1.533620205805112935e-01,-7.314476330113062197e-02
2.639620172412136526e+03,1.693919340413022155e+03,2.165632201179864296e+03,3.897250047193816513e-01,9.017982998684295204e-01,-1.867464780146816938e-01
2.439937174510356726e+03,3.174898448149424439e+02,1.356289267630833365e+03,7.285065614508088316e-01,2.103682623181106492e-01,6.519381750843997736e-01
1.579720184937619933e+03,3.547283545464400163e+02,7.171268247972498102e+02,9.310545822747434697e-01,-3.453350703446375625e-01,1.178178849549897933e-01
1.968791108977409749e+03,1.450439706305935260e+03,1.287176024534374392e+03,4.393571594323720381e-02,2.449125565388608483e-01,-9.685491688676184374e-01
1.339454837747877946e+03,2.435451970205620455e+03,9.707829092776739799e+02,7.671786899910711943e-01,6.352682460263987529e-01,-8.871929448618855185e-02
2.227712987065956440e+03,1.250398543528984419e+03,1.670075136151602692e+03,-4.792273271098276832e-02,9.024647340610167934e-01,-4.280897282879958521e-01
6.317524886148526093e+02,3.818541583678656366e+02,1.276695790509443214e+03,8.490420720171462099e-01,3.635077065646601380e-01,3.833923671813668221e-01
2.400593329272965093e+03,2.264716913191864933e+03,5.731120586861941320e+02,4.502339519542223334e-01,2.298306271008172252e-01,8.628251684751251371e-01
1.284743755822819139e+03,4.069705699646950734e+02,1.502398815458851459e+03,-3.336148816033109310e-01,9.379034618989773309e-01,-9.506948475048405955e-02
8.567823080329984577e+02,2.172554453913539874e+03,2.240221759831197687e+03,2.220060576204763714e-01,8.356288671536153956e-01,5.024317931414962191e-01
1.770401408442030970e+03,2.590086209929535926e+03,1.672629186981968360e+03,-1.941459807532359971e-01,-1.729761901297678928e-01,-9.656016651837104892e-01
8.414887675706140158e+01,2.110306567042678978e+02,2.247907539538183755e+03,-6.577865934936709680e-01,5.449276116002186310e-01,-5.199718218669866499e-01
1.588553400546537887e+03,2.943818820548942767e+03,1.690734631316921877e+03,6.885501028761842335e-01,-6.376046465243134787e-01,3.454838209812456373e-01
1.801992729304431123e+03,2.797570088518341890e+03,1.282457909675096630e+02,5.555939647003412807e-01,-8.303461057014953628e-01,-4.290327650561499145e-02
1.941629286413024715e+02,6.024402626177030697e+02,4.607110664578410137e+02,-5.282041846977147959e-01,6.229110387611844768e-01,-5.770460787989852847e-01
2.081533755854978153e+03,5.267113491450686524e+02,1.241516867700421471e+03,1.049258504572288947e-01,4.629797743642514729e-01,8.801365203395743464e-01
1.505686259681516049e+03,2.922808773356913207e+03,2.548249451652509947e+02,-9.277589852628861378e-01,1.228241536078941154e-01,3.523882696039760121e-01
1.062859561518039754e+03,2.913974334923599145e+03,1.082044341515301312e+03,6.459453647739624715e-01,5.686867943509259504e-01,5.092640922526351366e-01
1.275237245487332530e+03,6.131645675831748576e+02,2.361144045708394515e+03,7.933946963226236326e-02,8.416666744701403191e-01,-5.341371150227685050e-01
1.344622520629902965e+03,1.703954803039219541e+03,2.070315057847099069e+03,7.657916983284588364e-01,-5.930742119438562332e-01,-2.486484544460083601e-01
2.427477702740313362e+03,3.355639279181235111e+02,2.180735649379210372e+03,4.711823864963273212e-01,8.801850753750062317e-01,5.710859604928475441e-02
1.230731987257765923e+03,1.669397776662852948e+03,3.008049971653213674e+02,2.216862465725087383e-01,4.702288192802030475e-01,8.542482458857840744e-01
1.332486666379316148e+03,1.278160175889694756e+03,1.943541417171377589e+03,6.834091025330292501e-02,-7.489698106657198817e-01,6.590703624781696357e-01
1.705098117017529376e+02,1.776310618208725600e+03,2.711162711287045113e+03,1.762884561484434620e-02,-7.372989813120965907e-01,6.753365353351117317e-01
2.896238174125962360e+03,2.411005775481170076e+03,3.201583127318132824e+02,8.752440261028140434e-01,-3.235410342767852665e-01,-3.595401144663061821e-01
1.813349247745327375e+02,8.227679746656436066e+01,2.827736702367790258e+03,-3.016271803752335057e-01,-9.244349099685370552e-01,2.333262550386243639e-01
2.743725693156003217e+03,4.999641356418799205e+02,1.259686026191966448e+03,3.995406599224985977e-01,-4.617178003641627115e-01,-7.919494516038088072e-01
2.419167553554754704e+03,1.404003871900783906e+03,6.839466784378270177e+02,7.438358135488264411e-01,-4.757272361041058328e-01,4.694591348678860410e-01
1.153899069640521702e+03,5.933157716998430260e+02,4.986009419297675436e+02,3.316880234207711942e-01,-7.605014407169201629e-01,-5.582298933116272011e-01
2.649826044782092140e+03,3.810954507389687933e+02,1.938654600277900272e+03,-7.381181288478025904e-01,6.356336262098752909e-01,-2.261670203577512694e-01
2.110698450501132811e+03,2.847384116228414769e+03,2.816400679761629249e+02,4.794240733277747579e-01,6.894894401020583430e-02,8.748706195967961285e-01
2.069306117855262528e+03,4.834257038508471283e+02,1.033534177984812004e+03,-4.634972216813090240e-01,-6.338485732928295091e-01,-6.191981198520810636e-01
7.867324435801486970e+02,1.067710265136045791e+03,1.466098831128613028e+03,9.995161519360141744e-01,-2.819264317870091852e-02,1.313913580191239383e-02
4.199090465169132926e+02,1.354993453863878813e+03,2.594491608393203933e+03,8.497250489929072392e-01,4.668641846535254714e-01,2.449595358458211969e-01
2.603575240308869638e+02,3.947419483259253639e+02,1.808239676353504365e+03,-6.226784992060611090e-01,3.471749608038547930e-01,-7.012424924498865675e-01
8.985799611844713297e+01,2.648812493285260189e+03,2.675032651938073741e+03,8.868903505497270912e-01,4.396009658963691002e-01,1.420439962996029593e-01
1.583785462232209738e+03,2.151540146306427232e+03,1.222564618227041109e+02,-6.676224511473413115e-01,-6.214744431183233386e-01,4.099387506381724222e-01
1.147595823985548350e+03,4.599149143831977540e+02,1.559832561062815785e+03,2.686793770433596462e-01,8.148638270918897586e-01,-5.136227561632673577e-01
1.838234841952995794e+03,2.183214827385146691e+03,1.238580624720371361e+03,-9.568731058885765473e-01,-2.378332962431803088e-01,1.668208093292102845e-01
1.311433733525617527e+02,6.803249585191517781e+02,7.245860315814869637e+02,7.888978493920557611e-01,2.592663332070576088e-01,5.571545132994581984e-01
6.503309727104963258e+02,2.799765851801947974e+03,2.262755950007170668e+03,-6.043859765739366674e-01,-7.966840576421916342e-01,-3.479025659890222933e-03
2.488414983338328966e+03,1.194965135890663532e+03,6.147338691394186299e+02,8.125686705220120931e-01,2.624489327944346528e-01,5.204351192619038891e-01
7.919477318604049287e+02,2.915948032413173678e+03,2.647013601824059151e+03,8.170736114111433190e-01,5.618100531007904630e-01,1.294611052418404018e-01
5.356048746604003554e+02,4.298478974639017451e+02,1.920351112658436705e+03,4.553330665162055868e-01,-5.544209986602978146e-01,-6.966269839601870739e-01
2.209172011007127367e+03,1.529454675664669878e+02,2.571374756415480078e+02,8.314219376422794794e-02,-7.906859005770642268e-01,6.065502306031287372e-01
4.562886418290649431e+02,2.467193551072180526e+03,1.924130801974451970e+03,-8.640275804157093731e-01,-3.375402524037036667e-01,3.735276673664469915e-01
2.870151589585268539e+03,4.750611109897809001e+02,1.210013368481916814e+03,-9.930483051085320367e-01,2.283206143217949083e-02,1.154719043396665867e-01
2.833883925799294957e+03,1.845431753587135290e+03,2.081239911428476717e+03,2.795149197023361620e-01,-6.322674459464971974e-01,7.225713019903916567e-01
2.451259652314434334e+03,2.745462991527065697e+03,1.542455052779143443e+03,-8.031249486117523206e-01,2.675937712075169284e-01,5.323381355194358733e-01
8.992452426284871763e+02,2.920596695235978132e+03,1.419126181508619311e+03,3.376264968787144327e-01,4.248600992529893428e-01,-8.399418102869671277e-01
2.962341026400277315e+03,9.167412644354892564e+02,2.221637076864475603e+03,-9.946021918098906234e-01,5.631196528711894522e-02,-8.715183654097002908e-02
1.176793837028353664e+03,1.756385810190768098e+03,6.174404160243185657e+01,1.941529075752784494e-01,-7.001133368570245930e-01,-6.871287827147016802e-01
1.353318994147645299e+03,3.904813017243654372e+02,1.755961055150975426e+03,2.118388327699446960e-01,-1.517807958746249797e-01,-9.654464764731045534e-01
1.046042145542963908e+03,2.594642742184786130e+03,2.656254820389015094e+03,-6.672041707536279231e-01,1.298183449838980624e-02,-7.447617515031368374e-01
7.609252858959584955e+02,2.517918612187867893e+03,1.001163372995520604e+03,-7.735361740845991818e-01,8.681044435931116465e-03,6.336926911761427972e-01
1.545143715281182040e+03,6.399275753293993603e+02,2.947408311275685264e+02,-4.022819480238166157e-01,7.598196301819161169e-01,-5.107282681469467178e-01
2.306995729197453784e+03,2.658352235698407640e+03,1.476569734570834498e+03,6.931154720298259297e-01,-6.446527233705803273e-01,3.225117186766484068e-01
1.716299498156474328e+03,2.614057723418152364e+03,1.903800887685596081e+03,8.044618343511441561e-01,4.832823182175685073e-01,-3.453684380059146020e-01
1.364769957422240623e+03,2.391320513628392291e+03,2.832310358328705206e+03,-1.844186975129224748e-01,9.389248803770697815e-01,2.905336693337665643e-01
7.533803397003903228e+02,4.418009430983353809e+02,1.887835927315490153e+03,8.256323735604938208e-02,-4.541498311623283768e-01,8.870914511438587891e-01
2.906922522463613404e+03,1.603049780186988073e+03,4.386306892009275202e+02,-3.016073461021299140e-01,4.715090747893743162e-01,8.286810008492400126e-01
1.012861816828951987e+03,6.959466656090909282e+02,1.873742459704330713e+03,5.285800646445115714e-01,-3.720320022409088767e-01,7.630172373996699786e-01
5.080310652118305939e+02,2.174055579942918939e+03,1.511148699936298044e+03,9.084427954823172113e-01,-1.579189832737118993e-01,3.870313708965591459e-01
8.414161179842775482e+02,1.264867581822157803e+02,2.106152343692712748e+03,1.030436965257880838e-01,-7.934811499053554540e-01,-5.998080204125119108e-01
1.650196024673945885e+03,5.288912820462770696e+02,2.235480952285860440e+03,8.085666086345468795e-01,4.347987377157738753e-01,3.964468401715381951e-01
3.701458299835813932e+02,1.493172470057010742e+03,8.314839514805617000e+02,-3.611920889208553725e-02,5.730442267259767686e-01,-8.187281093043266011e-01
4.609856318171976568e+02,2.552576958224919963e+03,1.394395108491624569e+03,-7.704150673319106746e-01,-2.585810363581773075e-01,-5.827490640609374051e-01
9.783196607283282447e+02,3.227423634400183516e+01,2.811346451807880840e+03,9.630687918572197193e-01,2.971517424697760201e-02,2.676107444968288118e-01
1.348588994776634991e+03,1.190676348712290746e+03,7.887299694313367127e+02,-7.569345450335498438e-01,4.156969981629148880e-01,5.042282223886267456e-01
1.186986079408273554e+03,8.826739281329854236e+01,3.869504134286506769e+02,-3.045681021311029690e-01,9.078469097670958110e-01,-2.881878893891842708e-01
2.191583902585785381e+03,2.806178776125137574e+03,1.393106172094093154e+03,8.726480484630072532e-01,-4.008329462756379802e-01,-2.789593746295267462e-01
2.504469274024082551e+03,3.312237916348387330e+02,1.265629793031413783e+03,2.714498152673695819e-02,-7.815300693934140730e-01,-6.232767448026907964e-01
2.968403694648595774e+03,2.083221002063022752e+03,2.034151997847491884e+03,-9.245095719543129364e-01,2.800735669591524202e-01,2.585359712992187919e-01
2.027178300087518210e+03,8.496519817105109951e+02,5.925636206253136606e+02,-7.083374585934516521e-01,6.041059112844403556e-01,3.651220244035768836e-01
6.656074562998242072e+02,1.557997316569303905e+02,8.383855297334325769e+02,-7.893536642332076303e-01,1.677782584614728456e-01,5.905685809025433830e-01
2.248858434800867144e+03,2.680967334203817245e+03,1.707035525464450302e+03,-7.875755026880576493e-01,1.292992294879105331e-01,-6.025002380244226519e-01
2.789371812307783330e+03,1.902928420437792056e+03,1.280235043244505505e+03,3.102894550998642753e-01,2.208730852562705016e-01,-9.246272407101174817e-01
2.055572083563170509e+03,2.991033698062992244e+03,1.643657385101367709e+03,-7.764389145267115433e-01,-2.358719948483210815e-01,-5.843860145955372953e-01
2.993670589862284032e+03,1.798460351678382665e+02,2.562381322491886522e+02,-3.524135140517512532e-01,-7.260760031884361254e-01,5.904391185444968215e-01
4.588230734312507479e+02,1.992218666948034297e+03,1.845484938076593153e+03,1.473670276989432759e-01,9.881967032827001507e-01,-4.183580725146773815e-02
2.875077188852750169e+03,2.548842324809821548e+03,2.297546209651708978e+03,3.757456451265531183e-01,-9.259757789730331534e-02,9.220850821567299072e-01
2.588843540031220982e+03,2.199089966633223412e+03,2.755929131801769017e+03,-4.007692208120207655e-01,6.418114805973872405e-01,6.538058236381161237e-01
9.328589789154573282e+02,2.237744588552114237e+03,1.407270476519067188e+03,-8.453426630403653164e-01,5.241832900865360800e-01,1.030905448519787715e-01
2.503419581999544334e+03,8.499535760116974643e+02,4.702536162084718399e+02,-4.888817444228648612e-01,-8.692205515013793349e-01,7.382596303262611848e-02
2.539418158892166048e+03,1.808614787953956125e+02,5.123974803727167000e+02,4.988322856763861557e-01,-6.879106761955885996e-02,-8.639642005214298592e-01
2.613456796277026228e+02,1.986182149059739857e+02,2.862555507911202312e+03,9.157988918526421829e-01,3.611706066093293699e-01,1.756934335794073654e-01
2.912426821944541189e+03,8.632209554087891092e+02,1.124193984707836989e+03,-7.195782728595901956e-01,2.867964572105228815e-01,6.324198774231419851e-01
1.827652978636888747e+03,1.708923087681267361e+03,2.522217401935999078e+03,-2.402966624894731229e-01,-1.085125322486876071e-01,9.646152312406215401e-01
1.276334898678070658e+03,6.454912046064504239e+02,3.209069154605115415e+01,7.530217550271874893e-01,-4.598829230680531732e-01,4.706016718267769239e-01
2.084101152474888295e+03,6.825929990166307562e+02,1.074078237073376386e+03,-4.061166974781835193e-01,-3.107472853407182711e-01,-8.593633414818133698e-01
4.598263398385022924e+02,1.834623618546509988e+03,2.521083910890873995e+03,3.623648266033726584e-01,-3.472529168330202309e-01,-8.649318725724397527e-01
8.705273688761062090e+01,1.115251259414233573e+03,3.785951086206007403e+02,2.739295472637215956e-01,5.707927772698445645e-01,-7.740531044782845704e-01
2.864144611653341599e+03,2.356654569745513072e+03,2.417622660946236977e+02,2.450491470364306312e-01,8.029676939462947471e-01,5.433174008029629798e-01
1.548245300243510428e+03,1.207128674768504652e+03,1.982058941163554437e+03,-8.065375227737638930e-01,1.136747686522684292e-01,-5.801510762980739422e-01
1.828069679090899399e+03,2.701650888544563259e+03,5.160977213948089002e+02,-8.719903295339237470e-01,-4.880493161720934614e-01,-3.795695171205371032e-02
5.782482395947316718e+02,1.330795471363923753e+03,2.388519193468715457e+03,8.525799173549267751e-01,5.203786833322293637e-01,-4.809896523296375986e-02
2.541065079320952123e+02,1.928073804278408488e+03,8.718743096926950784e+02,1.267467421095274105e-01,9.902600100990578413e-01,5.762270180436623868e-02
2.254975677216051281e+03,2.022474504799599117e+03,2.958832052369981739e+03,-6.664601569351631394e-01,-6.432763258104631232e-01,3.768639381391497012e-01
2.446788956602618782e+03,1.131973174975186112e+03,1.123384185072855644e+03,6.150221994631643874e-01,-5.103190855031725093e-01,-6.011007612195291561e-01
6.604322697157390394e+02,2.405219365912711510e+03,3.777281582311181864e+02,-1.232545884103064399e-01,-3.889816773330005417e-01,9.129630666872627920e-01
2.300924437466932886e+03,4.143564464933891145e+02,1.304396994810120304e+03,-3.242764501331069638e-01,7.626247230131609767e-01,-5.596859081111209555e-01
1.138532157275988538e+03,1.137930968525367916e+03,2.413174608393501330e+02,-8.657520157214096956e-01,4.728553434651029952e-01,-1.639550896764581100e-01
2.062041084200913247e+03,2.576391298047841701e+03,1.056276446106840240e+03,-3.018923216321719449e-01,-3.546855820263019599e-01,8.849063024084531381e-01
1.668612229647454569e+03,2.278347513533920392e+03,3.717397326604614705e+02,7.179331300607789679e-01,-6.005809294496450290e-01,-3.519581906171995733e-01
2.105056725176023065e+03,6.144064695002617782e+02,2.735523863305977102e+03,8.493611906353593088e-01,-4.440566656733558326e-01,2.853055301138522903e-01
4.235671739332488528e+02,2.524424680226876262e+03,2.181241388685198217e+03,-9.883509567678214758e-01,1.126760467364337215e-01,1.023058881393485997e-01
2.201021259863660191e+02,7.471725569986612072e+02,1.721767664582691168e+03,-3.623906898063885551e-01,-9.282018107283592778e-01,-8.434682271576643409e-02
2.377203610205398491e+03,2.655293778894053503e+03,1.105598262604431056e+03,1.594979368766369365e-01,-2.052890122977850396e-01,-9.656173308106561493e-01
2.624019296836584999e+03,9.802297193973556659e+02,2.490131302124296326e+03,2.601692530874024079e-01,-2.312508973921285349e-01,-9.374619897378657640e-01
2.238913723598755496e+03,6.776038094831459375e+02,1.357964012955681710e+03,-4.269806691198032023e-01,-7.576056906157940807e-01,-4.936811984920744245e-01
1.498410054316731930e+03,2.715493452863413040e+03,2.312916114829006347e+03,-2.365018264846197871e-01,-9.196492410662282513e-01,-3.135476988844747570e-01
1.317597245009503695e+03,2.434424848772548103e+03,1.609687202645209936e+03,4.910629778539001844e-01,-2.342635260173115686e-01,-8.390338206289400524e-01
1.821565202874623083e+03,1.740589053396689678e+03,7.140939379787313328e+02,-2.030336504077495385e-01,1.523081616990481224e-01,9.672536175595107810e-01
2.166028417095271834e+03,9.697590330387644144e+02,2.726120752709008684e+03,9.335302464092968266e-01,-6.585829314877976459e-02,3.523974521226381218e-01
3.408697008585616004e+02,1.337203988735240955e+03,2.446786336311183732e+03,9.371137485237182041e-01,-2.290929401674265398e-01,2.633139705622727367e-01
9.001648703748862772e+02,2.817061633962684482e+03,2.772025832486245235e+03,5.718812265088522029e-01,6.823666283345464212e-02,8.174934988194610952e-01
2.802631731153119745e+03,1.268621292797645992e+03,9.306859776733180070e+02,-2.723033719563163202e-01,-8.011225303229401185e-01,-5.329667579035206604e-01
2.308293908912548886e+03,4.320297887436775000e+02,6.038573728439174602e+02,-3.365247926841157811e-01,1.444319178306700466e-02,-9.415638364550915629e-01
1.424123915857592692e+03,2.695878081872388520e+03,5.416398274319424218e+02,7.997035631984715787e-01,-5.867597274813616259e-01,-1.272290580554080730e-01
1.201520169500469137e+03,9.415005109644237109e+02,7.895876243895392008e+02,-3.655380516860576856e-01,-8.727827016376242808e-01,-3.234691461201373297e-01
2.763873234768525435e+03,2.784654606221567974e+03,1.792693663948175526e+03,1.776016964082628991e-01,-9.093447407955026485e-01,3.762310192162088285e-01
1.238428515288583185e+03,1.718330518724122385e+03,2.950301677094412298e+03,-3.307268646080308017e-01,-9.091076713950086985e-01,2.532646497979658129e-01
2.062602709312868228e+03,1.311346047843021552e+03,1.191673338231006028e+03,8.034957647720650797e-01,2.357022243542274409e-01,5.466617029094169578e-01
2.108305916170373166e+03,8.952936000615237617e+02,7.316741690556405331e+01,2.269979263307571882e-01,-6.470533543484660033e-01,7.278694237759508745e-01
8.198237135268655038e+02,2.788241188008431436e+03,5.494029874335403747e+02,-8.893125262551998533e-01,-3.908141749139817378e-01,2.374605468954751331e-01
9.834054704013784658e+02,2.498240493696255271e+03,3.750934108579723443e+02,-1.343057563254432818e-01,-1.005749221911108465e-01,-9.858228283236813994e-01
7.734445323449909893e+02,2.273481250237355198e+03,2.682668285019313771e+03,-9.171901764933995116e-01,-1.769392753602274937e-01,3.570079452603320824e-01
1.706415487940078719e+03,2.101082084914306051e+03,8.819180424661065842e+01,-6.772576957742343362e-01,7.356895213534354605e-01,-9.107232583390524952e-03
1.640647842506925372e+03,8.348464460494947161e+02,1.943131824718536336e+03,-1.738611523239817769e-01,-8.007310629409124525e-01,-5.732382267034306089e-01
1.998711940938999305e+03,2.933143727529972693e+03,2.230311936836653786e+03,6.058044619505762451e-01,-6.514419019115615939e-01,-4.567542033902046161e-01
4.522612622563659670e+02,5.521689408112329147e+02,7.483788497029930795e+02,5.070964136979294601e-01,-8.307748150966163259e-01,-2.294916857227760065e-01
2.354334599331718437e+03,2.655646292113090681e+02,1.001062102723937073e+03,-8.669916452974534282e-01,3.403134743784723137e-01,3.640222879726839889e-01
2.749197372463786451e+02,1.252727292422973278e+03,1.446157550753063788e+03,2.912683423850380149e-01,7.198507254509977082e-01,-6.300616523737534447e-01
1.336468576001292945e+02,8.573272103160155666e+02,1.833176540121293328e+03,-1.271358158686202722e-01,5.741708873583987183e-01,8.088042262707888508e-01
2.634842432518438727e+03,2.291188827288761786e+03,2.725698923337129600e+03,8.768383594240832801e-01,7.174923539813843343e-02,4.754014500001706445e-01
2.504229422881716800e+03,1.876339734917666419e+03,1.052708453538334197e+03,-2.731961286941055889e-01,-9.479287209601965358e-01,-1.636918301117058494e-01
7.311156099147875693e+02,1.386931203635738484e+03,1.279528547790928542e+03,4.031552738838452971e-02,-8.659515446391867766e-01,4.985003315830420778e-01
2.081054817292197640e+03,9.957828216361477871e+02,1.829270160340657640e+03,-8.716820947152369436e-01,4.433486705452609478e-01,-2.088355383516092012e-01
1.876090869587726274e+03,2.192773748692795834e+03,1.944888418604932440e+03,1.350885619865893009e-03,-9.971494246527615735e-01,7.544004256831149391e-02
1.536820133558965381e+03,7.022595661235308739e+01,1.682118103256276754e+03,9.867877752496061472e-01,-4.690815669714308578e-02,1.550790490466367189e-01
3.905787970510443756e+02,2.720110303504425701e+03,1.745444331432587887e+03,-7.227408650014358615e-01,-5.610124920266021942e-01,-4.036218847474428717e-01
9.048362651309315652e+02,9.875429466346853360e+02,2.757984426224397339e+03,4.241138765424804502e-01,-7.951954198113293515e-01,-4.333493556418346326e-01
1.467748982858814543e+03,1.251583963103494625e+03,4.564073379044950798e+02,-7.759153778080492003e-01,6.307695519054760114e-01,-9.224904875239525737e-03
5.655804463473542683e+02,1.186030710937424146e+03,2.448543292742967878e+03,-5.172787926785730184e-01,8.504889948188690818e-01,9.534736670190535612e-02
1.369288205069257629e+03,2.894075104455326709e+03,6.614667335900896887e+02,8.162793473111561449e-01,-5.168929728536548751e-01,2.578947106238977938e-01
2.626576921694985685e+03,2.755664201163051985e+03,2.937806489778206469e+02,-7.847930257871962301e-01,2.280567937133826384e-01,-5.762725097702899868e-01
1.729141083859378341e+03,9.938075228690997847e+02,7.727316205048476832e+02,-1.512565877189275265e-01,-9.053229146891486057e-01,-3.968776446341757969e-01
3.778757334195526063e+00,5.500103817539215925e+02,3.254674059712914236e+00,9.517966627913266864e-01,2.971003204246476237e-01,-7.625294946994155831e-02
1.025416202786177791e+03,2.291721447300297314e+03,2.415034979246864623e+03,-3.882587842989073112e-01,8.924053583838563730e-01,-2.299299735626383623e-01
1.295323630785486330e+03,1.496171734074750248e+03,1.507583944758150210e+03,-1.485887928291050319e-01,-9.425929204137928341e-01,2.990651384420901504e-01
6.270767364054114523e+02,6.860734911530595355e+02,2.500899573140184657e+03,-7.685828610185558851e-01,-6.370209834985169906e-01,-5.903094384399998340e-02
1.950414351416101454e+03,7.531603550405483247e+02,6.433440301490131787e+02,-6.528933425540519586e-01,7.279429416991176627e-01,2.093546199132765295e-01
9.155531665095073777e+02,2.374974549675705475e+03,2.800637677035350066e+02,3.343284686361781555e-01,3.717082301693078183e-01,8.660585815542669597e-01
4.298479722484746048e+02,1.292660936021430189e+03,1.711392287414944349e+03,-6.936711912301822824e-01,-6.207128131365080570e-01,3.654256176918396215e-01
3.219846572643195941e+02,3.832532458162125408e+02,2.175582363721503043e+03,2.781721058588583761e-01,-8.802586593535295378e-01,-3.844020969703146329e-01
2.610372815176395761e+03,1.015358380199311910e+03,2.837210168070630061e+03,2.401693875624719698e-01,5.395526160700629958e-01,-8.069706560772940129e-01
2.322332808603138801e+03,2.360445745412547240e+03,2.443935643550996701e+03,6.016906926874618922e-01,-2.560194690392696426e-01,-7.565859778016857939e-01
2.981840925522206362e+03,1.222665847497387858e+03,7.100438592690952646e+02,8.102212023132056018e-01,-5.352831628693989208e-01,-2.387750800872579238e-01
1.174424088564584281e+03,2.448084469810813061e+03,2.255752051813751962e+02,7.508069297422285127e-01,6.175722634292325486e-01,2.342935203840321723e-01
1.712259508530323046e+03,2.547368180136993033e+03,2.602609168962424064e+03,7.427795647354240582e-02,-9.554444796631511583e-01,-2.856722448249477964e-01
2.748579997814419585e+03,1.912467645736489203e+03,1.389659339326358122e+03,-4.025347323579469005e-01,-8.623506119799813074e-01,3.071110731694117746e-01
3.373872108157631828e+02,1.009372201858127028e+03,1.018821149551789972e+03,3.349863403827524899e-01,2.350735299560790248e-01,-9.124278531867378028e-01
7.811658196564636683e+02,1.461416893234136580e+02,2.253537404986271213e+03,-7.914454154011949516e-01,1.485700677901336808e-01,5.929090060011443786e-01
1.988437660622558724e+03,1.459583460735015251e+03,1.509346596719259651e+03,4.683377928976847904e-01,-8.819294794424615835e-01,-5.347994983238035793e-02
4.140294178486457781e+02,5.672451681144594886e+02,2.646669460900053764e+03,5.805614530077403135e-01,-6.104946024484319000e-01,5.387436678633656939e-01
2.160306923519621705e+03,3.553396303370718101e+02,2.017411327407578483e+03,-6.137968825704571973e-02,-9.103600494854410252e-01,-4.092396781475780010e-01
6.583393026905428087e+02,1.515349691668971218e+03,1.078627146093163446e+03,4.348703989590063657e-01,-2.975170809310985764e-01,8.499243040785884329e-01
9.577225651229283585e+02,2.695026476134864879e+03,3.236429029417062679e+02,-8.893818584450163822e-01,-6.998962743841202760e-02,4.517757872218488568e-01
2.226531225146990892e+03,7.901798000631459900e+02,9.384869400527675225e+02,6.364449126266437107e-01,7.042987423490314480e-01,-3.144855397585657464e-01
2.274177984203144206e+03,2.848063625473650518e+03,1.202882308371820955e+03,-3.330530848477497585e-01,7.181250194878201487e-01,-6.110418144930962470e-01
2.416570682017789750e+03,8.861017954221765649e+02,1.243513503185719856e+03,-7.020819958959533258e-01,-4.729504350496516740e-01,-5.323520987326899601e-01
2.320079696079913134e+01,7.897203367423330747e+02,1.439379764091121160e+03,8.564926588646977201e-01,5.061604169467809333e-01,-1.011036973959971164e-01
3.438577032398117694e+02,1.081152445230620515e+03,5.247577293047874036e+02,-2.310824496516643012e-01,1.311953665379433920e-01,-9.640480679208691672e-01
1.791307712252180863e+03,9.910032201644005454e+02,2.135079149437014621e+03,9.811689840392257694e-03,9.335659561488174329e-01,-3.582713165499300523e-01
2.131400092644161305e+03,3.501966231838406998e+02,1.288223185173008460e+03,1.455871907476803673e-01,6.320529656566032939e-01,7.611264142669673660e-01
1.924448949659175241e+03,1.284868741301317868e+03,1.663939711634718833e+03,8.378033203006891583e-01,4.051882282546506731e-01,-3.659345517671130921e-01
2.021027406522503952e+03,2.108745123663279628e+03,2.571943185655908565e+03,8.914854017883276915e-01,4.529039180169526779e-01,-1.148126487794232098e-02
1.781724018391540994e+03,1.250994803879002347e+03,2.597272648777315680e+03,-8.043759700039453397e-01,-2.016060541069148448e-01,5.588687661944007345e-01
1.120131489952244920e+03,6.977512815861313129e+02,1.789821908278117007e+03,4.587461920289425121e-01,-4.832131222539177151e-01,-7.456923023476673684e-01
1.531776899287354354e+03,2.878551906419950228e+03,8.570279066067972735e+02,1.049537296500343414e-01,6.193713489972860753e-01,7.780513136508605543e-01
2.290332028481982718e+02,2.191162285262716978e+03,1.916715570970799547e+02,-9.161706972312368968e-01,-2.747304375343656568e-01,-2.918123373454337699e-01
1.483842810497866139e+03,1.248605220716492070e+01,2.153296174045045973e+03,9.772181259428038835e-01,-4.660703204102980418e-02,2.070568011275184528e-01
4.572333358857134726e+02,4.254985323357796005e+02,1.359372771082302506e+03,-2.605923305400771883e-01,4.482827811775640936e-01,-8.550638487056971826e-01
1.101553894281953262e+03,1.278110943960183931e+03,1.198877550386818029e+03,-4.590490418463991640e-01,5.210010708779905242e-01,-7.196053510945357168e-01
2.500701629190767108e+03,2.379083378166495095e+03,1.652821954568017418e+03,2.402635927413250549e-01,3.715756557176050912e-01,8.967747421069922620e-01
1.394240157436786944e+02,9.669340409564607626e+02,1.569695897496106682e+03,4.213984282526862524e-01,-7.615582811937032792e-01,4.923945054643257269e-01
3.674116300190386255e+02,1.825681539579974924e+03,1.557645650401410421e+03,1.929821983567431565e-01,9.236450332312091671e-01,-3.311158765518760760e-01
4.233817704612324633e+02,7.093400091938037804e+02,1.103417729951143656e+03,-2.221430055230919076e-01,2.690839399335976934e-01,9.371479703691298901e-01
4.173164579024651744e+02,4.312635075883436571e+02,2.277994795692560729e+03,-8.064432613552231510e-01,-2.763547610978651647e-01,5.227593253432147868e-01
2.687455295859184389e+03,1.153893360061305657e+03,1.404004110664512609e+03,2.896054696111549087e-01,8.898873379650679150e-01,-3.524616258555639536e-01
1.218405290922352378e+03,2.280399829531455907e+03,1.093314073066399033e+03,1.910528048877332616e-02,-8.310112030052001497e-01,-5.559274851428874786e-01
7.954483444841469009e+02,1.079933944326218125e+03,2.584484476863161490e+03,3.632154789752928825e-01,8.140861448856115956e-01,-4.531426536291101037e-01
2.679005922253347762e+03,1.349340730790405360e+03,6.963491299083391368e+02,2.092447569286113307e-01,8.954399559346094550e-01,-3.929426383248720289e-01
7.764122185625498105e+02,1.322228228828673082e+03,1.144543760548422107e+01,-3.520958727439624236e-01,4.186806142105017892e-01,8.370991815077735154e-01
8.531095896828278455e+02,1.785294695419397158e+03,1.269440561879798679e+03,2.613149512749125478e-02,9.406068184076026018e-02,-9.952234588744646171e-01
2.020718173791575282e+03,1.012697446559526270e+03,2.856433669239062056e+03,3.011183574746022495e-01,7.350463019410321541e-01,-6.074822374313595397e-01
1.267388095543983354e+03,2.824594597076230912e+03,2.917368256676134479e+03,-1.096428493068218463e-01,8.200341236777747289e-01,5.617138787673897626e-01
2.141789078849850284e+03,1.268975971402908499e+03,1.500429168809633893e+03,-2.759355594708265969e-01,5.038771569958038210e-01,-8.185153496895143377e-01
2.058020069857755630e+02,1.897049975426426954e+03,2.114158920533187484e+03,1.842210470746744044e-01,8.786072605502320831e-01,4.405813063704895338e-01
1.097156827726465508e+03,2.466943730390018118e+03,2.450696020888884050e+03,-1.371398489059798831e-01,6.519753481130130535e-01,7.457350784929996923e-01
1.930553288301663088e+03,3.471337085787783394e+02,2.161730284895345449e+03,3.258069729732074316e-01,-7.090791841863750555e-01,-6.253451262427975887e-01
2.215961788509136113e+03,3.842751557661744641e+02,2.161222600978298658e+02,3.044099913088552656e-01,5.204946470246011314e-01,-7.977592867589060610e-01
8.847250404038921943e+02,1.864827996241869187e+03,4.673085148490386587e+02,-9.329028464763060580e-01,3.505627258509851352e-01,-8.245031400991065240e-02
2.102041162059317230e+03,5.319008204803816398e+02,1.928582899944509848e+02,1.672931511527404602e-01,-7.038496598199793508e-02,-9.833915589128774393e-01
3.779709173547389582e+02,1.774714034612728710e+03,1.019484626765645459e+02,4.334622397078461420e-01,-1.452741663146967788e-01,8.893851265616192769e-01
1.426974331735806345e+03,1.390502221074232693e+03,1.650379117557071822e+03,4.574855982870065785e-01,-1.058782462416563014e-01,8.828911169180324592e-01
2.170105326813215015e+03,2.164383315075643168e+03,9.847095731260324101e+02,2.017394673388160364e-01,6.001152765434101255e-01,7.740560975646901820e-01
3.025088128896263697e+02,2.726682204134845961e+03,1.413136098904005166e+03,3.765024470569741655e-01,-6.258463399294618146e-01,6.830536334410401977e-01
7.237347457740638674e+02,1.470178418372312308e+03,9.809975504641989801e+02,7.139056198885234128e-01,5.169046492758595512e-01,4.723858057230170826e-01
7.511115216693797265e+02,2.697156504142758422e+03,1.981228403830052002e+03,-6.925021274551931283e-01,-6.429663515237207250e-01,3.271621528818799973e-01
2.410096680297046987e+03,1.772651519664077000e+02,2.069274384423777065e+03,-7.441091407999324003e-01,-4.428290207500926862e-02,6.665887871557707456e-01
2.127155642774444459e+03,1.377133165258506324e+03,1.206194564454895726e+03,8.203114282757215658e-01,-4.958294359347281133e-01,2.850304038184261479e-01
4.429007829865204826e+02,4.625453458903636488e+02,5.227672488892372940e+02,5.490772011239742900e-01,3.006316930689758027e-01,-7.798299893748277256e-01
2.901498303753320670e+03,1.213714913537828863e+02,2.659046255496129106e+03,4.735513102225142323e-01,5.636315417025821173e-01,6.768076844898487376e-01
1.519878581590011436e+03,2.238733285030806655e+03,2.808875204926589049e+03,-2.053663718792894943e-01,-7.486374422704571152e-02,-9.758176433644991654e-01
2.922861996008241931e+03,6.404797021199516394e+02,1.136168450437269485e+03,-9.588252553131839662e-01,2.538779373454244093e-01,-1.272797026349463678e-01
2.112410242634333827e+03,8.974025076699604142e+02,8.225436698711232566e+02,-9.918057351893889706e-01,1.220367223294781533e-01,3.779447113684298448e-02
1.206751017034253891e+03,2.580773637770672849e+03,2.043424255788058872e+02,7.330081165222488426e-01,2.055491523968126233e-01,-6.484201161758147425e-01
1.532119304786466273e+03,1.828525760531774267e+03,1.159198488419144041e+03,-8.347503449738175041e-01,5.112161910694810185e-01,2.045724017420351704e-01
2.833448314850374572e+03,2.521620889637907567e+03,2.656581916926312715e+03,-2.368388652736991284e-01,-6.376201795532665528e-01,7.330401479607557835e-01
1.598755459474661166e+03,2.391437612813481337e+03,1.459632791533842465e+03,2.388741935717965670e-01,-9.674234978292886034e-01,8.385043525926640096e-02
4.768110065615582585e+02,4.600192282252769473e+02,1.009818192088662840e+03,-1.798924356226649576e-02,-7.683567646710756094e-01,-6.397689186731838618e-01
1.284050670983973760e+03,8.227672775602181900e+02,1.235296204688347643e+03,-8.533099741750529432e-01,5.161469155122229147e-01,-7.385424551499288059e-02
2.018286509913806185e+03,2.549840740063412341e+03,2.090537544935325514e+03,1.954155779507694979e-01,8.710127933780840159e-01,4.507210508350745215e-01
6.705136736126246433e+02,2.826491744848982307e+03,7.061642507529209070e+02,-2.688504745221161341e-01,6.266456069613983715e-01,-7.314606658086365565e-01
1.373949399101180461e+03,7.829862772098667847e+02,1.373894034467561596e+03,-5.450574439794475534e-01,-3.944615178180632120e-01,-7.398057134973081705e-01
2.977266406646379437e+03,4.084331264272532849e+02,3.745514940694238817e+02,-9.136840305406462859e-01,-4.982670539603887422e-03,4.063947161680292464e-01
1.329238127666756327e+03,6.576290766479945660e+02,3.931922875179869834e+02,2.122708567031712512e-01,3.003187837816684858e-01,9.299191962221240448e-01
1.660383013522171893e+02,5.647470771629597266e+02,1.737551002927417358e+03,6.190293564162221429e-01,-1.772263843461891961e-02,7.851678572011424606e-01
1.506833734397108401e+03,2.729881151153404062e+03,4.099240010129798861e+02,9.068645833399963108e-01,3.126577466389190429e-01,2.825628442492897907e-01
1.310861543584041556e+03,2.923508941760104790e+03,2.174637011095341222e+03,9.184205789685252475e-01,2.729889164933118062e-01,2.863227053499715069e-01
2.852211551858511484e+03,1.671936512635303700e+02,1.157505229806820580e+03,7.658728914160202184e-01,4.510341045110626834e-01,-4.582651533358921281e-01
1.607788135867098731e+02,5.624493025041768988e+02,1.284490962735956373e+03,-5.233765535345306086e-01,-5.545930374592096257e-01,-6.469185002858430789e-01
1.073590898401718050e+03,2.111226285048363138e+02,2.024854994417668195e+03,3.180117757826008695e-01,4.305813605431946245e-01,-8.446704697196227851e-01
2.156583288860561879e+03,1.297626128438539126e+03,1.580146117303412723e+02,-1.881593204651146323e-01,1.615812934419013081e-01,9.687556739094478342e-01
2.929479525293723441e+02,9.979644415315329979e+02,2.758445718874246722e+03,-2.314420546417377683e-02,-8.780303514973736290e-01,-4.780450267525338526e-01
2.926140079492890891e+03,1.580496442896697545e+03,1.600706920589681204e+03,-1.191274122741568520e-01,1.362757739622097453e-01,9.834823704957114110e-01
8.903947637009229084e+02,2.936713158398311862e+03,6.836773457594181309e+02,-8.779815024823266478e-01,-3.693139986402720898e-01,-3.045581253344087358e-01
2.354067860000521250e+03,7.447933919004057088e+02,8.211352996255930066e+02,-4.684991309016736660e-01,-4.577795303925415449e-01,7.556099958960049712e-01
2.012439457903794619e+03,2.799846214659813540e+03,2.363180242195924166e+03,-4.082340434755173386e-01,-1.314976599077062880e-01,-9.033567020764425859e-01
9.243455595773199320e+02,1.975474158334294998e+03,1.016940469750988996e+03,-2.183381793091530854e-01,-9.397466336809811027e-01,2.630678694581078947e-01
1.566231712507220664e+03,3.454513127079665651e+02,2.208710860867271094e+03,1.768224918734578877e-01,-3.477193615102464053e-01,9.207741590632132489e-01
2.211110922345229028e+03,2.595001367504832160e+03,1.831577308274410143e+03,1.045919391192360187e-01,-3.679270029850426060e-01,-9.239535955586311022e-01
2.415558866255955309e+03,1.574987321659835402e+02,1.532753038708914801e+03,-7.144569571892833704e-01,1.547599060309061414e-01,-6.823493444044155254e-01
1.950439362950156976e+02,1.476711632710382219e+03,1.111883828427625303e+03,5.676389100151465472e-01,2.864029781474591863e-01,7.718545212312242221e-01
1.300174551855152686e+03,1.497240717287453435e+03,3.024721788395942212e+02,3.900519562734409695e-01,-1.775336777340323913e-01,9.035160566793987158e-01
2.135373502003840258e+03,2.419995848956593363e+03,2.744670428966519921e+03,6.482539027012627075e-01,3.163648882759880765e-01,6.925894419486218201e-01
6.001618880441585588e+02,2.960492169170378929e+03,4.812105178303239654e+02,-3.473556245223465844e-01,-6.820828372987632233e-03,-9.377086681976427585e-01
1.730453842411089227e+03,7.525260236276798196e+02,8.811541173115449510e+02,-6.263852265686474796e-01,-2.659120361682684730e-01,7.327566696778609057e-01
1.608434476538719196e+02,7.128895468891581686e+02,2.374658849375687623e+03,8.970112288960838121e-02,3.527242287681180977e-01,-9.314179121062036160e-01
1.566538560394158367e+03,8.800876243503593059e+02,2.208432887655071681e+03,1.688973097396929413e-01,4.816683010467773252e-01,8.599240353248682744e-01
1.339357612966237184e+03,2.446838573792797888e+03,1.785829043864547884e+03,-4.493741683160165090e-01,8.374915695264801840e-01,-3.109191660582560357e-01
1.430965602007648158e+03,1.689398855310184899e+03,2.116925865258276190e+03,9.954764219213808607e-01,-8.881615402139717008e-02,-3.373994936944368916e-02
1.323004549659899112e+03,7.045126574578631562e+02,7.259586103455895056e+01,2.640725738312369453e-01,9.245967101970569146e-01,2.745662019312018476e-01
2.858566822130585479e+03,5.887934547521643935e+02,1.875032795092449760e+03,-6.712505117252646203e-01,2.344705034672489308e-01,7.031687802458135295e-01
2.837420202071306448e+03,1.793111105188186684e+03,5.957535150775656803e+02,1.112530665834444155e-01,-6.120724375256136884e-01,-7.829368342320046636e-01
1.637427401468236667e+03,2.316754843552826969e+03,1.492234629703957864e+02,-7.728176080375840362e-01,-1.151479427046921272e-01,6.240944607973573088e-01
5.048437399839704653e+02,1.889394681166564169e+03,1.127075947270620190e+03,3.054241498205026994e-01,6.334462210886889766e-01,-7.109584894316143266e-01
2.499135309381194929e+03,5.375612968579771405e+02,2.792992598199706208e+03,-2.157732160841838442e-01,9.481818998350552974e-01,-2.332230778586741327e-01
1.494378637661734047e+03,1.583754014838148350e+03,1.199917413782315634e+03,1.301784473525016694e-01,1.589562547103118978e-02,-9.913631529040085599e-01
2.731427783401073611e+03,4.159311802868166410e+02,5.552322683276913722e+02,8.746366730167407511e-01,-1.863124035406024392e-01,-4.475470684756304163e-01
