x,y,z,nx,ny,nz
2.377140675811581787e+03,2.385737592539068828e+03,2.616728128026504692e+03,6.230140223760003426e-01,6.883677646129928718e-01,-3.714880194092238241e-01
1.702390013003718650e+03,1.243961780402612931e+03,1.759250315579124049e+02,-6.505783109081129945e-02,1.477261307223266817e-01,-9.868862492281313958e-01
1.427170881931108397e+03,2.770835594106595181e+03,1.250053458181985661e+03,5.101560706594870931e-01,-7.481762991680932506e-01,-4.242322582411766629e-01
2.746752067349955269e+03,2.590235529852667696e+03,1.916457564504319635e+03,4.777405318567325976e-01,7.255287576478801626e-01,4.953503871474915776e-01
9.811118515987376441e+02,1.466034160685779852e+03,6.761563742937183861e+02,-5.052064896600184651e-01,3.138255952908829971e-01,8.039153553364462024e-01
2.164208258802794262e+03,3.665904387681147227e+02,1.509195145653299278e+03,-3.436658264485465408e-01,-6.997485002802333875e-01,6.262953265728570251e-01
2.131996189998591490e+03,2.803318796038444361e+03,2.684328715054024087e+03,-8.835049949937293090e-02,8.703352335906074932e-01,4.844695763502533392e-01
1.675253763370590150e+03,1.143146690569243901e+03,1.367240586187456529e+03,6.429594590273169930e-01,4.919077297284208949e-01,5.870518882353849000e-01
2.113857198633115786e+03,2.594183605128976069e+03,2.345040161828620512e+03,9.268243035574174060e-01,-3.501435641012500821e-01,-1.356325729822380755e-01
1.387452695686570792e+02,2.906346907944097211e+02,6.022098657662342021e+02,1.645955578961774690e-01,9.832594515365877808e-01,7.816107269488292708e-02
2.801606172841686515e+01,2.237702786384022147e+03,2.907023466726105653e+03,-6.304135494912809223e-01,-6.210991288152187817e-01,-4.656335778300149109e-01
9.808722537889021851e+02,1.299379715738512914e+03,2.203226538344364599e+03,4.181815810747778750e-01,5.300221010525648646e-01,-7.376996256238874672e-01
6.852271554349255211e+02,9.209591813399980538e+02,4.501970546577146592e+02,5.104824536142017477e-01,-2.976538117732606681e-01,-8.067278803220281347e-01
1.697898770205269784e+03,1.641596295217196939e+03,1.351072644456932949e+03,-4.259344072686561122e-01,7.569146058437792313e-01,4.956411606848801221e-01
2.040996669212622407e+02,1.724668778175242778e+03,1.017157730855221189e+03,-3.265042891400932734e-01,9.051532934738052427e-01,-2.721993102244122942e-01
7.032237886015451522e+02,8.829185990712578587e+02,8.564837716348582717e+02,-1.136886671899722950e-01,1.186252755853407920e-01,-9.864091093176652336e-01
2.623128637561218511e+03,2.165467894210282338e+03,1.785921313582018001e+03,7.097660276325156170e-01,-5.082574317326873370e-01,4.877566699772046821e-01
1.772268951385583250e+03,3.727777308763531323e+02,1.213747954566563294e+03,-7.883676942625059691e-01,-5.945949715860355811e-01,1.579024965218143173e-01
6.165009632265755499e+02,1.989453982689001577e+03,7.692874219843512265e+02,9.711016060696519014e-01,-1.729416599759603379e-01,-1.644775149791060376e-01
1.086069496126620379e+03,1.318705345394829692e+03,1.220033696674699399e+02,-7.180717231912444598e-01,-6.657484617218145662e-01,-2.028595229911436260e-01
2.620238183366330304e+03,1.923559673445530507e+03,1.670867834037992907e+03,9.169922757557783521e-01,2.828403702344826076e-01,2.812943141442061368e-01
4.551162528584002871e+02,1.255340660206278471e+03,8.857544104310737794e+02,-9.196217617263698907e-01,-3.611731169732626534e-01,1.544337881912689614e-01
2.920888391943180068e+03,2.253814917238401449e+03,2.669524088802677852e+03,-8.079725721767710978e-01,-5.824322448999385005e-01,-8.917960927740420374e-02
9.127654963200038765e+02,1.576411712253277756e+03,5.729019267839778422e+02,-8.185117117800571052e-01,-5.556330310697071839e-02,-5.717965521290973019e-01
1.336461326024943901e+03,2.990102014060744295e+03,2.468048943449718536e+03,-3.083546279068313245e-01,-4.592351882384865247e-01,-8.330789070262201168e-01
3.538675567873169712e+02,1.046031788377838438e+03,2.031500453797472119e+03,9.571201337453376645e-01,2.713169496345285148e-01,1.015291210457454213e-01
1.432785070830016593e+03,2.570328674605195374e+03,5.629620346649342082e+02,-5.511883302571352061e-01,-5.549279006442271733e-02,-8.325334676991773541e-01
4.168319696954236520e+01,1.180637690722989817e+02,2.808985071940741705e+02,1.777277253313211403e-01,3.528514501122562708e-01,-9.186450401554631107e-01
1.430257859899528512e+03,2.939309198584827300e+03,2.122114020490245423e+02,-5.973681520705611536e-01,-3.212075715854182389e-01,7.348312642015183416e-01
1.671408310594048032e+02,2.974605642648111825e+02,2.589284153240862906e+03,-9.239261994453340510e-01,-3.557312655119281852e-01,1.407680528947627963e-01
1.926758412349318178e+03,2.542993444312752217e+03,2.988378573297101866e+03,-3.729429031763468183e-01,9.181140183111174968e-01,-1.340904185652767311e-01
6.840752889330209427e+02,6.782957542006424774e+02,1.300930825995596706e+03,-4.943558152933832384e-01,-7.870152524023493745e-01,3.690790164337180990e-01
6.504440642115715718e+02,2.186119136198465185e+03,2.385761482257270472e+03,-9.693340407278687731e-01,2.123869036008619315e-01,1.236257281678074804e-01
1.393585531312139381e+02,1.391496443318731508e+03,1.962906240675655226e+03,-6.618003565320214054e-01,4.811463473559319803e-01,-5.749073669036901535e-01
2.864711869956588089e+03,2.632335385743095685e+03,2.622148944385543473e+03,1.709252256004727133e-02,-1.151497501872270485e-01,9.932010776798188001e-01
2.519662021995396572e+03,4.987447456080734582e+02,2.667261239069430758e+03,-2.235155360179799933e-01,9.196819428675224728e-01,-3.228404081307267859e-01
1.818346394220573643e+02,2.721264523810394167e+03,1.143212095096097073e+03,-1.998776104772943818e-01,-7.897391868231729006e-01,5.799663418042124707e-01
1.597878500670928588e+03,1.400026531335450954e+03,1.936193796405267676e+03,8.219777502841202343e-02,9.200196848919622861e-01,3.831544142922969631e-01
2.809851504557257158e+03,2.445292942915670210e+03,2.191829006505387952e+03,7.647809847889714963e-01,3.344148094592064302e-02,6.434218776645339588e-01
1.025937604549110802e+03,2.200554401716078701e+03,2.935119867556923509e+03,-8.772161845110452161e-01,1.164620098587982183e-01,4.657556933538580246e-01
1.133097420193366361e+03,1.925071897466895280e+03,4.513410556293950826e+00,-2.133250422899709564e-01,7.370557776449438991e-01,-6.412809111241259963e-01
1.379461520919515578e+03,2.390156276862350296e+03,8.395367519193076760e+02,-5.457828218724093405e-01,-7.372720885580485994e-02,-8.346768296911819540e-01
1.202275414466159418e+03,7.715732455255507602e+02,2.329024496353204540e+03,9.718200481351463305e-01,4.612567778372387434e-02,2.311670735455073900e-01
1.466755597263344725e+03,9.120656126043411405e+02,1.995231152945083750e+03,-8.797665808041591484e-01,2.051195970327318319e-01,-4.288784375709376318e-01
3.656460815282263184e+02,1.401669379293310158e+03,2.205617230297596507e+03,3.859652259998689883e-01,5.218603534131551619e-02,9.210360807450623799e-01
2.817438059810005598e+03,2.957453461088154654e+03,2.813494905056712469e+03,5.061253665777691868e-01,-4.404759240371969864e-01,-7.414971838450207242e-01
1.081549070979623139e+03,1.083485815444335913e+03,8.393561768118128157e+02,-9.221923103987957893e-01,-2.554096948634633768e-01,-2.903915122917397618e-01
1.118609013333582197e+03,1.749656643000417489e+03,4.027482299391763831e+02,-3.296456957924243647e-01,7.919046218987124686e-01,-5.140241094160717950e-01
2.423072385905986721e+03,7.901924184783607643e+02,1.231803027586589678e+03,-3.310864240949737969e-01,9.244430085520586315e-01,-1.891742681212793820e-01
2.680678122215545500e+03,2.044184543629048903e+03,8.006743857762184007e+02,4.134582230349073684e-01,4.057118439577684366e-01,-8.151381462532618638e-01
1.471304365965275736e+02,4.354405918710584160e+02,1.425088642711026068e+03,-4.481685450302877460e-01,1.970603906834283436e-01,8.719588050298761051e-01
1.710915222358911478e+03,2.928732556763473440e+03,5.346336213726050346e+02,-5.180336326958526749e-01,7.091940438990792517e-01,4.782101666568885356e-01
1.058435205319800843e+03,2.936349547576717669e+03,2.581114340970425474e+03,9.661606857015350158e-01,1.682964960740750970e-01,1.954733199542293409e-01
1.695353264632319963e+02,2.377385284752212101e+03,2.218532518781429701e+02,8.070041881682981089e-01,1.432068683439782220e-01,5.729188713403814415e-01
8.927501599216059276e+02,1.693819471105060984e+03,1.686183731959742317e+03,-4.109537652150330178e-01,-4.804154174837872437e-01,7.748019292047909623e-01
8.098437877315933520e+01,2.285947493862966894e+03,1.606706393450495852e+03,-8.471920246819290012e-01,5.074795569079251223e-01,1.572582991001423292e-01
1.216894134170028110e+03,1.337077216425565211e+03,1.778218908026375175e+03,9.317263431576083832e-01,3.628382496242310573e-01,-1.531097892934752021e-02
2.565412920036138985e+03,1.137256883484386208e+03,1.639574528158455223e+03,-4.011023018481268965e-01,2.993262647971224322e-01,8.657486532791933698e-01
9.145882855678988221e+01,2.237398566705500343e+03,2.391019833189912333e+03,4.115340805110541678e-01,6.750495889500884861e-01,-6.123297747425302529e-01
1.439075135573511943e+03,1.759627807271943084e+03,3.968132906436925396e+02,8.112967621234531412e-01,3.797292761301594433e-01,-4.445258604599582331e-01
2.149133032683296278e+03,7.920586657304895084e+01,1.618950966298487174e+03,6.202678097294666015e-01,-6.731429842502199001e-01,-4.026740207265904758e-01
2.992643203634685506e+03,1.683227671857797304e+03,1.686293438880549957e+03,-1.379026399973146133e-02,9.439547788222742986e-01,-3.297866039690042772e-01
6.815260634882158683e+02,2.126280227632148012e+02,1.275153699852231739e+03,-1.036651008500065196e-01,-6.079667166980280424e-01,-7.871658136969478248e-01
1.471084976098554307e+03,5.867498467496205876e+02,2.042479526729021245e+03,1.386175728092975956e-01,7.368862943957213973e-01,6.616522936106254971e-01
7.527129253763512224e+02,1.882908906712742464e+03,9.324504817123255407e+02,4.453062313771543601e-01,-5.912394528002967720e-01,6.724122766198441514e-01
1.096003476059801642e+03,4.968771517286263162e+01,1.649036245124221523e+03,5.487997404994187089e-01,4.697909709439940240e-01,-6.914588118227071867e-01
5.378514222460503333e+02,4.677924328952822748e+02,1.064711377087802475e+02,-1.431419004000091255e-01,-2.203318035513232576e-01,9.648649090384078253e-01
1.874564350998096813e+02,1.417359260575865676e+02,2.414857304119986111e+03,7.681073537905984683e-01,6.214171381301623054e-01,-1.544403881467641959e-01
2.040583598151529714e+03,1.281702427288999615e+03,2.904248698895437428e+02,9.380453205508126890e-01,2.709673825365883637e-01,-2.159806801405930177e-01
1.509239095342784367e+03,1.372437858803954441e+03,2.305903812828716582e+03,-7.321785722471880753e-01,-4.626908614723948543e-02,-6.795393366164821369e-01
5.681087715979663244e+02,1.229695811127212437e+03,4.375877497872419326e+02,-9.532057179599170427e-01,2.754269001524058402e-01,1.246550517265787583e-01
2.009984714491225077e+03,3.094267085577776584e+02,1.821320566243618941e+03,-9.872157409767988723e-01,-3.920060982189948681e-03,-1.593415008386891429e-01
5.571542969252778903e+02,1.078603485959423324e+03,1.441139390106318615e+03,-2.156411067126750014e-01,9.491039970408838844e-01,2.295659293030017090e-01
8.356383387307513431e+02,1.717169562625689650e+03,1.026868211957084213e+03,-2.879380042482947988e-01,-6.759963625674719756e-01,6.783219173114312106e-01
4.627382022588643053e+02,5.555809549249660222e+02,1.627784343199256682e+03,-4.664568693284651402e-01,-1.137191272511373363e-01,-8.772034821827412454e-01
9.733629821389719154e+02,6.895595674050598518e+02,1.406021881916330685e+01,1.620472394979518074e-02,-9.272279437661005153e-01,3.741466921155394698e-01
1.409410855640772979e+03,2.392146821942359111e+03,1.942403216865763625e+03,-6.348104327660816781e-02,2.928666228183337550e-01,-9.540436564348075965e-01
2.649463966206079476e+03,9.756538532367870857e+02,2.731901667880724290e+03,2.963718629202778398e-01,9.541640372641198020e-01,-4.164983626617924095e-02
7.229457491750163172e+02,1.667263689442121120e+02,1.311408333729059905e+03,-5.799022943596935376e-01,-9.467881224550404873e-02,8.091657750474521293e-01
6.453770784349318319e+02,2.620180246228068427e+03,2.964985829358624414e+03,-2.476177833027504993e-01,9.212963325191764197e-02,-9.644675028579756670e-01
1.609390690536205511e+03,1.849568455917245046e+03,1.187999283602484184e+03,-6.661763938983207289e-01,-3.955266015887103359e-01,-6.322718716251063409e-01
2.681932995049059173e+03,1.933232392192963516e+03,2.836327927671474640e+02,6.855827685091818724e-01,7.207070909221293675e-01,1.027499713763813244e-01
7.966467047764015206e+02,2.288724904714709737e+03,2.094662837627627596e+03,-3.260567338723770886e-02,9.925132619532405220e-01,1.177042688686482791e-01
2.789252980825525356e+03,5.559576092458221410e+02,2.202622221449718381e+03,-3.236991631082675736e-01,-5.840705584687576613e-01,7.443657935000781434e-01
3.874979891150284175e+02,1.545098974118059914e+03,3.909245435215167390e+02,-7.503768900265990194e-01,-1.123056576436879256e-01,6.514000016696561701e-01
1.704380200347634855e+03,7.819121413368344520e+02,1.753410614045543298e+03,1.631570784731894708e-01,8.284601329097962541e-01,-5.357551454938873636e-01
2.506247349720423244e+03,1.934312311383710721e+03,2.825722235837687890e+02,-5.258868073463602855e-01,4.333810145835791383e-01,-7.318633493061117434e-01
2.673661805523875046e+03,2.673874463937648216e+03,8.947230307131559357e+01,-6.228318126786224207e-01,5.262037049606188566e-01,-5.789561244180595478e-01
2.870746900608709439e+03,1.433154135737491288e+03,2.442657880112042221e+03,3.841658696780961280e-01,-9.120344050650174283e-01,-1.435612362449279200e-01
2.878810943204961404e+03,1.009800019936301624e+03,2.299783213392170182e+03,2.003041869529086083e-01,-4.988305750985778109e-01,8.432356076660640909e-01
2.844894716345379038e+03,8.720487081210729912e+02,1.320439678374820915e+03,4.416511677431669280e-01,-4.291636932612263311e-01,-7.878849982183194767e-01
2.715734640747892172e+03,6.115727147860189916e+02,1.048817445791920136e+03,8.176833839189375785e-01,-4.315834919618068422e-01,3.809587551545817186e-01
1.020280553966263255e+03,1.201303797242896394e+02,9.952521524543577698e+02,-1.226988432650769206e-01,-9.912980447694251795e-01,-4.767788059181100185e-02
1.892712311798483427e+01,2.302033867377128900e+02,8.453716390316063780e+02,-9.723514184381260028e-01,-2.223912912980443302e-01,7.123785942989036002e-02
2.650912253761162901e+03,2.182056135102852750e+03,4.078840899894413496e+02,-8.476967290508831132e-01,-2.827071084191989589e-02,-5.297273095328637327e-01
2.425860131529505907e+03,1.258006608921135694e+03,2.823487671378472896e+03,-7.679277041429847239e-01,8.337628848628220180e-02,-6.350869513129180355e-01
1.972081241037919597e+02,8.376949898683008087e+02,6.083187762431529109e+02,-2.398052177882002423e-01,4.816441896940028972e-02,9.696255185724507175e-01
2.561776227825571823e+03,3.119057497239995200e+02,1.049830688133075682e+03,7.241827156534413890e-01,-6.895764757365663300e-01,-6.608968114889979262e-03
1.010846787951506712e+03,2.345845785103052094e+03,2.576152008622781977e+03,2.836305476276827497e-01,8.533148436362504308e-01,-4.375014172348044572e-01
1.692417999120716331e+03,4.637266750495917336e+02,2.226517593766434402e+03,-7.597951307798166409e-01,-5.868689252915948451e-01,-2.798146239394397328e-01
1.771546099262852067e+03,2.200278033163962391e+03,1.037023013072289586e+03,-7.665397917620556667e-01,3.786936996314714809e-01,5.186596470758191302e-01
8.980579127886995821e+02,2.223176756484443558e+03,2.751254591631235598e+03,9.901837257747303500e-01,-8.115610328942349239e-02,-1.137975224236012078e-01
9.337057478210625732e+02,6.993158945523902048e+02,1.076808012112940787e+03,-9.813298732728168439e-01,2.529623917170051653e-02,-1.906614279452596705e-01
2.522995004271261678e+03,1.772220652378043724e+02,1.359216036021492300e+03,-8.788574545028124962e-01,4.545514033958049649e-01,-1.448882201413946025e-01
2.819405430508460995e+03,9.909642482865234570e+02,2.846904426430114199e+03,-8.216952405346626964e-01,-2.579102366525435341e-01,-5.082314841806947481e-01
2.641865087977560506e+03,2.345096069339945188e+03,2.897283776962647607e+03,8.242373801000317801e-01,-5.569293253367801899e-01,1.022862054519315805e-01
5.070302885935536779e+02,9.198214542625903789e+01,2.282341505275956024e+03,-2.228618031783113351e-01,9.078199472667525249e-01,3.552401441682828676e-01
2.068380664260771482e+03,2.248357546190659377e+03,1.674846029386532109e+03,-7.774673741691491280e-01,5.350989974356494816e-01,3.304747267884355910e-01
1.597203845253857935e+03,2.684517605040033231e+03,2.219128665189862204e+03,-1.892981438357280444e-01,-9.808507677914489742e-01,4.580375599525599029e-02
5.835338553687357717e+02,1.289415155309609418e+03,2.578053026194107588e+03,2.305152065505023939e-01,2.552020510056783875e-01,-9.390072697862750228e-01
3.370769942570605053e+02,2.178456037647677476e+03,2.924429998775004606e+03,9.687680712304693742e-01,-2.470025590484185296e-01,-2.186686964174189632e-02
2.101330274407355319e+03,1.748574942967488369e+03,2.375200687451483191e+03,9.892060187828339846e-01,-1.256427782211394784e-01,7.540122468958321278e-02
2.850817060504488836e+03,2.754835566667528383e+03,1.271609018686476702e+03,9.761399959487652156e-01,1.229853288090873020e-01,-1.789561879535470634e-01
5.982300361406490765e+02,1.007776902209402124e+03,8.475473778070725075e+02,-8.746292568472749940e-01,3.451872976962205852e-01,3.403959350168042075e-01
2.530555297453118783e+03,2.498316014596467994e+03,1.756672028071672685e+03,-8.047771144237554353e-01,5.815411761119663181e-01,-1.189271061872976265e-01
1.402145942176545304e+03,1.209128446408692298e+03,6.045920782928404833e+02,-2.547327377963005679e-01,-7.540169903947017138e-01,6.054499240159483264e-01
1.156547463602980542e+03,1.250782753117193124e+03,1.559204758512933267e+03,-9.176095395583460101e-01,-2.681335955036127094e-01,-2.934230868112208679e-01
2.191558160019946172e+03,6.195358494016869599e+02,2.400458638705762951e+03,2.449745811778124283e-01,-7.688693297259738824e-01,5.906161260780873334e-01
1.838854562176655691e+03,1.956872945840322473e+03,3.606750117327555358e+02,-3.695254726024349567e-01,4.028584490663844608e-01,8.373505807687569025e-01
2.785015138091294375e+03,2.024616489514896330e+03,2.815432238182264882e+03,4.375694905996667661e-01,8.061994198433241055e-01,3.982153140458510876e-01
1.217160441871491003e+03,9.557198801393966505e+02,2.341938813303038387e+03,7.725064000994397162e-01,-2.563164269975858889e-01,5.809782707267074908e-01
1.597992993383909152e+03,2.316367375893548797e+03,1.549046606279484649e+03,8.397350746233606111e-01,-2.485667312112646576e-02,-5.424270921042277926e-01
1.731430011409687950e+03,1.614143420530412868e+03,2.519928354234854396e+03,2.366290561977657525e-01,-5.062818738363905613e-01,8.292679627163150879e-01
2.566869394437576375e+03,6.768159953758745360e+02,1.621548201056555627e+03,6.787811420918347105e-01,6.344907390586533857e-01,-3.696994227603125349e-01
2.809814453063566361e+03,5.849772835244598355e+02,1.949730387723840977e+03,-8.421933256026526982e-01,-1.359386676860218079e-01,-5.217576841198350301e-01
8.686210381093159185e+02,1.201573590144347463e+03,2.120036322668411685e+03,-5.380104001142947956e-01,2.590684025468650287e-01,8.021398707025302333e-01
4.172593816484374543e+02,3.017252234179410380e+02,1.344328771120242436e+03,9.837823138378246068e-02,8.478606801014982874e-01,5.210124669598837910e-01
7.572232066836169224e+02,2.514036807611365134e+02,1.539001842089365709e+03,-1.626214655340475074e-02,-6.035686199687641945e-02,-9.980443836820913628e-01
2.919958788911548254e+03,1.989493820606274767e+03,1.482650177790713769e+03,-5.102344732370709401e-01,-1.116802556116564954e-01,-8.527533657670334222e-01
2.407166287162946446e+03,1.728446551610235019e+03,6.387427129518690663e+02,-4.535034106655695396e-01,7.892067336575757652e-01,4.141103573496274226e-01
2.338653264440403746e+03,2.597283560883364544e+02,1.531969387712238813e+03,-3.600249371552259325e-01,-4.920223566918144886e-01,-7.926512758721886431e-01
1.930503571273599164e+03,1.456613462052542900e+02,2.600989191060086796e+03,2.699921167683079215e-01,-9.618711890458392366e-01,-4.368148997586773774e-02
1.311371594537208466e+03,2.790996990019090390e+03,1.738842896521076000e+03,-4.133267975689298157e-01,1.261294311554657932e-01,-9.018050371381896024e-01
2.198473340764345721e+03,1.042058003792005366e+03,6.035329191184579258e+02,3.008177246038263863e-01,-6.629435506688655666e-01,6.855760681286460212e-01
1.210868373724062849e+03,1.817994305372100428e+02,5.366541521301935518e+02,-8.066635955014556103e-01,-3.558975135688322577e-01,4.718376876937522280e-01
1.503450294374350506e+03,2.303587247026412115e+03,1.529754001431202369e+03,3.956317277080551587e-01,9.082631580855049513e-01,1.361380611558884735e-01
6.030994461350146594e+02,1.668657516290937792e+03,4.243237129747736844e+02,7.218610019976046122e-02,-7.748743508716631201e-01,-6.279800214172175377e-01
1.107940936774827151e+03,2.633634056755643542e+03,3.130121994440121398e+02,7.238643919301991358e-01,6.298166995324792072e-01,-2.816935694784989952e-01
3.787113386410143789e+02,7.636665235281699324e+02,1.265719057556926145e+03,-5.290490272553475259e-01,7.815810393576982928e-01,3.305120356003856674e-01
1.120155317299381068e+03,1.713073878494090195e+03,2.972254048179104302e+03,-6.080825741617214009e-01,7.146664097266607341e-01,-3.456696483772612738e-01
8.968070742308192393e+02,1.049102163146608518e+03,2.984123206437985118e+03,4.647453990599653695e-01,-8.605376046052087835e-01,2.085347575655509544e-01
4.364706591786267040e+02,2.183184882650858981e+03,1.619231836773044733e+03,-1.372518229426584468e-01,3.769835901736670603e-03,9.905290129199604277e-01
5.831220037012853936e+02,1.770499333698256351e+03,2.299875559635471291e+03,3.429727091135338357e-01,4.022129115380765341e-01,8.488783744420556054e-01
1.433881467664607953e+03,5.488427587707669772e+02,1.831015834519284908e+03,-8.183273841693865513e-01,5.219975764553805853e-01,2.405386091528725068e-01
5.990117073317443328e+02,2.425745941454349577e+03,1.510190526169135126e+02,7.489235725298422075e-01,-9.173289095821840489e-02,-6.562762826931853866e-01
2.819187063371119621e+03,2.725332880036343795e+03,1.324251599860069064e+03,3.787145313101353966e-02,4.778803067439183483e-01,8.776082072679607382e-01
1.671792223418786762e+03,9.399607053735277304e+02,1.596231949191616422e+03,-9.927847463761189095e-01,1.056132285701716772e-01,-5.678286109285180655e-02
2.770326832965291942e+03,7.085774806777573076e+02,2.628240447297824630e+03,7.766719220559961112e-01,4.219771156127019585e-01,4.676708665172859547e-01
1.192932055635698816e+03,1.007214329463493755e+03,1.179009576487533018e+00,-3.273066073923194264e-01,-7.964988203828479163e-01,-5.083896280276198887e-01
7.231484081085586695e+02,1.112819311530028472e+03,4.512700132957089068e+02,-1.634834188539198707e-01,-7.777041682460624772e-01,6.070003282145191026e-01
2.036563572318325441e+03,2.676135012257153903e+03,2.649092977195526601e+03,-2.335415665729947410e-01,9.394625841156916124e-01,2.507356969585674555e-01
8.687175136565339528e+01,2.749452042006419106e+03,2.062343201616095484e+03,-1.856666434682269218e-01,5.469133503401107932e-01,8.163416470589979212e-01
2.592093515221598409e+03,2.658038277264453427e+03,4.239906252806457942e-01,6.968857430952232201e-01,6.738474646925627365e-01,-2.455195621493813096e-01
1.541121757545248329e+03,1.468009240280715176e+03,1.460763500502498573e+03,-9.516069854444988430e-01,-2.732770386538240226e-01,1.405838020464300619e-01
2.353312264714024423e+03,4.355564253353754225e+02,2.580678600511087552e+03,1.360843640152871736e-01,-8.266593071934080772e-01,5.459994832424930333e-01
1.350556100072303707e+03,6.798944780775124173e+02,2.426034531208655608e+03,-3.493351900293821810e-01,-9.800629018217196786e-02,9.318581931237517324e-01
8.470513259238593946e+02,1.553265754048578174e+03,9.844877682754898842e+02,-3.588228590407619334e-04,1.803506319855891493e-01,9.836023184135722630e-01
2.292606236999116391e+03,9.667991616729543125e+01,2.946813685050983167e+03,-4.343727420187786237e-01,-3.784863392315881425e-01,-8.173545203925642877e-01
1.562389490115246645e+03,2.800352808009225214e+02,2.343601319969268843e+03,-6.835376697461039708e-01,-4.845728977709624630e-01,5.458620345691009845e-01
1.260726616339235022e+02,5.429119722327529871e+02,2.916092012946219711e+03,5.522645459695793221e-03,-8.712549749043230207e-01,-4.907996221388053470e-01
7.665558526090904934e+02,7.735912079358786286e+02,8.911589865303752731e+02,1.876930721344177988e-01,-1.515607440491548857e-02,-9.821107901257255524e-01
1.805527233860376555e+03,1.614780212578337569e+03,1.315126441158295165e+02,-9.675133520640766260e-01,-2.463200831590288131e-01,-5.695902220248538761e-02
1.602504008150297295e+03,1.652169269598858818e+02,1.860296969809129678e+03,-9.465155195639362029e-01,-2.788381556409749162e-01,1.623504055533937507e-01
1.342160279111644968e+03,1.810696338924700740e+03,3.708386591965234516e+02,5.122050412639381767e-01,-7.016992648639333030e-01,-4.952414940140044131e-01
4.687529343087053348e+02,2.470154924278987437e+03,6.880130444380495192e+02,-2.666743237949985024e-01,-8.348272437397068479e-01,-4.816100893237644787e-01
5.948394598934405622e+02,2.242491863681538689e+03,4.215187349452563694e+02,-4.319416551582736519e-01,8.707463026152254537e-01,-2.350048574413841074e-01
1.966144188721974388e+03,1.000726080003690981e+03,6.482387744377038530e+01,9.503671707055393325e-01,-1.678312107790373986e-01,-2.619826817436421429e-01
2.226434469616822298e+03,1.036166510682056924e+03,1.381769595975687480e+03,4.244808061245106123e-01,-6.979972514723518096e-01,-5.767286035640404318e-01
1.112643988520540859e+02,2.066967569972181536e+03,4.673666523269118898e+02,7.981829275441600924e-01,7.677870485696601521e-02,5.975023386209640242e-01
1.486548831076843271e+03,2.992385201275474628e+03,4.031122092787995257e+02,7.764480896024612555e-01,5.272848102836593664e-01,3.451073644488245051e-01
2.964993874883983608e+03,2.419995202384168806e+03,7.339208660013072176e+02,7.033508065032556544e-01,1.600051506075701180e-01,6.926008914015839846e-01
2.744242668246018866e+02,2.912716999926263270e+03,1.749302810174057413e+03,-4.116395016036669130e-01,9.045023835936559786e-01,1.114825492751197050e-01
1.590463540397153793e+03,5.129467245518037544e+01,5.546846716419819359e+02,8.685849073964891920e-01,4.773409635226515402e-01,-1.330633803354590861e-01
7.511858590742755268e+02,1.825926927597310012e+00,2.078655957688080889e+03,3.578772331674315854e-01,-7.562154151386385470e-01,5.477792729623132129e-01
4.545746429425301471e+02,2.670109915358973467e+03,1.974638669443596655e+03,-8.463142377204059263e-01,-3.603866760523863344e-01,3.922673256283788490e-01
7.555411305033622966e+02,2.360652851168213147e+03,1.485775399106427358e+03,-1.021769229944578111e-01,6.150999836372080809e-01,7.818004134924021464e-01
1.946730139032896147e+02,2.698905258664094617e+03,1.923450669736499322e+03,-8.873069652067258062e-01,-2.432309004983850692e-02,4.605374434137334827e-01
1.091683447966330732e+03,2.347906944818251304e+03,2.270595753622572374e+03,8.903632639476176669e-01,-2.173555588095683055e-01,4.000122738955957935e-01
2.933767773431562091e+03,1.770829349080984684e+03,1.857777272059586267e+03,-4.434390553483459341e-01,8.520672599406691194e-01,2.781064341739812318e-01
2.364529135841146854e+03,2.130563551755691606e+03,2.370950750006321925e+02,-2.770042153753735081e-01,-6.552020771763656937e-01,-7.028363271260595901e-01
5.736433282769920652e+02,1.678600526548803487e+02,1.834236900922083805e+03,1.022049633666794050e-01,4.387525804277752073e-01,-8.927767462424098799e-01
2.820933288612081924e+02,1.226718332145065006e+03,6.034739424920254436e+01,6.032088987185444395e-01,-2.385532675992398932e-01,-7.610725083883178588e-01
2.059384127964105573e+03,1.133310609422213247e+03,2.289364232056135734e+03,5.150206051909932414e-01,-3.259704104090627719e-01,7.927780696805698524e-01
2.287830695883554654e+03,2.126886099634534730e+03,2.853890561457747481e+03,-7.932554407584793132e-01,-3.218221239361075403e-01,-5.168910197056275635e-01
2.769533877052607750e+03,2.835769736275815831e+03,1.502719034668599761e+03,1.353746263063962951e-01,-9.757094091091997878e-01,1.722348963717275083e-01
1.136971428138576584e+03,8.658167885969858162e+02,1.616411895644742799e+03,-3.309094502075250466e-01,2.902585350453684709e-01,8.979136476280278334e-01
2.047555898128458693e+03,1.485091980539634278e+03,8.895360026961656104e+02,6.402412589210537686e-01,-7.495280011113081287e-01,-1.682227865815777434e-01
5.125390203014908366e+02,2.055399834738187565e+03,2.992990083817755931e+03,-1.284357523420917579e-01,-8.124428693706436944e-01,5.687185960816791841e-01
4.784123717532344813e+02,2.592966462070265152e+03,1.831038655249880094e+03,3.426137615652097290e-02,-9.749388063494062173e-01,-2.198192029324472774e-01
1.941999376432213921e+03,6.217900846900190572e+02,2.656583453384098448e+03,-2.918893843028369517e-01,8.502623953900240172e-01,4.380119248569944723e-01
2.738389246487610762e+03,2.381550175354885596e+03,1.495750928914786300e+03,-7.366056441476411809e-01,-6.540463563398480895e-01,-1.721496115836662899e-01
2.916907763016379249e+03,2.302494147298064036e+03,1.211089841506792482e+03,-2.861588261842829550e-01,8.331526766412579166e-01,4.732544174145032478e-01
6.214297194859710771e+02,7.627808507571708105e+02,1.302069206458120789e+03,3.324196204473116589e-01,-4.382060507288248474e-01,-8.351482820711013666e-01
6.393235876546426653e+02,1.421166035282138409e+03,2.524379105027480819e+03,-6.954471031917487389e-01,-5.805602073374145355e-01,-4.234420530822882167e-01
1.192474435115897677e+03,2.368122663926720179e+03,1.393537842018497258e+03,9.962682477096050926e-01,-4.994124313635636692e-02,-7.039496316945050014e-02
7.052426639466817733e+02,6.808613013641694351e+02,1.988214052631348522e+03,-1.920167460645418045e-01,-9.654614690069728278e-01,-1.761071295935614789e-01
2.349884583596163338e+03,7.899434633965084913e+02,2.995074645915197834e+03,8.640872700647634908e-01,5.031843118823277061e-01,-1.259912645911653861e-02
1.684499172439340555e+03,1.530326827278491237e+03,2.804506519653641590e+03,-5.837229439511095741e-01,1.289240106642498551e-01,8.016521216707994668e-01
1.693252817748988946e+03,9.262001453322674251e+02,1.951756901867834358e+03,5.523371338814437870e-01,-8.330733259684982572e-01,3.020801376152327036e-02
7.530203317583129774e+02,1.792594302736506506e+03,1.875644343800925753e+03,7.987074405708944891e-01,-5.757666617074768123e-01,-1.748118292419564845e-01
1.622549648446160063e+03,1.215088081163604329e+03,1.191534432698211276e+03,5.868230716513397338e-01,-2.441725677264066363e-01,-7.720223052137678010e-01
4.584504829984630305e+02,1.530047419366565464e+03,1.365133606381571553e+03,-4.656986558292145473e-01,-2.394006568257490419e-01,-8.519460590144558587e-01
1.471646204045053082e+03,2.186809568617289585e+02,5.389919656165513970e+02,-5.542515978360539330e-01,-3.205976930107358736e-01,-7.681290812958294634e-01
1.152164622199171163e+03,4.414691863233221056e+02,1.234458707566781186e+03,-6.149323925940398672e-01,7.477184572209556457e-01,2.505499177203692196e-01
1.252441042874718505e+03,2.800965708928002186e+03,2.461370498680092624e+03,5.098162772235695916e-01,3.901735948203966520e-01,-7.667150248839718074e-01
1.915405102573655768e+03,2.053776405564828110e+03,2.370030251444289206e+03,-4.503635156149405905e-01,-8.888232607053392353e-01,8.465172787415431443e-02
1.014689604418453200e+03,1.951548938180365667e+03,1.212288055590148133e+03,8.800441215159300334e-01,-3.833249263149333674e-01,2.803289943100891191e-01
1.518502635646914769e+03,9.961944060389417928e+02,1.736161610942142488e+03,-1.441286936249216166e-01,6.715129577853279352e-01,7.268406064608483597e-01
1.558431614168715896e+03,6.782287801703887453e+02,1.258341685407083105e+03,6.357618683716760311e-01,-3.901751628996769083e-01,-6.660106523027737868e-01
1.812010298634039827e+03,3.118550038273327800e+02,9.404342128034483039e+02,-7.000233791778655013e-01,2.153066926741119096e-03,-7.141166801771341444e-01
2.487766413059524893e+03,1.350038804643378853e+03,2.308347351500052355e+03,9.667846506295649789e-01,-1.702064759015263773e-01,1.906756273577021599e-01
2.448953047793474525e+03,2.505468614738175802e+03,2.374715348182353409e+03,-9.813912783657239292e-01,-1.694343242320199838e-01,-9.035025467440084557e-02
2.833907440301231873e+03,2.289005260997399091e+03,1.380784002176661488e+03,3.350473151999497912e-01,-9.387585926808109660e-01,8.047112056662865387e-02
7.695993534113772512e+02,6.415840361876249744e+02,1.653618482328246273e+03,3.310594087132798929e-02,4.288030266104029820e-01,9.027912056775819760e-01
9.123005484608115978e+01,1.518660034163027831e+03,8.520760761158173864e+02,-7.010250817281653557e-01,5.654418167326350497e-01,-4.345565402546789358e-01
2.318656090276581835e+03,2.884974763491759859e+03,4.511569134324860784e+02,5.095415091703860977e-01,8.343206776071556696e-01,-2.104197171120190391e-01
2.544072499245010306e+02,2.568857164963099876e+03,2.222535471376398618e+03,5.371401974388099188e-01,-4.448147876021745217e-01,7.166730168115922339e-01
1.670058132875805086e+03,9.075528299894590418e+02,8.136695883693681708e+02,-2.531218612868698092e-01,-2.421716137932821561e-02,-9.671312488144503394e-01
2.694685733428858384e+03,8.009450743028036186e+02,1.480120216648912219e+03,9.620181138669570142e-01,9.065605675835471805e-03,2.728350479421455255e-01
1.399624289687649707e+03,1.869833404624799869e+03,2.459013187043442031e+03,8.831291554370300778e-01,-4.370933098052384169e-01,-1.703887711692882168e-01
5.492391358190462647e+00,2.040113776807548675e+03,6.383209351139780665e+02,-2.192187619741257920e-02,-2.441552755979415068e-01,-9.694883355366781252e-01
2.350863267811386777e+03,2.645072188582316812e+02,1.067099050207253640e+03,-8.314794165310058771e-01,-3.849210903888309332e-01,-4.005967224767714718e-01
2.346378750064858650e+03,5.611737249242123653e+02,1.729486519683714732e+03,-9.271266902582983027e-01,2.388655606130546394e-01,2.887548166935136607e-01
2.922978190015889140e+03,2.255017252656635264e+03,1.142959083002483794e+03,-2.293956464327468470e-01,-9.643454956934170985e-01,-1.319674290630836744e-01
1.913424667918811338e+03,3.430754876314229023e+02,3.055439636970415336e+02,4.691795757475982764e-01,8.177753957568062448e-01,3.333375583340447701e-01
2.251771233232284430e+03,9.360608150361241542e+02,1.712593798866126463e+03,3.604463484172335530e-01,-8.864621833902444070e-01,2.902812900131230833e-01
2.028728149167706079e+03,2.468671750446865644e+03,1.243157036655690490e+03,-9.959155777954281641e-01,-8.940492624285542589e-02,-1.260638996334839668e-02
1.549522840857887616e+02,1.714658472282306093e+03,1.469280277040752935e+03,-4.580866558203601224e-01,-8.322247091969297017e-01,-3.123437996205540856e-01
1.620178730876454438e+03,1.249141413504308815e+02,7.052425954202715275e+02,-1.328603241839159677e-01,2.498719789050659057e-01,-9.591204973390001776e-01
2.353707339268667056e+03,1.596818867485488227e+03,1.432279502036977419e+03,9.128005630102021817e-01,1.002933921122194788e-01,3.958994413571235160e-01
9.358787603858833108e+02,1.679372878399330830e+03,1.820419936228601273e+03,-1.322100887567783040e-03,7.719229821910256195e-01,-6.357146856999268403e-01
7.878680152382916049e+02,7.182511481001467928e+02,1.077094050770947661e+03,4.004184231443173037e-01,-4.306646774214998863e-01,8.088219965035903236e-01
2.006223763225530547e+03,2.506115144298500581e+03,2.894389670311907139e+03,-6.584736535066489926e-01,-9.714187658610549947e-02,-7.463081826235964389e-01
1.612827762109347077e+03,2.190139428259000397e+03,2.356378938669875879e+03,-3.702742956525245099e-01,-6.400864808321208299e-01,6.731910895392021477e-01
1.943373702030070717e+03,2.833912171064126142e+03,1.887895145710728457e+03,-5.502989172353079939e-01,-3.773046277459397024e-01,7.448572477805028846e-01
2.440372458931155052e+03,1.297143083963286472e+03,3.796369813138763334e+02,2.096342553825092381e-01,-2.789746405017312081e-01,9.371374653310744485e-01
2.011836892688037778e+03,2.993172665727493495e+03,4.839261608574819888e+02,-7.725684405704895674e-01,6.311623953139515741e-01,6.907992020867581573e-02
3.101335598253818375e+02,1.322226774328242072e+03,1.384392412342687294e+03,-5.134557010640488084e-01,-8.364104335445702310e-01,1.917832883819916567e-01
2.188148280288443402e+03,1.742707871588630724e+03,1.329309325839642042e+03,-9.050458493136223082e-01,4.252655103418224725e-01,-6.423110920218411124e-03
6.804033484663195850e+02,1.372166028271107734e+03,1.300658137898435825e+03,-7.290050811235497807e-01,3.956689517490569186e-01,5.585675181371085873e-01
4.981160517837039947e+02,2.472176953178959138e+03,2.056220328420594797e+03,-5.180749347819287864e-01,6.303913113458152750e-01,5.781047971868107371e-01
6.512713916157016456e+02,6.630173627038528821e+02,7.273703172530065331e+02,-7.401355103995580498e-01,4.801299660709401063e-01,-4.708233659519285297e-01
2.842258662578105486e+03,1.897373990197623243e+03,4.042174094406675522e+02,9.088239548397395451e-01,-3.852724083753546469e-01,-1.600130946332490034e-01
1.857842958143359738e+03,2.805400941828542727e+03,1.382047008137545163e+03,8.723228581191546649e-01,-4.889296413862391777e-01,7.981082336885325645e-04
2.713460620168715650e+03,1.540903592033532050e+03,1.919433751785610866e+03,5.351025564001653523e-01,8.258189007017205929e-01,1.780123517563032831e-01
9.574329686346914059e+02,3.922065018004491321e+02,6.450090137071325671e+02,8.851215682136567287e-01,-2.786931468453622274e-01,-3.726794056349592155e-01
2.600659091374641775e+03,1.385582937022351871e+03,1.396851757734653802e+03,6.912720150377344996e-01,4.917502125985359629e-01,5.294570139633292261e-01
2.076644649654270779e+03,8.978570731163007395e+02,2.726544577591555480e+03,8.553648289801281113e-01,5.072404447957747919e-01,1.051576935234925791e-01
9.499456579322895777e+01,6.485842086691299073e+02,1.542418349154485213e+02,8.670741831854897885e-01,4.977552276802284514e-01,2.054493052359940286e-02
7.086022222264614356e+02,1.679162092887300787e+03,1.316903374325712093e+03,-3.816876683462402386e-01,6.313321374929363738e-01,6.750809255200526104e-01
2.820347500036780275e+03,1.399091089203233423e+03,8.447327769737367475e+01,-5.082019695942054938e-01,-1.850290169098378068e-01,-8.411272323507004156e-01
4.447068457609910865e+02,5.865971254099333692e+02,2.234246848677049002e+03,3.024097094562523957e-01,3.195218605946428814e-01,8.980279217422599825e-01
2.135759468438207023e+03,1.670529952458022308e+03,2.010559155532560851e+02,3.119199966249356915e-01,-7.559934617255271716e-01,5.754822338993222930e-01
1.651468684852391561e+03,1.894814379710408502e+03,1.309988682248942951e+03,2.424268417247915364e-01,8.908075765680446567e-01,-3.843059821812696009e-01
2.804327453044299546e+03,1.864547141813105100e+03,1.602742285940867760e+03,6.169175642442339402e-01,1.784032382356887658e-01,7.665409340106903446e-01
1.147413333188258321e+03,9.329847205902497365e+01,1.559798863855555965e+03,1.383073382142828711e-01,-4.521512696050457025e-01,8.811528298715411989e-01
2.029623119735445471e+03,2.355704457537385679e+03,7.832799060805169802e+02,-7.053875646089160512e-01,-5.487450271006300007e-01,-4.486727971778889934e-01
1.084042040314037081e+01,2.567102936949827836e+03,4.347361394215450900e+02,-9.243639641155420028e-01,-3.807111202644495318e-01,2.470434681566913149e-02
1.286551613771161556e+03,1.601228299408375278e+03,2.072120101131543379e+03,5.374072062796850791e-01,2.469752420266417003e-01,8.063477689338178767e-01
1.583796938854515020e+03,8.707048940606438237e+02,1.260393859670787378e+03,2.487097884887601307e-01,9.296903856195977423e-02,9.641059065158459340e-01
2.003934641875508987e+03,1.495741638800197961e+03,1.394091260304598336e+03,-2.565356406967345682e-01,9.593207897463658096e-01,1.178689416798373024e-01
1.859221967246200393e+03,2.965431887415101755e+03,1.548661993574337203e+03,-9.326259777109394689e-01,-1.150363533254838838e-01,3.420167000488258946e-01
1.736087602586089588e+03,2.873638679926980330e+03,2.077272461745653345e+03,-2.127648444524429527e-01,2.471631936403108076e-01,-9.453261218620006012e-01
1.701219323785352344e+03,3.640011330349287846e+02,2.809419849658845123e+03,-1.269654206192061818e-01,-9.689165410107933862e-01,-2.123217335146538876e-01
6.389781655832662182e+02,1.987873027867707833e+03,1.570101298976862381e+03,-1.508047181364289835e-01,-7.505246488822164830e-01,-6.434055396155817785e-01
2.981284571105439227e+03,1.645313492491740590e+03,2.381760110932983480e+03,-9.383615654204436884e-01,-6.828286615186657249e-02,-3.388436552922020617e-01
2.911373970779310639e+03,5.354160181661831075e+02,2.553922765209747467e+03,-2.038897184663310547e-01,6.559403605104628665e-02,9.767939420053004529e-01
2.737378813794818598e+03,6.595716905970134576e+02,2.964791122974278551e+03,8.203421676041026123e-01,5.369008381878859204e-01,-1.969167793859836202e-01
1.431216983845399682e+03,1.828433215766864919e+02,7.556563047250650698e+02,1.777717774528612127e-01,-7.875860982147606659e-01,5.900045195081982108e-01
1.387884346745603636e+02,2.299346999924079228e+03,2.420539640514911298e+03,-1.949854483430212837e-01,1.585844115430904699e-01,-9.679006453918721498e-01
2.875423904849333667e+03,2.758775823951532857e+03,1.640963802878662591e+03,-7.832177099889883198e-01,-4.919861062570177190e-01,-3.801574542339838381e-01
1.993655554170084088e+03,1.772445073975520927e+03,2.604166346122318828e+03,3.637291194826163671e-02,9.670318838590644672e-01,-2.520443351404526577e-01
6.980658275455285775e+02,4.848049474341829068e+02,7.144811881848619350e+02,-7.471240243446054807e-02,-6.433399726065643920e-01,7.619263327704695055e-01
2.379162816021043909e+03,1.632362559553747815e+03,1.219458733424915408e+03,-3.011096686000682698e-01,7.504157071229483611e-01,-5.883954741317464210e-01
7.008705278579059268e+02,1.997254188875241880e+03,1.053060462017313739e+03,-4.072440761053789382e-01,-6.521259456271485400e-01,6.394403909020556220e-01
1.260833519359503043e+03,1.935006848593559425e+03,2.624491964219128477e+03,-5.096355183768799257e-01,7.731750081313337741e-01,-3.774546929233242865e-01
1.589682338536488487e+03,2.771064261621811966e+03,5.626588432031703633e+02,5.333393696163030162e-01,-6.247880347644074739e-01,-5.702534773524086109e-01
1.414987125871557737e+03,2.518210677825362382e+03,2.081209810731777452e+03,5.065170286296541979e-01,8.589165720474345456e-01,-7.551703099612994130e-02
2.963936006633223769e+03,2.415472633996899276e+03,1.647865021717753677e+02,8.968941409507421580e-01,-1.327319870706520910e-01,4.218567523893703708e-01
2.869223118964588593e+03,7.000366418194654443e+02,2.458193467377736852e+03,-7.102032600918186667e-01,-6.310541481044210088e-02,-7.011626316173408258e-01
2.012062580848935795e+03,5.373512709051249203e+02,1.739245022556919821e+03,-8.780662447198113452e-02,4.428600531542652152e-02,-9.951526246923325658e-01
2.513389799451627823e+03,2.272912991336685991e+03,2.756749173162625652e+02,-5.187879211423416237e-01,-8.175117252788686173e-01,2.500673347488133746e-01
1.664580104086042411e+03,3.220665297018747424e+02,1.921043341941621975e+03,-6.319403367287247620e-04,9.400406977175688183e-01,3.410617059801308582e-01
1.357947345212767686e+03,2.600146916648732258e+03,1.959243277862343575e+03,-9.259889991470297010e-01,-2.970229732415582968e-01,2.330702186582980229e-01
2.533005750249346875e+03,2.330636470310872937e+03,2.017882399333078638e+03,3.506524386837082119e-01,1.917552675611565796e-02,-9.363093326560372187e-01
9.190146359341933646e+01,1.553542359716472674e+03,1.066170241056141421e+01,-7.180671871414819885e-01,6.949059250921286734e-01,-3.853920111487352251e-02
1.675606499777229033e+02,1.955729197608153527e+02,2.547799641733261069e+03,7.423454640559918882e-01,-3.165665070072062881e-01,5.905157564678105153e-01
1.860299323443759477e+03,1.543214621335401262e+03,9.647221345947873488e+02,8.487791493022531775e-01,-4.800596269000217409e-01,2.216229011865771259e-01
1.979178420551497766e+03,8.555145192858776682e+02,1.216343074432771800e+03,5.156763824097279070e-01,4.949068588128829327e-01,6.993890689199978583e-01
1.212728233089951573e+03,2.951662436196301314e+03,2.754046984515866825e+03,-2.914637539159418145e-01,9.385908596093887057e-01,-1.846512345231847985e-01
6.532078188584920326e+02,2.306214192739806549e+03,2.266327445588914088e+03,2.526508439696689701e-01,1.458181668167486400e-01,9.565064627422110721e-01
2.951132807796819179e+03,1.639123136553546374e+03,1.661011246699675439e+03,-2.728954499297656655e-01,-9.132618605606683815e-01,-3.024580094044413414e-01
1.408479783388696660e+03,1.649318533740912471e+03,7.554060441778575807e+01,6.695382927270787654e-01,7.401415839394414053e-01,6.252127874350921211e-02
2.468136071960820175e+02,2.666884947362651928e+03,1.135276814256748821e+03,-4.937432311212137243e-02,-9.890198738020753444e-01,-1.392905791564773565e-01
1.725071075764280067e+03,1.533143252197658512e+03,1.104910733024318461e+03,2.566740326308694087e-01,-8.942431406891425683e-01,3.666710328120097451e-01
1.882053317391887731e+03,2.737617350457006978e+03,1.370915587018184169e+03,-6.584273788584134035e-01,-1.833892877710170954e-01,-7.299601056910427488e-01
2.304939239982211348e+03,2.393023832502912683e+03,5.155379156145868365e+02,-1.046769934443321504e-01,9.867301680517233109e-01,-1.241221273587962415e-01
2.810616401621166005e+03,1.303046255944489531e+03,1.293032063448652252e+03,-7.165933963919778327e-01,-4.934470198305383470e-01,4.929543009932768616e-01
1.449510195694507956e+03,2.670325130040283057e+03,2.044662275458591239e+03,7.091359364505489538e-01,-6.936759973785846523e-01,1.262530565777670866e-01
2.990542426199263900e+03,5.995194999692575948e+02,2.519380583751063568e+03,5.745320495662589177e-01,-6.595410678492976686e-01,4.846839215833365078e-01
6.971437916308243530e+02,1.450559793944135208e+03,2.587125640747672605e+03,3.713610643054353067e-01,7.122786448374658352e-01,5.956090093563375376e-01
9.123672356209988266e+01,1.177945389838974506e+03,2.263203945983381800e+03,2.005481378706261419e-01,2.491250605373104832e-01,9.474793657958497928e-01
2.424165313534272627e+03,4.157087427361838650e+02,5.726097634975074016e+02,2.467037731122513344e-01,9.596382105997174339e-01,1.350250091247957585e-01
1.735059013543839683e+03,2.735265314924566155e+03,2.293024747081944952e+03,-3.535689553764736481e-01,-9.340650987399462535e-01,-5.011372177282114038e-02
1.893775593769065381e+03,2.952141793150620742e+03,3.581534406895924008e+02,9.885563196397760821e-01,1.156427888456627029e-01,-9.686665209584988112e-02
5.826789433403878604e+01,1.365816660685593888e+03,6.574512304970475043e+02,-4.810650355025591907e-01,-6.253406970992448910e-01,6.144309921938769792e-01
1.649673318774146082e+03,7.513392092241166438e+02,2.447073072750519259e+03,-6.014597691692279424e-01,2.455227564775070426e-01,7.602399108982546005e-01
1.872901272916099060e+03,2.182816679213127827e+03,1.772711247565778649e+03,3.545827048443351837e-01,-7.058773332378555088e-01,6.131951531497038532e-01
2.648861412570103312e+03,6.088159261423984390e+02,1.240846301121518991e+03,7.718701827623214440e-01,5.800880358815152515e-01,2.602196986962868053e-01
1.439050013322173527e+03,1.136981511323627501e+03,1.355540122001793179e+03,6.334177141729309402e-02,9.622131338382792221e-01,-2.648276893809205501e-01
2.398086884732122144e+03,1.001820064162381414e+03,5.071550147682787610e+02,1.803868291227739007e-01,-6.160834277474538379e-01,-7.667475477195730971e-01
2.256979654235661314e+02,3.497819689987623519e+02,2.741412101091709701e+03,-1.753807380495044921e-01,6.498600323864877071e-01,7.395427878276172873e-01
2.426674144615545629e+03,7.852099260068744968e+01,1.909043087766377539e+03,-2.629992403182196958e-01,-6.845933461101140205e-01,-6.798259704172805451e-01
1.047146181892180266e+03,3.662607489558446900e+02,8.612610930462269607e+02,-6.529477506088148253e-01,1.529188327021114291e-01,-7.418052747048329287e-01
1.183531705987144278e+03,2.858875504377676407e+03,2.264596172225259579e+03,-9.177649902557942774e-01,-3.870797627725519052e-01,8.875066147768628788e-02
1.537559300849387910e+03,2.273435091574418493e+03,5.428876427361006840e+00,8.234690900648696799e-01,-5.660317658204540026e-01,-3.881620524876527867e-02
