x,y,z,nx,ny,nz
4.860409627495441214e+02,1.204034835395540767e+03,2.543034500515022046e+03,-6.120172400271406410e-01,-6.037479732725596904e-01,5.108065021892711499e-01
1.430250485051426949e+03,2.174318893329575531e+03,1.077394025854137681e+03,4.744979677633087700e-01,-8.244319627329524947e-01,-3.084860084554592596e-01
8.026303856505911938e+01,1.539867701887168607e+02,2.965044076696826778e+03,5.007705398062892721e-01,-7.739378791074443820e-01,-3.876196921530026263e-01
2.647756391200898179e+03,2.343277397919288887e+03,2.136466697068105077e+03,-9.645649135741504177e-01,-7.003629543834917481e-02,-2.543805118773135310e-01
2.624863940176721826e+03,7.946784474627758073e+02,1.391894679010584468e+03,-1.297371310931684550e-03,4.821284358765322020e-01,-8.760995880303392713e-01
1.738232261831010874e+03,2.545282627087070978e+03,1.865616937544396478e+03,-4.554006017910285781e-02,7.120048678539518672e-02,-9.964218953838812620e-01
1.945354207024199695e+03,8.965659816964733864e+02,1.300047126964606377e+03,-9.997081193049121017e-01,-2.328776285723820061e-02,6.430886170711858085e-03
2.228728190372872632e+03,1.227654856463916985e+03,9.853240589515040710e+02,-5.174964449507940545e-01,-7.185328391487209032e-01,4.646590024180832224e-01
2.307347918122969986e+03,2.137939648158271211e+03,2.952088752680936068e+03,1.997689307511036905e-01,7.858579025006270924e-02,9.766865658323216071e-01
1.116621659790693911e+03,7.882058504957323066e+02,2.066759259429720714e+03,6.513180813358442345e-01,6.961480422923291833e-01,3.019315487615563676e-01
1.724386762879610160e+03,1.376740671046619809e+03,7.058159988235188393e+02,4.076651558870674208e-01,-9.115603803283491846e-01,5.354244756460624366e-02
5.452283624162801345e+01,2.562495755923694105e+03,2.432723568995951609e+03,9.687209520742898206e-02,3.685196216155043336e-01,-9.245588600270338020e-01
2.415922749104631293e+03,1.537196925074292267e+03,6.019428230908313253e+02,7.795184182958506680e-01,6.175788951420508877e-01,1.046295551584692923e-01
1.321711569893845422e+02,1.893678500841385585e+03,2.982145625411613764e+03,-3.585604717232850347e-01,-9.335003040972797983e-01,-3.401524343842110554e-03
1.517280427700262408e+03,1.728128353998665489e+03,2.581407460961206198e+03,1.699781791801794339e-01,-8.180563265404751094e-01,5.494463260498648749e-01
1.905932692347641705e+03,1.496093631261660676e+03,1.096429422677504817e+03,-8.075160089193081925e-01,4.267671461455359028e-01,4.071703553917287999e-01
1.717149190072700776e+03,2.258131006200077081e+03,1.876272704110316909e+03,-8.906897712540777778e-01,1.496882710449787268e-02,-4.543651236598980625e-01
1.689423257326084467e+03,1.296570048124216783e+03,2.078097826453928576e+02,9.927334554041339354e-02,-7.008716435429863667e-01,-7.063453419840515224e-01
2.486575388131193733e+02,1.475799990681870668e+03,4.381982112301561187e+02,8.575848003561346022e-01,-4.961043839275188772e-01,-1.357525338475333854e-01
2.064785947647158082e+03,1.014253164090368273e+03,1.247565943934557481e+03,-9.671483430596975461e-01,8.959789204255699802e-02,2.378997693534233016e-01
1.391466928378686816e+03,4.800115296888413923e+02,3.089611586817332523e+02,-1.332547396851073429e-01,9.755299302364807135e-01,1.748843319576156574e-01
1.300998770616913589e+03,2.573309929147183993e+03,2.714710271627310703e+03,3.681767516359853998e-01,-2.745866180152112257e-01,-8.882837771578080410e-01
6.670260801665860981e+02,2.419097658609854989e+03,1.561412450794295864e+03,-1.663143454913849628e-01,-7.457885464181100987e-01,-6.450883524877306652e-01
1.392658946547926234e+03,5.543193476972345479e+02,2.693366014188928148e+03,-1.207736148331030740e-01,-9.630238587237626158e-01,-2.408293617666663611e-01
1.152580859310697406e+03,2.629057060156851549e+03,2.099275137526270100e+03,3.486671239009303536e-01,2.789928945508355351e-01,-8.947592980801035711e-01
2.127971751603190114e+03,2.147067551956474745e+03,1.254471359703499729e+03,1.860031711951138089e-01,-3.676574455522177987e-01,9.111700297065192800e-01
1.053093846629468771e+03,1.972740153279270089e+03,1.337785044906381017e+03,-6.365348688461572868e-01,-4.325825302739457201e-01,-6.385105443489529353e-01
2.825575096738688444e+03,2.538824997984431775e+03,9.286102604864734076e+02,8.576529248277572348e-01,-5.135010818108509678e-01,2.735140788842938334e-02
1.113687265855975284e+03,8.694643216135409602e+02,1.257048305524822581e+03,-9.404590457885840526e-02,8.628140321105653987e-01,4.966964000524390355e-01
2.992526351002842148e+03,1.656053439245924437e+03,2.690679501333400481e+02,-3.861478921125593433e-01,4.348954467667315860e-01,8.134837157550187658e-01
1.189632386242582015e+03,2.803607960580556210e+03,2.924548820166940004e+02,-2.459185914618139401e-01,9.329423445531741521e-01,-2.629498585530403165e-01
6.285326687928316005e+02,1.674424618536855633e+03,2.902116939448233097e+03,8.080671675931152542e-01,3.894437176023664016e-01,-4.419966555055461210e-01
1.016443471891145464e+03,1.922555859855798644e+03,6.017274067441727539e+02,-9.732073162704951708e-02,-9.774630838258718812e-01,-1.873355143938073564e-01
2.382382246577821206e+03,1.287955426654646317e+03,1.706133340735160573e+03,-4.484517920665319068e-01,-8.935008295679869317e-01,-2.339354085287670415e-02
2.914259196526709729e+03,1.555927628584565582e+03,2.599846106637282446e+03,-4.940956574459553496e-01,-3.695872712039484087e-01,-7.869401058893036316e-01
6.233696182931569183e+02,1.032846549265050044e+03,1.678273864488791105e+03,8.815344063580290435e-01,-3.448931798422676942e-01,-3.224062420383428940e-01
1.047385960365982783e+03,1.325426748662063801e+03,2.334768772914172587e+03,-8.518748958651439773e-01,4.984484805407442543e-01,-1.608050808941481613e-01
1.140021476423713764e+01,2.593359723358345036e+03,6.909738914173343574e+02,-2.039614966497239057e-01,-2.528046421883434758e-01,9.457745612842567429e-01
2.789607898634299090e+03,9.451325761479449739e+02,7.658668290332228707e+02,-9.743025687112827349e-02,8.048342143332742893e-01,-5.854478904945915607e-01
1.619830481578400850e+03,1.644864213876003987e+03,4.896118751825190429e+02,1.036761017534800766e-01,-7.926019698813219216e-01,6.008605356199141490e-01
1.967697393670298993e+02,4.920691966361511049e+02,7.238036798348227876e+02,2.907008206409823492e-01,8.082982727794272293e-01,-5.120028663010142145e-01
2.358099009785956639e+02,2.952315327085186254e+03,1.959282111501180225e+03,-7.155596997418363359e-02,-6.216739204851499112e-01,-7.800008203519257499e-01
2.459578050844659174e+03,1.943649986353365875e+03,6.277255346965026774e+02,7.849138603844703077e-01,-5.772755703879133005e-02,-6.169098483041760561e-01
3.459303400779252229e+02,1.576803612667288462e+03,2.965280841815054828e+03,-6.507048077875231540e-01,-3.378400351975205940e-01,-6.800348253875978521e-01
1.265290423466724860e+03,1.395518560336752444e+03,1.315955027407431999e+03,1.829339111826433772e-01,1.989309814230992290e-01,-9.627884756110571818e-01
1.246887846197244698e+03,7.845561747946428000e+01,1.582637969963461728e+03,3.793806481876979553e-02,3.129119869849041891e-01,9.490241259520044714e-01
2.404275000085796819e+03,3.752682863291502144e+02,4.680388208074570571e+02,6.191039625431624671e-01,-7.099507860413155624e-01,-3.356786632520346036e-01
5.549611946914973259e+02,1.796333219120980630e+03,4.790039250034374732e+02,-3.484817050905157920e-01,-9.172105799961416395e-01,-1.930938972633475803e-01
1.847590087210065803e+03,1.438595770807992267e+02,9.419244040548661587e+02,-5.278016273339222186e-01,5.706437448353297581e-01,6.291193516845391409e-01
1.030505164246794948e+03,1.518982317438073551e+03,1.324569497947062473e+03,2.985534126748654038e-02,2.116673557098694702e-01,9.768856581630183111e-01
1.956650152654407748e+03,5.353067161156538987e+02,1.226948815322296923e+03,-1.164049266157407003e-01,-9.388907945955334844e-01,3.239351306717934698e-01
1.354461031732158517e+03,2.297777427937985806e+01,1.971068995287750795e+03,2.593455982009477273e-02,6.339793206015030824e-01,7.729150145110358361e-01
2.797371962012047334e+03,2.539181394077052573e+03,2.027497245573774762e+03,-3.861161348382751712e-01,1.402906280701035902e-01,9.117197322057073450e-01
1.678979247659238126e+03,1.927903500026714937e+03,1.381091297142156009e+03,7.791641970037155307e-01,4.414793576223094984e-01,-4.449709326472326421e-01
2.447310009477631411e+03,1.063653566465098720e+03,3.900213869620696983e+02,-9.481115423908583750e-01,3.149163627286947209e-01,-4.372856813293601874e-02
1.869867964377435555e+03,2.594433175028255391e+03,3.259928112370121767e+02,6.567364481005900645e-01,-7.148550244072122695e-01,2.401656341277518536e-01
2.441336889950109708e+03,1.717932972708671969e+03,1.558822138725181276e+03,-3.283858392477041477e-01,-3.944872110034899904e-01,8.582205899046404518e-01
2.076703022951559888e+03,1.210160778323273917e+03,2.962611374822426114e+03,9.305222127328681703e-01,-2.069939589826078341e-01,-3.021289667599476592e-01
2.721359579055166250e+03,1.804964670712380666e+03,5.881152942151968546e+02,4.350460832935764688e-01,-2.456439565316067553e-01,8.662528222351812968e-01
1.876482311230513687e+03,1.521349853917905193e+03,1.876193896230259270e+03,2.589875406181775808e-01,4.285890220604981343e-02,9.649293074138851622e-01
2.779654324133228329e+03,1.582063719924792849e+03,2.415342895087507259e+03,2.262853911979836527e-02,4.826461194588315129e-01,8.755230851260491498e-01
5.780394085620955593e+02,1.420677879102151167e+02,2.642149911012250868e+03,-9.538050771606380041e-01,1.904491992895885333e-01,2.323466747611075967e-01
7.896763850817910679e+02,1.309515445887619535e+03,1.816116050397854906e+03,-3.040401484373784768e-01,-9.211041332801165327e-01,-2.431599551580443386e-01
4.221627460510590879e+01,2.403658728757404788e+03,1.652527307197462051e+03,4.825459188439971125e-01,-5.124878344078122039e-01,-7.102856156441530455e-01
2.770643873736415799e+02,1.442561838926158998e+03,2.159934349596336233e+03,-7.222622284169458728e-01,6.282875307895352535e-01,-2.891229013007727833e-01
3.178274684021634471e+02,8.662304385466067060e+02,1.621681276904444076e+03,-6.577832187369198058e-02,-6.930773252668900319e-01,7.178558584927579034e-01
1.620417062307669084e+03,1.269442198995908939e+03,8.477350026261400444e+02,-9.672150333736766470e-01,-2.377799965957058670e-01,-8.919502472057416753e-02
8.605895448368742109e+02,1.458446043787397002e+03,1.488396210936482703e+03,8.280751035494000600e-01,-5.593642402856952023e-01,3.746023987186108961e-02
1.276087712696322114e+03,4.258031438534073345e+02,1.772655166519599106e+03,4.802298244948496886e-02,-5.241374525678133001e-01,-8.502786154975201516e-01
1.337798115804126155e+03,2.461368045405100020e+03,1.251043425590207789e+03,-6.050319057806228251e-01,-5.152956972621991483e-01,6.069651862920406593e-01
1.444881747227881988e+03,9.591534564732072567e+02,2.678113750357634899e+02,8.026737526849433424e-01,5.427600758688316818e-01,2.472374300010633796e-01
2.703569884965203983e+03,1.463472900772105277e+03,3.252159517344575193e+02,-6.251296961133821772e-02,-9.953487385440671353e-01,-7.330086840622264399e-02
1.031040303176663656e+03,1.720950703809263814e+03,3.601708434382376822e+02,4.003168784956681603e-01,6.648864835540945206e-01,6.306126868201711311e-01
7.850760138695579826e+02,8.013857841524682044e+02,1.433885781623055436e+03,5.605870582038575689e-01,-8.206894707356414687e-01,-1.105031347881031550e-01
2.362972409023701402e+03,2.593269149810030740e+03,1.191423059268823636e+03,4.782096999393168346e-01,-7.672112387569832714e-01,4.274370105745683990e-01
2.097794673815929855e+03,1.219380418810682841e+03,2.836969712568282830e+03,-2.518311986325402207e-01,8.643323159600332373e-01,4.353282611805298630e-01
3.763769865295508907e+02,2.772916182376543475e+03,1.183376218861305233e+03,7.027522504563854522e-01,-1.358038852785197219e-04,-7.114346463560727862e-01
5.676500569640115827e+02,2.995990764692282028e+03,2.649457424987532704e+03,-3.997433013383639988e-01,-2.899456200001328254e-02,9.161684388853030825e-01
1.689955248977202245e+03,3.440477217575010904e+00,7.768747390256054359e+02,7.736298151851628280e-01,-3.713737960357465506e-01,5.133988826191294708e-01
2.634629245320902101e+03,3.845645761469683634e+02,2.162514665228331978e+03,-8.238898651501378456e-01,2.278237336938056801e-01,-5.189429992481849885e-01
7.558453986853254492e+02,1.585722556937957393e+02,5.560530510008679812e+02,-6.795151807764183705e-01,-1.286621840630639002e-02,7.335486211004098589e-01
5.332678028922019848e+02,2.713708711305276211e+03,2.780384110427954965e+03,1.468194081827464970e-01,-9.263496634140822028e-01,3.468722567076887309e-01
2.670985141771292092e+03,1.908673515128833060e+03,1.571929051552124974e+03,-2.856260184482828368e-01,-9.904309979075548442e-02,-9.532094428661623819e-01
1.284197884806922332e+02,5.215164930063612019e+02,2.450601188334812377e+03,-1.139219397417943732e-03,-8.540151152510686572e-01,-5.202469462686623025e-01
1.007908466558915848e+03,1.066333293449711618e+03,1.040976425551033344e+03,7.258018247908025744e-01,-6.877648530807528582e-01,-1.382815957210370428e-02
2.303398447751912101e+02,1.561926764227410104e+03,2.079014127559394183e+03,1.481808993795296139e-02,6.626333254246719040e-01,-7.487973692843956641e-01
1.221820228854258403e+03,1.802153210513494514e+03,2.943308119032973991e+03,-4.885785055610211702e-01,-4.209724175957921255e-01,-7.642468629489513887e-01
1.193303667998398168e+03,1.153371025413085782e+01,2.610814276909252385e+02,7.692395393806883419e-02,-2.011475800344326992e-01,9.765358960923173903e-01
2.339833933762086872e+03,2.069674895963269591e+03,1.823601978902970131e+03,4.876383129533374827e-01,-2.773602959375616184e-01,-8.278164905203635460e-01
8.125847759744119685e+02,7.358119303165449310e+02,5.415116263168122259e+02,-1.429633832259034620e-01,-2.853167969305450136e-01,-9.477108189980198993e-01
1.898284404494526143e+03,2.845832437408024589e+02,3.561322288286109483e+02,5.276414380678057237e-01,7.960585910318449532e-01,-2.964544357538470565e-01
2.052241831399681814e+03,1.082965013176132970e+03,2.921979307172824974e+03,-2.860035854840011632e-02,7.015098712928509173e-01,7.120856128090151671e-01
2.495439222490050724e+03,4.778764822701841126e+02,1.641275667365375512e+03,9.234349608722066671e-01,3.200718753415743856e-01,2.117117560606256721e-01
5.221438748454129382e+02,4.040971175900587014e+02,1.118960636692367643e+03,3.141499663465356362e-01,4.461914260061740078e-01,-8.379874760418841717e-01
1.735792039402485443e+03,2.650516655553587043e+03,4.579619684655118590e+02,1.335527726451447850e-01,-4.598451002102555973e-01,8.778987075576625276e-01
2.363127833037754954e+03,6.342906805040202016e+02,2.494201260827828719e+03,-6.246649615556368884e-01,7.789469835441515944e-01,5.509339917051669921e-02
2.786120415177287668e+03,2.187211339209453854e+03,1.798437158668316442e+03,5.278674375714945688e-01,5.705843620467878630e-01,6.291179969921099069e-01
2.906036393343257259e+03,2.385488947809796173e+03,5.709665717367286106e+02,3.421248306878563183e-01,9.121586029380338578e-01,-2.256485836714692272e-01
5.176796999668068793e+02,4.425748614028839256e+02,1.066353669206850100e+03,6.112303711700535214e-01,-2.185752961723021470e-01,-7.606722508824080853e-01
8.203883360328434549e+01,1.187168919832145548e+03,9.902909658141724094e+02,6.445433815823141399e-02,9.762365582854162227e-01,2.069005088433315542e-01
2.596551617487439216e+03,7.136966143835035155e+02,1.511772080509277430e+03,2.104621687834837551e-01,5.210175137196760842e-01,8.271918918294107748e-01
6.861561807788907572e+02,1.198070313290722424e+03,1.432169032412267597e+03,-8.468000760763764179e-01,-2.407191552338811824e-01,-4.743246983454789678e-01
1.372450985801445313e+03,1.443843816637563350e+03,1.661932584773808230e+03,-6.953700142548573382e-01,-5.317531372670496470e-01,-4.834243935527560154e-01
1.814902087682508864e+03,9.135113396176221841e+02,2.943832297696377282e+03,9.716124833799120175e-01,4.869282275641004937e-02,2.315128315068801790e-01
2.471379994675757644e+03,1.156482174961040954e+02,1.558775176016830073e+03,-9.918700551205552607e-01,1.272017674350845451e-01,3.674794761269862143e-03
2.134333066769798279e+03,1.164941230478031002e+03,8.571339203175632520e+02,1.246770598864267721e-01,-3.406755732348373811e-01,9.318775587700303120e-01
2.617798634319134635e+03,6.008456222862912455e+01,1.198153611697624683e+03,6.147346290042389194e-01,7.783118495178108498e-01,-1.277967167152019023e-01
2.328032883128471440e+03,9.414056911146764151e+02,1.720361432709078827e+03,-6.344215286740501059e-01,2.667700253237718644e-01,-7.254950568705726965e-01
6.484350732953112129e+02,1.037724686480725950e+03,1.754247814437811712e+03,-2.565452412457062681e-01,-5.287737663079644657e-01,-8.090629414691248300e-01
1.570261655500323741e+03,1.398453616225636097e+03,1.411946221181814053e+03,-7.059007223863973668e-02,-7.059428367729104759e-01,-7.047423308631031169e-01
6.412200147390398115e+02,2.377214891150150834e+03,1.152566098017978646e+02,7.984275413358841167e-01,-2.937558446372732224e-01,-5.255672792114987057e-01
9.810883611739759544e+02,6.938236417084497987e+01,1.718166857800766820e+02,-7.630678375596828822e-01,-6.420749293309696570e-01,-7.394092511336203266e-02
2.046614631128746851e+02,2.296058155533586614e+03,1.076453544416218193e+02,-4.771967778653884440e-01,4.535640327860037124e-01,-7.527037288055560271e-01
2.285170254867857238e+03,4.831167725221672526e+02,1.761703477648818762e+03,9.170529914462135501e-01,-1.258951967456856114e-01,3.783704670239423362e-01
1.081933055778095877e+03,1.283345262524335112e+03,8.382977789255455718e+02,5.586490973409649063e-01,4.694250582290993568e-01,-6.837772303511808758e-01
5.034108047637342054e+01,1.622284079212358392e+03,2.638569556320674110e+03,-6.919098952523949908e-01,6.756446293482699650e-01,-2.544897477004897657e-01
2.715554273878179288e+02,7.047150331699815524e+02,2.061737985436136569e+03,1.067627323172210541e-01,-5.479543507442921069e-01,8.296672516669334474e-01
1.908825851732734691e+03,2.917325110205210422e+03,2.703139609370077324e+03,-3.383022317909822885e-01,7.183380480011707092e-03,-9.410100950628106364e-01
5.499322572993223730e+02,4.984707496895446610e+01,1.032186358695385934e+03,-5.931964369524720532e-02,-8.967294083547366901e-01,4.385858502774946932e-01
2.250326265599582257e+03,1.592528521225054419e+03,5.565276443838573783e+01,2.756722751378035130e-01,-2.426396178038121021e-01,9.301240845136562463e-01
2.915906593522841831e+03,2.735935396554617000e+03,3.174523635440085201e+01,3.237627421931799088e-01,-8.671247064855737152e-01,3.785134478058347907e-01
1.236596548979204272e+03,1.972274290776134876e+03,1.775134180813210605e+03,-4.062530302033566243e-01,2.841326396807425936e-01,8.684625026554939620e-01
7.586343464178302156e+02,1.302603004915713427e+02,1.785651990705992603e+03,8.916547439331757863e-01,4.526815034348189992e-01,-5.592322366842372716e-03
2.296293235226331490e+03,3.782627124980132294e+02,1.847286667973112344e+03,-8.472977311129750166e-01,5.298432758890063710e-01,3.677849706025360793e-02
5.916021337366452144e+02,1.364772557873921642e+03,2.392028653160370595e+03,-6.916187082406837217e-01,8.905592853920170360e-02,7.167514241377610507e-01
1.936191340607188351e+02,1.933047616453395904e+03,1.735573731944171413e+03,-6.689108963743350955e-01,3.966091601306105940e-01,-6.286965777003841183e-01
1.768348885367183129e+03,9.524228306673393263e+02,2.659488277250700776e+03,4.747554323633352835e-01,8.052666224396486105e-02,8.764261156020791699e-01
1.244815694900582002e+03,5.221032399187897255e+01,2.209962886813602836e+03,-3.290051967981287295e-01,-7.809883767892421558e-01,-5.308603731678692705e-01
1.347564493424634293e+03,2.706159362018490356e+03,1.201653409985632379e+03,2.211951988947186143e-02,1.697162211688092170e-01,9.852447062085840646e-01
1.595627964496177810e+03,7.133165796720099934e+02,1.316765398945942479e+03,-2.691499347657569929e-01,-2.345696243403540826e-01,-9.340960357224592503e-01
1.972011567330323260e+03,6.397089598023409280e+02,2.229853846291267473e+03,-5.703272253652876822e-01,8.134797970402781742e-01,-1.139187245997794889e-01
2.224924297055725674e+03,1.393511985190794121e+03,2.046056331578263553e+03,-4.700824315302100098e-01,1.615447798333042584e-01,8.677129661790554671e-01
1.772047458046492920e+03,9.407338936789184345e+02,2.696453843398884942e+02,-6.224604707598380832e-03,2.116218494194688493e-01,9.773317999249373500e-01
1.374709082297271380e+03,2.189797407320893399e+03,9.907214476352876318e+02,2.035485687052170090e-01,-4.596700958888536581e-01,-8.644486006256182353e-01
5.171189745474755455e+02,1.663340404751370670e+03,2.900069289663621021e+03,1.974493001204506992e-01,6.027644184249844050e-01,7.731033758578049753e-01
1.513032216470083313e+03,7.149195743914392551e+02,2.432641802252620437e+03,4.101966830949007048e-01,-8.402578819837029922e-01,3.545495352446582094e-01
1.788952369691710601e+03,7.728102798852975184e+02,2.255554953824830136e+03,-3.248336049389708435e-01,5.823253440045706997e-01,7.452384335448025698e-01
1.790956355812806351e+03,9.387874724802902620e+02,1.228869497458305659e+03,3.082030841857358316e-01,9.504455873237211971e-01,4.079270075965735209e-02
5.378235496744365918e+01,7.198967587911636201e+02,1.927538142643895981e+03,9.473838700679382274e-01,-5.017620931082462932e-02,3.161426114181578595e-01
8.537467105549026201e+02,2.930417969435100076e+03,2.442281101440760722e+03,8.640659199030450432e-01,-1.167610840062807825e-01,4.896498088672995852e-01
2.406102704055912000e+03,1.644875812802937389e+03,2.992969846143207178e+03,-3.601950834807943203e-01,-9.126125766411435913e-01,-1.933850738621687437e-01
1.761228502026790238e+03,9.024515108338249547e+01,2.917080350971791177e+03,-1.525593139021278188e-01,6.529528869513874234e-01,7.418747759315993395e-01
2.706930585515829534e+03,2.208421218111716939e+02,1.277236605675705960e+03,9.074800435113306030e-01,-3.399670464733243747e-01,2.467840714893851928e-01
1.096001249576827874e+01,3.785326313100036941e+02,3.528187578313183508e+02,2.220197833632619466e-01,7.981374574069317607e-01,5.600748297141449061e-01
5.230356227261079312e+02,1.183198935908826343e+03,2.349335527370711588e+03,-4.138557732356138441e-01,9.058319543555116704e-01,9.050894667394171478e-02
1.637362356235867992e+03,2.507056023394690385e+02,2.068769239491982717e+03,-4.661002812768196835e-01,-6.923124638673826547e-01,5.508665720186183279e-01
1.967793651010442090e+03,2.226494408212611688e+03,2.199807019838066026e+03,2.439800761107676352e-01,5.711562562532045417e-01,7.837437421784035907e-01
4.037679570047459947e+02,2.798797967313859317e+03,2.211212215834654842e+02,-8.368616177262463429e-01,-2.791058056045147562e-01,4.709167464153987126e-01
2.521499467625635134e+03,1.608087996330634951e+03,1.168947883758573653e+03,-3.645412984634894271e-01,8.149641898291800635e-01,4.504919655339274520e-01
3.098297738716286744e+02,2.402755491164661180e+03,1.174513431824769214e+03,-9.764728516823680815e-01,-1.771593017806061265e-01,-1.229445066683021448e-01
6.894158610380662822e+02,1.861285020355034703e+03,9.016033225037481316e+02,4.037870813136053560e-01,-6.543518372315257903e-01,-6.393587929136241854e-01
1.444500481624909980e+03,1.072144063381007754e+03,1.783516778802674096e+01,-4.400449799254532723e-01,-8.793812879100431079e-01,-1.817937460862759647e-01
6.031759479209031127e+01,9.428933933709855637e+02,2.472699960917381304e+03,7.198389019707083225e-01,-5.201621821620024955e-01,-4.596338319337129885e-01
9.652565818152514510e+01,2.808893028677191069e+03,1.273408056570790222e+03,9.311821039779301090e-01,1.974590343407273962e-01,3.064470900309919088e-01
1.376344360661386190e+03,9.875804447235003636e+02,2.241770395024105710e+03,1.353662737190425014e-01,1.549322532250691636e-02,-9.906744833236229564e-01
2.512009842584716807e+03,1.513924447486416739e+03,1.103225029952349587e+03,-2.019709898301753070e-01,-9.776120408698212305e-01,-5.901200567140896247e-02
9.099222058081876412e+02,5.014088927746716990e+02,1.913989943396716626e+03,7.381181972626023047e-01,6.638307215619780877e-01,-1.204587065359317144e-01
2.222300918331279263e+03,1.360284216512725607e+03,3.933409482190098743e+02,7.673139627004175178e-01,-2.789652283867055660e-01,-5.774146551622462153e-01
5.746501263806695761e+02,5.246676031897040957e+02,9.211505384204923530e+02,-6.625430898252943068e-01,4.589182123389680679e-01,-5.919718984110291515e-01
2.533344563647859559e+03,9.534813810691265417e+02,1.453606015751591258e+03,-2.299394436742206813e-03,-8.088484249499930945e-01,-5.880127024487989962e-01
1.148988882692272227e+03,1.715558163626046962e+03,2.898186741513420088e+02,1.288672548286559638e-01,2.635474504790876193e-01,9.559999853446123907e-01
5.396963105862489556e+02,2.178007339866028360e+03,7.343450465315622750e+02,4.588958749381032154e-02,9.322737313587865504e-01,3.588312076422746633e-01
3.828544343247631900e+02,9.488200991876809667e+02,2.085441034323083386e+03,-2.568048914912623437e-01,8.009927507482181852e-01,-5.407974306105418627e-01
2.453566919791633154e+03,5.292377968875987335e+02,1.701297421072211137e+03,6.016472312999977534e-01,7.974792924904142710e-01,4.524806203623854550e-02
1.516500006887251857e+03,2.116560626022594988e+03,2.725365147715489456e+03,-1.844636777659763166e-02,9.853241637778695772e-01,-1.696939120631400233e-01
2.132992643132428839e+03,1.769308412162254854e+03,2.640349520190379167e+02,-9.018996089729980348e-01,3.814442393066429515e-01,2.026755723666022746e-01
1.180205956959302739e+03,2.267509351646413961e+03,2.163613032007359834e+03,-9.732381737742126782e-02,6.519260002269298138e-01,-7.520110137486042401e-01
8.803989362222160935e+02,8.436333184233403699e+02,1.298742842927469610e+03,-2.690529683649119375e-01,-6.261215476974072436e-01,-7.318348910259970808e-01
1.158537419056258841e+03,5.137218570723540552e+02,8.569826843214159453e+02,4.427325963567516759e-02,1.095983354966799106e-01,-9.929894678885518022e-01
1.076769582512695706e+03,2.269861756115173534e+02,1.135613932733495176e+03,-7.449742775368289882e-01,6.407045987806037068e-01,1.857712111977130043e-01
1.134347337869819739e+03,1.728613358974116636e+03,5.851717806294522006e+02,-4.245803276656077152e-01,2.085684443484514539e-01,8.810395844577201263e-01
4.064650143610996338e+02,3.526539562060192452e+02,1.390210837259157870e+03,-9.316803339994288169e-02,5.151372930049408216e-01,-8.520289237507896463e-01
1.596782970072816624e+03,2.614911980868026149e+03,7.814021619592891739e+02,6.249230626639573627e-01,4.162170845866279278e-01,-6.604805101204027640e-01
7.865401841899055171e+02,1.504674592291913768e+03,1.935719930555490237e+03,-3.615656435664194035e-01,7.855565441825026474e-01,-5.021665075295691505e-01
1.146988301815711566e+03,1.231712023389049591e+03,1.409196440709505396e+03,4.728464131741677567e-01,5.671483453953279907e-01,6.743582311084117542e-01
2.375807506273843501e+03,1.573621605842357667e+03,6.997234874437840517e+02,-1.569368107361565623e-01,-8.316468419398318490e-01,-5.326672204364260033e-01
5.868271779445504990e+02,1.781212177810951971e+03,2.459288112754984013e+03,-8.384580052529146954e-01,1.043952933389361154e-01,-5.348736263417565029e-01
1.885676084199510797e+03,2.206854307219654856e+03,3.464541873977070736e+02,-7.151819859283753411e-01,6.604156941347524290e-01,2.288358318621850351e-01
1.688680866919019536e+03,6.879199396123344741e+02,2.342058843854816587e+03,1.886384306231206343e-01,-5.846583842348581639e-01,7.890437986803591208e-01
3.484784644692139182e+02,2.312261220919187508e+03,2.922747590837724601e+03,2.117622912124084988e-01,-7.638847979630605245e-01,6.096201665475029507e-01
1.918960782431581720e+03,1.211001730556174152e+03,2.716997244389383468e+03,9.424054125052263586e-01,3.062457936155333835e-02,-3.330678213514211561e-01
4.458753817985095225e+02,1.997619843606746599e+03,1.510222028263857283e+03,-1.245511594048438059e-01,-6.974393969628474022e-01,-7.057374131042004617e-01
6.874758915990986452e+02,2.690842416806385245e+03,2.762027100548973522e+03,-6.493961702472634823e-01,-8.733578766831516516e-02,7.554184762504436712e-01
2.679657242217291696e+03,1.896496235487216154e+03,2.022235914650254927e+03,8.502432065806158068e-01,8.391722446954166803e-02,5.196579539474410758e-01
2.893523131173479669e+03,1.210047787070420782e+03,2.354779594175715474e+01,9.576744552378380071e-01,2.876563830874196426e-01,-1.065096493159445497e-02
1.951693860415517065e+03,1.200009631311465682e+03,1.756171311614946944e+03,-3.744616047034363127e-01,-8.281431717571521856e-02,9.235368403445785024e-01
1.123226557176352117e+03,4.167923043486375718e+02,2.863917561627894429e+03,-7.571571597998190128e-01,-4.602691355816193042e-01,-4.635357140445819923e-01
1.103194980458239570e+03,2.559439296965698816e+02,1.493317416658666616e+03,2.225993300953658105e-01,6.788296957546472443e-01,-6.997426544114253577e-01
1.886930412933223124e+03,6.394292588026798967e+02,5.826378440682613018e+02,4.499224259528316616e-01,8.770313309140479463e-01,1.684810233226657072e-01
2.053569334293358679e+03,8.036035527282587054e+02,2.903427895076657933e+03,-6.449714757488563821e-01,6.932191345256024650e-01,-3.216504733370013636e-01
9.405358522662954783e+02,2.095326352986477104e+03,2.012925738834087269e+03,3.532409197317220584e-01,-1.079566425016095788e-01,-9.292826351368386195e-01
8.241777879403572342e+02,8.397283506672039266e+02,5.196154953723876133e+02,1.034218357595188958e-01,9.919320632184153164e-01,7.331238536147099971e-02
2.121744569019054325e+03,2.134237587066772903e+03,6.367692156472721763e+02,3.017603826004287559e-01,9.203950100958299685e-02,-9.489306622439543926e-01
1.691387829996930918e+02,6.207677911195575149e+01,1.950863240696294042e+03,-7.878996241599672823e-01,2.777544035288815882e-01,-5.496059257039516144e-01
3.474577605349993092e+01,3.810042764144691887e+02,1.586528744029328209e+03,-6.504429248989869183e-01,5.179225705373777799e-01,-5.555899678511175832e-01
1.955931559653378372e+03,1.806376198188265562e+03,1.494147148337479166e+03,-6.825955574718066687e-01,6.800318752456377958e-01,2.676190456033631926e-01
3.847985055680397295e+02,2.007370515374170509e+03,2.694684052334511307e+03,2.144775340776065575e-01,-8.489748449868502744e-01,-4.829504114870828424e-01
2.769399426881258478e+03,1.965575119341647678e+03,2.947462638088917629e+03,-9.912393142435268478e-01,-1.243592331154964592e-01,-4.449048254344201148e-02
2.280318183677404249e+03,1.067751999940437145e+03,7.782546098356024800e+01,-6.029230451032551175e-01,-5.172547940065839178e-01,6.073971351271132413e-01
2.185016264901270461e+03,2.474809974233375669e+03,8.379505208264080238e+02,2.987647525984878372e-01,4.815947735938626018e-01,8.238968968577564667e-01
2.815920462959167253e+03,2.846782107728721257e+03,2.548790851439246580e+03,-3.223626588706770546e-01,-9.263533103064806040e-01,-1.948123729388171466e-01
2.660324688559657261e+03,5.206322798073090325e+02,2.184294098199905875e+03,-8.341927037449285987e-01,5.503537617353068123e-01,3.511794359758303036e-02
2.874358292360547239e+03,1.226784127231874663e+03,2.628976376548855114e+03,6.219858409455832765e-02,6.485046772711733354e-01,7.586652883149744842e-01
1.120028774254968624e+02,2.342817249011125114e+03,2.317325610606596911e+03,1.398024588055612749e-01,9.328229678086931154e-01,-3.321092941194225823e-01
1.115795837838023914e+02,2.796194874368803539e+03,1.456597468949084657e+02,9.996398993928569312e-04,-2.398450007093007492e-03,-9.999966240731190670e-01
1.275175442564966033e+03,1.418932165873438180e+03,1.017251507811416559e+03,-4.434630760881566602e-01,-2.143780847189878103e-01,-8.702772758946704101e-01
1.198839782396700144e+02,1.293709985488348821e+03,5.341324798081248382e+00,7.465630497927524534e-01,5.814554887781862025e-01,-3.233467600794304175e-01
1.270924223186373638e+03,4.900572922767963746e+02,2.838879176799251582e+03,-3.331497272865293624e-01,-7.831895498917204046e-01,-5.250003696658848140e-01
1.962818799798943473e+03,2.557496994342046492e+03,2.222795526412695835e+03,2.287378735384073825e-01,-2.086135043494209418e-01,-9.508729626044594152e-01
4.991794114297463238e+02,2.144790134692013908e+03,4.781594712388142057e+02,2.000325826004988317e-01,-2.032096335442685753e-01,-9.584846429301716597e-01
1.041819591143180787e+03,1.110147408448574197e+03,1.788521911626064821e+03,-7.158852767704940723e-01,6.557509095569811208e-01,-2.397895225367972227e-01
2.581251080664638721e+03,1.236557685670702995e+03,2.612772593773648168e+03,-7.757528492790164432e-01,-2.002438404614914902e-01,-5.984228615224524983e-01
7.625676836731414596e+02,2.888245120645713087e+03,1.651906318555887538e+03,2.313702194585974536e-02,9.687176593841939631e-01,2.470845495223968069e-01
6.312138836328271054e+02,1.641551542231355370e+03,1.908351551455291883e+03,-6.914364730144795246e-01,5.651151863431599365e-01,-4.500671393799294262e-01
1.936066477177799698e+03,2.684326528733612122e+03,1.925671020350486060e+03,-6.919033803498663149e-01,-7.167681229782847385e-01,8.667854488058024387e-02
1.195037720810566725e+03,1.999355180318976181e+03,1.119431315537095315e+03,-6.018187593693731241e-01,-7.169242662868441363e-01,-3.519002376813331612e-01
2.617843082459253310e+02,2.561706755512445852e+03,1.513891742828751376e+03,-9.698356673911557868e-01,-8.749157730145717959e-02,2.275170370703139266e-01
1.000865138726295527e+03,2.874040523972170831e+03,9.025245880826583971e+02,-6.276143376924487871e-01,4.057923107787895223e-01,-6.644041267449197763e-01
8.161547129566719150e+02,5.560759537774118826e+02,1.662871631198469458e+03,-9.814369998998651035e-01,-3.639441294013492229e-02,1.882999254760744368e-01
2.913688912743915353e+03,3.555591870925954936e+02,2.897012111442007608e+03,-2.507962032016723963e-01,-9.607319191800637315e-01,-1.187242347973534035e-01
2.905315670907979893e+03,3.730357389567059272e+02,1.595785408885721608e+03,-8.673135291942033476e-01,2.599302025082557699e-01,4.245038655898354385e-01
1.954109854052751416e+03,1.521066525115032618e+03,2.520536692894756925e+03,3.620735136437878143e-01,8.672021751372016585e-02,9.281068767076423587e-01
2.826704722045659310e+03,1.344035367675245425e+03,2.974253530432590196e+03,-3.993857094081736947e-01,9.153149891180640818e-01,5.186063841034016519e-02
2.456861399617865573e+03,1.751245546599496265e+03,1.077865053304945377e+03,8.357999479620655814e-01,5.484073507734975594e-01,2.622641043304341224e-02
5.862572489901995141e+02,8.377674667294764959e+02,6.187595771246068352e+02,4.303565238638595858e-01,8.014257296108399098e-01,4.153433065375535804e-01
1.852340592343876096e+03,2.140863471159135315e+03,5.593767202564074523e+02,-4.525949191451791170e-02,9.689847678198777459e-01,-2.429405238421480373e-01
1.657444637082177223e+03,1.763185058080256795e+03,1.884230899863914601e+02,-7.334050801283836796e-01,3.316098340087567792e-02,6.789825753447329415e-01
2.612182717927888007e+03,9.645330569638292673e+02,2.282279009678256330e+02,2.361378806973362943e-01,6.921107156841646013e-01,-6.820715934085834764e-01
2.846770349435171738e+03,1.717299561518071641e+03,2.410852668204370730e+03,-6.852544865558480858e-01,-4.966052713135826746e-01,5.327377339354179009e-01
2.516664614620737666e+03,1.904041669117690162e+03,1.509504338621046031e+02,2.821697807746012532e-01,5.235443732913620529e-01,8.039163538656048935e-01
8.621061520072838675e+02,1.919637119905975851e+03,4.009323438266424660e+02,2.222766044158707710e-01,7.910869373831039830e-01,-5.698899618620874019e-01
1.836760009541359295e+03,1.498522527657395358e+03,2.512694421523357050e+03,-7.574790572271438149e-01,-5.221689064320459428e-01,-3.918738457945856180e-01
3.646570511887899784e+02,1.486395619372648071e+03,2.828551269265496103e+03,-1.838650314218418236e-01,4.439146663373726431e-01,8.770025195122441719e-01
5.227015119253406965e+02,1.440607611574681869e+03,9.619057790862088950e+02,1.557744236751723299e-01,9.767534560522271869e-01,1.472651181329034387e-01
1.469105238297124743e+03,8.327253392927329969e+02,4.051639294267840228e+02,4.168071531463233281e-01,5.799364362927725836e-01,6.999610895943404465e-01
6.175323079405145563e+02,2.220782275199451760e+03,2.609880327624389338e+03,1.909936700765704209e-01,-4.533655927949566955e-01,-8.706210755893517561e-01
2.642624313389871986e+03,7.713455528915704917e+02,6.631360180431595381e+02,-5.555476625685777936e-01,7.745743601679074830e-01,-3.023265704252052211e-01
2.024660799713083634e+03,2.905210832254591423e+03,2.861055278904790612e+03,6.262027207283362706e-01,5.731064398187936115e-01,5.286011361987947854e-01
7.179220933532714071e+02,8.340266730300410245e+02,1.420774899481008788e+03,2.026336995670624253e-01,-1.865920972148494839e-01,-9.613131503608642880e-01
3.197179028784278216e+02,4.348402394452529620e+02,2.566965707015721705e+02,2.599127636753431059e-01,9.655713671111547658e-01,-1.083006434610855884e-02
2.764629462579629489e+03,5.861528392462084867e+02,1.539257257369838726e+03,-3.219264220244283381e-01,3.401668697872728964e-01,-8.835439318458806479e-01
8.472065219847935680e+01,2.898597432257715809e+03,3.995093914998298033e+02,7.763824004323320871e-01,-3.009731053286469615e-01,5.537558651317033842e-01
9.729823469665723223e+02,1.857636684560760386e+03,1.740437936229216803e+03,4.891507982409546984e-01,-6.922867157429087870e-01,-5.305380285956264874e-01
2.402956450320601562e+03,2.712518575052443339e+03,9.518074661403634309e+02,-4.346940225853331841e-01,-8.906253893885097694e-01,1.335197457500099383e-01
2.208143445584620622e+03,1.867021443871824431e+03,1.461461546640430697e+03,1.842332474119045826e-01,9.028644443989541912e-01,3.884506475580029594e-01
1.317934378140267881e+03,1.113129212549461045e+03,1.232752899134624840e+03,8.981205393510370838e-01,-2.999598714094113827e-01,3.215642584925318403e-01
9.783397686325928362e+02,2.446994805931973133e+03,3.902463532526159042e+02,5.933496951197585467e-01,-5.542171869295391406e-01,-5.837631788775290431e-01
6.766208707348091593e+02,2.688441842063123204e+03,2.785932913557128927e+02,-4.051410919067152672e-01,-9.141411709649839290e-01,1.437411546504718807e-02
2.722264357454999754e+03,2.197396728521702244e+03,8.919592243676877388e+02,7.262136430473134507e-02,-3.755307200509604426e-01,9.239603972814671717e-01
2.614868202631044824e+03,9.143918968535510885e+02,2.475440586049261128e+03,-2.431110207877031637e-01,3.276110742214004556e-01,-9.129994609084175483e-01
2.553602902769907814e+03,1.370842211514570863e+03,8.453797844917091879e+02,-4.531482405124905299e-01,8.799202755463363390e-01,-1.428179988758202790e-01
1.205290138460523849e+03,8.788482275825250554e+02,1.819239728814219234e+03,9.730017869965333910e-01,1.034804570808235680e-01,2.062990971960290132e-01
2.765722526286738230e+03,2.237316139707867478e+03,2.880283350274007262e+03,-2.321707348771041290e-01,-9.640187695224067266e-01,-1.294780362653458194e-01
2.236168891438030641e+03,2.067893460109204625e+03,2.721481822286700208e+03,3.179653670014033207e-01,-3.821649952171735642e-01,8.676681057975570432e-01
1.255430102744801104e+02,1.594611311672087822e+03,2.750621761838265684e+03,9.252100834430163623e-01,3.239911437711752717e-01,1.975247838961287361e-01
6.815519891546715598e+02,1.350882352815164950e+03,5.220362136817524856e+01,5.687567283269973073e-01,5.166853439081676713e-01,6.399625296634708915e-01
2.587888132665066678e+03,1.071537440854755459e+03,4.975204178388385117e+02,4.308559242806092593e-01,-9.022230110806740422e-01,1.888943590539216011e-02
5.344553228353203167e+02,2.612250975295477929e+03,1.676353622978333306e+03,6.058357112520166288e-01,4.476186705814987066e-02,7.943295702850498019e-01
1.801655596662953485e+03,8.484515324186770613e+02,2.357037513116170430e+03,-8.423413820687600806e-01,-3.662625901012350749e-01,-3.953640235869038122e-01
6.290214444608080839e+02,2.798185261272178650e+03,8.676866296707619313e+02,-9.733526824383216258e-01,-2.292978634985878561e-01,2.654314432546600599e-03
6.717261059781318409e+02,2.492126644115045565e+03,1.316204739931918994e+03,-6.096862877529909963e-02,6.541498104441064720e-01,7.539037417344467418e-01
1.536921439137749076e+03,4.083075618349035949e+02,2.159285913066007197e+03,-8.226333853431377907e-01,-5.413314667353807952e-01,-1.738808685307553503e-01
2.278026447418058069e+03,2.741368753538685269e+03,2.712336461465481989e+03,1.676339037359824979e-01,-3.342273686474383498e-01,9.274647919814771324e-01
2.446194409927665674e+03,5.323656867964621142e+01,2.460645492842586009e+03,2.227867615240941568e-01,5.386241498187761545e-01,8.125577420230559733e-01
2.853846391830681569e+03,1.153978780293733962e+03,2.830896080697772504e+03,6.101565271631648191e-01,-7.450385282746092575e-01,2.694932350664678289e-01
5.879452444431658478e+02,2.068225695350586648e+03,9.848673481268522210e+02,9.179080985635509338e-01,1.937742155871318983e-01,3.462604163993314721e-01
2.377931030172892406e+03,1.465196153783191221e+03,3.199848454978172754e+02,4.901525460964362702e-01,-8.550783396041645723e-01,1.690902560615661354e-01
2.595724255707432803e+03,2.768658677522982430e+02,2.138420878585242917e+03,-9.909483466982487165e-01,5.798533555443104864e-02,1.210746671961049348e-01
3.622201853677416921e+02,1.366927647516617526e+03,2.966712331838955834e+03,6.343577909442936758e-01,-5.831098284783190477e-01,-5.075166214029461775e-01
8.477356761537907914e+02,9.953302601512214096e+02,2.933465432022472214e+03,-4.774212474617484103e-01,-8.512934359002687357e-01,-2.176429150355763120e-01
9.574219339330193179e+02,2.193200764017128677e+03,2.330000759466594445e+03,-4.761017055527769215e-01,-3.883522785084779216e-01,7.889928223672320051e-01
2.926119019273859067e+03,1.089512738495365738e+03,1.010259492207991570e+03,-7.678854210387481283e-01,5.755624623684956198e-01,-2.812113654681454578e-01
2.126714107732571847e+03,2.410446611613878758e+03,2.872213513260664968e+02,4.891400856338257719e-01,-1.879469488361175666e-01,-8.517146946303835175e-01
8.744659866739742711e+02,2.883301003934864184e+03,1.684799386784497301e+03,-6.895396675747365034e-01,-5.575639711503147522e-01,4.622309649039245127e-01
1.006067246290143771e+03,1.774511159081308051e+03,1.294157226033906227e+03,-7.008044833585296285e-01,5.437240528278513008e-01,-4.617761692433255405e-01
9.329199157447192192e+02,2.625366426446042851e+02,7.677084518206200983e+02,5.363065597150104002e-01,7.479505227445520932e-01,3.910822030376748248e-01
2.695664065292114628e+02,8.982646837621329041e+02,2.744799234431450714e+03,-2.022196112476994101e-01,-3.698461710017387216e-01,-9.068191873919420054e-01
3.583927226396828019e+02,2.728232930849322656e+03,1.827437580085754234e+03,-7.702069046059089041e-01,4.318479981839501991e-01,4.693491563451450688e-01
2.225119341446234557e+03,8.223471903289569127e+02,2.911671136822841618e+03,2.184173557231160537e-02,-8.782251950907253857e-01,4.777483074748110070e-01
2.528365318379205291e+03,1.649343154140347679e+03,6.958924582012731435e+02,-7.331371089105371830e-01,-6.056656467207395256e-01,3.093203904055590314e-01
1.459948054663146422e+03,2.510714650934330166e+03,2.363702136287370649e+03,-9.013311843284808056e-01,3.961036464665589341e-01,1.752255615283155876e-01
1.113620581752170438e+03,2.057404902120830684e+03,2.091098830223063032e+03,6.985940845739749827e-01,3.233907780907702145e-02,7.147870235564635077e-01
1.510635138316603843e+03,1.180974912362410578e+03,2.266381190601714025e+03,2.573452873087545001e-01,-1.058116793265096583e-02,-9.662615805180063688e-01
7.974026591427517587e+02,4.920536118942068242e+02,2.255106796887861492e+03,7.745314129353698673e-01,-2.736174784058371112e-01,5.702934033347841769e-01
2.980195482322214957e+03,2.004770595415805246e+03,1.868363616880780683e+03,-6.774933014635109441e-01,-7.305918071469590380e-01,-8.507900917272670505e-02
3.672762430407153715e+02,2.340680380741388490e+03,1.596110270642294381e+03,-5.994692168252629960e-01,-6.837830654434100541e-01,-4.160256933071793672e-01
8.868219639610141485e+02,9.784606553950430907e+02,4.391566383462603085e+02,4.525436894350106098e-01,7.499264914710203067e-01,-4.825085144767027878e-01
2.251096226456439126e+03,4.677251570826225020e+02,1.147592457764688788e+03,8.371465483141727892e-01,-4.997712186616146135e-01,-2.222934673874854550e-01
5.218998403769583092e+02,4.279419541669789737e+02,2.218608954292262297e+03,9.463540580671231384e-01,-7.386695579584086346e-02,-3.145753798715713589e-01
1.762230325135930116e+03,2.553782449540499783e+03,5.567931179361740988e+02,-7.165954579464203222e-01,2.834581079830642003e-01,6.372930649781320955e-01
9.746006258046216999e+02,1.989405866329426999e+03,1.292687991165007361e+03,9.334705649369339220e-01,3.184357398373334203e-01,1.650193442920300235e-01
1.293946570485977873e+03,1.257739517758763668e+03,6.245915915330604093e+02,-2.280709597061734706e-01,8.896608569111678078e-01,3.955846268736838423e-01
1.605907111692808257e+03,8.457912226319467663e+02,2.535210680227400644e+03,5.635464395515314973e-01,-2.869477519331700699e-01,-7.746459824521727544e-01
1.649041572510713877e+03,5.028251738575261243e+02,2.449303618540622665e+03,-2.405678463246602727e-01,-2.043281323205946853e-01,-9.488820399064850086e-01
1.177656675314319500e+03,1.624319176421444809e+03,1.569384157711578155e+03,-2.526472264486177011e-01,-8.337821561978465690e-01,-4.908937715778137201e-01
7.961010401522626125e+02,3.000784910039217266e+02,2.016069168188661109e+01,-8.153183947074548188e-01,8.811503780814199105e-02,-5.722688663239758888e-01
1.496438417962116034e+02,2.428584424757103989e+03,4.174501549103012508e+02,-3.343955735421859365e-02,-6.153210691128963711e-02,-9.975447838683793034e-01
8.063214951502461645e+02,2.739607357366191536e+03,1.274784459328667936e+03,-9.760768444675477218e-01,1.793634914861513274e-01,-1.228931715603920338e-01
2.284645317178277764e+03,1.346247895471831498e+03,2.960099307187285376e+03,-6.866222654826329430e-01,7.268793609372233844e-01,1.400925362004201702e-02
1.292826689619157150e+03,2.491799061226284721e+03,2.001603107554957660e+03,-2.193333340608991933e-01,-9.011166981878641069e-01,3.740074662580037956e-01
1.578519124305658806e+03,2.575804683440054760e+03,1.975569339658537274e+03,4.752411330672958734e-01,-7.814225703707968762e-01,4.043817898422352730e-01
1.996440611182226348e+03,1.545345359307279296e+03,2.978240285636643875e+03,-9.774341576644429708e-01,1.399105513538407286e-01,-1.582640358725420082e-01
1.290813312910684317e+03,2.302589442490277179e+03,1.586453477203581770e+03,-4.744030042748267340e-01,8.789337208340067820e-01,-4.916608501708208401e-02
2.263265009145059594e+03,1.478189722728211564e+02,2.258314165987492288e+03,9.250300754293679928e-01,-2.729439345179428544e-01,-2.642365761226155296e-01
2.619955055361397172e+03,2.088660337982177680e+03,1.645322608851795394e+03,-4.435883650273415579e-01,-7.981902317530226165e-01,4.075803188899412288e-01
4.465227695875848326e+02,2.886362761788039734e+03,1.081203097160624793e+03,-2.228514848166736895e-01,9.736865765420629204e-01,-4.766200139315746043e-02
2.715739747890268063e+03,2.211753331776631057e+03,2.027594343439047179e+03,-1.919800141487520151e-01,6.852588064003890811e-02,9.790035126851956981e-01
1.940699396470366764e+03,1.478019379392642350e+03,1.711154504850342164e+03,7.087924744794285026e-01,4.973773840338955449e-02,7.036614139625995135e-01
2.590362902387581698e+02,1.509753827583660041e+03,7.375554551519458357e+01,9.370559533480139480e-01,2.526049567072980451e-01,-2.410744203393397900e-01
2.309318080351036770e+03,6.289939115973063508e+02,4.139292368016120918e+02,-2.635334026347639913e-01,-7.819801063840069455e-01,-5.648515370567743776e-01
5.731458895932378255e+02,4.750606931875713599e+02,1.386162648527643796e+03,-8.155217579269272710e-01,4.376806399295362082e-01,3.786290001817689266e-01
1.077234411932207422e+03,1.008163804905377674e+03,2.227405006758564468e+03,8.915416728526752710e-01,3.485519376035512429e-01,-2.892490144492518844e-01
1.324036081475921719e+03,7.847602909508982520e+02,2.590225124956449690e+03,-4.051032505571597886e-01,-5.529575456231897723e-01,7.280997933843967873e-01
2.073072989730748759e+03,1.086601257126527344e+03,2.579308772698981556e+03,-4.870537214266166814e-01,7.889844189182136924e-01,3.745427334080482229e-01
9.645692973302957398e+02,2.704234587165547055e+03,6.841176025986452487e+02,-8.939723511866832784e-01,-3.838360146221623387e-02,-4.464752338624653483e-01
1.652622850617863378e+03,4.897398674854956084e+02,7.074353951876595374e+02,-6.320262917492983634e-01,-7.208949859259639048e-01,2.843469461844725932e-01
