x,y,z,nx,ny,nz
1.352907748770614717e+03,2.991146447263921800e+03,1.072094266567939712e+03,5.518755587312274002e-01,5.799845976756146104e-01,5.992088401668911324e-01
1.542858474193965606e+02,2.053114876865543465e+03,1.493063501181535102e+01,5.180276053501661065e-02,5.992905409786571103e-02,-9.968575537537380793e-01
1.286905544754902621e+03,1.789414497601925405e+03,4.215592113979649014e+01,1.954934414019519340e-01,3.727302468661681245e-01,-9.071132660478000709e-01
2.727684600380778647e+03,2.734540570786615717e+03,2.996296406816499712e+03,5.435782951162759780e-01,-6.746974291206995211e-01,-4.993055339332836962e-01
1.315970358408040738e+03,6.440465228816694143e+00,1.184470935189258853e+03,2.328506272048739556e-01,-9.706450495382773491e-01,-6.023929960691742913e-02
2.978307639172171548e+03,2.915513544030103731e+03,1.605891311409998252e+02,-4.739190477654126599e-01,-8.753931854634867671e-01,-9.532841658820290220e-02
9.525811128467705657e+02,1.317860879762363993e+03,1.262063429893873263e+03,3.321205282489611554e-01,-3.986112838970320982e-01,-8.548713348016709901e-01
2.105072704845324097e+03,1.754041477985753318e+03,1.885727767990440270e+03,1.684997005424941630e-01,8.243624925031884931e-01,-5.404020094994285150e-01
1.761275532065488051e+03,9.488664548186613956e+02,1.403940293471278892e+03,-9.342942160899330162e-01,2.093235662313141787e-01,-2.885792133905389356e-01
2.922061787819969595e+03,2.101106420384088324e+03,6.825684508849540180e+02,-3.752599945146772309e-01,-7.932067400712524696e-01,4.795862842308784568e-01
6.947389324624670053e+02,2.498829598251468269e+03,9.677584015098101418e+02,6.105732753711401450e-01,4.656797428251300830e-01,-6.405799345318885507e-01
2.338482548709383082e+03,2.855180582646385119e+03,9.869157807189051255e+02,4.763381513034188330e-01,6.766757952674232746e-01,5.614372927692294901e-01
1.778362682162834972e+03,6.428218101241382101e+02,2.042984134347576401e+03,-5.701843794922381026e-01,-2.962408506300783229e-01,-7.662448249750331009e-01
1.874700441329532850e+03,1.631188741463573479e+03,1.531812067349541849e+03,7.302668359317311397e-01,5.945299813116391441e-01,-3.365181267923618158e-01
8.508078438621590749e+02,1.597802308677265160e+01,6.767225260862101095e+02,6.910395325649600906e-01,6.259935626518216001e-01,3.613812722747007933e-01
4.145552212096442872e+02,2.027467275409781905e+03,2.837437499473744992e+03,-7.097808437709897111e-01,-2.771340799258070198e-01,6.476170593486696436e-01
2.737380487009846092e+03,1.949269489831671933e+02,7.652060956211688563e+02,5.103543451221784766e-01,-8.393331837399173878e-01,1.872384818564991615e-01
9.946907563647005190e+02,1.791892054056115285e+03,2.566479096006287818e+03,1.671361975260629573e-01,9.720078903711919516e-01,-1.651246575550537887e-01
5.196791974490585062e+02,1.035144021086007569e+03,1.661340365994871945e+03,9.216731718064535839e-01,2.214063966197859223e-01,-3.185871496279686355e-01
1.389300797739919062e+03,1.758135531875042716e+03,7.553919118554603074e+02,-3.757448565307157096e-01,1.772940458571695410e-01,9.096057520125451212e-01
2.609516961801313300e+03,2.193590769033270135e+03,2.292458899303566341e+03,-4.996661313161147588e-01,-8.148654667239521032e-01,-2.938163173759125169e-01
1.546228956489571601e+03,1.776275952091586532e+03,2.664817727490084280e+02,7.120240559164681127e-01,-3.760774537803217576e-01,5.929481364793824927e-01
2.138635473512321369e+03,1.612171859014181905e+02,8.288580630758083316e+02,-7.218876061673208389e-01,-6.017249084334611586e-01,-3.417680772581865867e-01
5.239593267306703410e+02,7.136916709395147507e+01,1.735260507030899134e+03,-7.985791953865092330e-01,-1.603349387942165916e-01,-5.801413414829961201e-01
2.604630807976404412e+03,8.453661620104224994e+01,2.238752695275952192e+03,-5.298565936001298216e-01,4.216656317225326855e-01,-7.358329193794638234e-01
1.094930848587710898e+03,1.783066324940672985e+03,2.032177923154302789e+03,-5.823638945289159041e-01,-7.081111124824241987e-01,-3.992880498186959226e-01
3.831778571490119703e+02,2.673783808093979133e+03,2.298931260309048412e+03,4.627764051148270941e-01,4.895467980811014086e-01,-7.390412243965411854e-01
1.418981234421417867e+03,2.768013587352805644e+03,9.300159432505915902e+02,-9.705403051081197274e-01,1.903774408694761111e-02,2.401855125954055481e-01
9.209633536688987476e+01,1.092407039690361671e+03,1.319273515031048589e+02,-2.810565850306790958e-01,-8.394743222279374972e-01,-4.650699499331660824e-01
1.250687938140919869e+03,1.198077120812947442e+03,2.811949668169312645e+03,7.435923436044515888e-01,-3.116465959300778188e-01,-5.915630361829871120e-01
1.265255964473051563e+03,2.497772077436675318e+02,2.320155534935559899e+03,-5.872821468410565071e-01,-1.021982188172205069e-01,-8.029042309468465977e-01
2.216539935072941716e+03,2.180655356812970638e+02,1.786602676633006695e+03,-2.119439829149871377e-02,8.320776900650332930e-01,5.542540168344293194e-01
1.576030955590831354e+03,2.491350953324261354e+03,1.381513499202546200e+03,-4.777547428780403727e-01,-6.777111384834254293e-02,8.758752661111584015e-01
1.162569624633129706e+03,7.778499210470057790e+01,3.790955322564794301e+02,-9.345478583213719936e-01,-1.959243107341367141e-01,-2.970420255961945255e-01
1.117061310278167184e+03,8.699841303500186314e+02,2.666510759231072370e+03,-2.507459347603105404e-01,-1.163447680579618726e-01,9.610360925307213087e-01
1.125449323639817976e+03,2.352319829220072279e+03,1.214866448915272031e+03,5.586963267286833013e-01,-8.008464782762505507e-01,2.156463139782440752e-01
5.578269130444408574e+02,2.467577952871429716e+03,2.780237120689501353e+03,4.098872988268477680e-01,9.098528294884159484e-01,6.449985218862110126e-02
2.085641233712065969e+03,1.338377205850648352e+03,1.361446503752916669e+03,-1.565685039011566471e-01,8.215115928273596380e-01,-5.482745721227713087e-01
2.174170903434258406e+01,8.351954220895785284e+02,1.700477370608193041e+03,-8.176346072389346631e-01,1.964417218488070938e-01,-5.411878592155490164e-01
1.034373472757479391e+02,1.884134910597020280e+03,7.536290680354682081e+02,-2.120532385480863591e-01,8.527601598266602023e-01,4.773191111129715392e-01
2.067354142446126843e+03,9.596154820334055557e+02,1.023363703904438808e+03,-8.900338238180927064e-01,-1.731349537690829443e-01,4.217393510725810923e-01
5.430426144993364233e+02,2.975155032123338970e+03,6.540851398073461951e+02,-4.538229372871810940e-01,8.812397306450946433e-01,1.321411318424221548e-01
2.913271154078453947e+03,2.756492483162158351e+03,1.245482493249267009e+02,-1.429527427617602875e-01,-5.245208871130269124e-01,8.393106411329795957e-01
2.115639572862375644e+03,1.059975602870699731e+03,2.406610029180053061e+03,2.657787521640887496e-01,8.811454868568846521e-01,3.910809198744472082e-01
2.068799618508895492e+03,1.091956163297429384e+03,2.257489096939037609e+03,-7.335723091717073485e-01,2.927576506367062792e-01,-6.133226110377516527e-01
2.083747180505929009e+03,2.096429660021557538e+03,1.579209115642498546e+03,9.252787138415041746e-01,-2.092048217491101481e-01,3.163742155560957947e-01
1.915464200943681590e+03,5.077429973562774990e+02,1.599251497770732726e+02,-7.248443575089309476e-01,-3.186270879249797905e-01,6.108006517906742205e-01
1.942643903666627693e+03,2.756052827334728136e+03,2.087319396232132362e+02,-2.139244303778602696e-01,-3.968985815804635386e-01,8.925849281871860441e-01
3.360618460659937909e+02,2.009509224231226654e+03,2.229492420172345646e+03,4.218688029734311007e-01,9.065973303824673701e-01,1.039199793820899664e-02
2.308620028251449639e+03,2.133809732968031767e+03,5.039526012283671434e+02,5.864859206190304874e-01,8.092204394238448062e-01,-3.459111640765377693e-02
7.680901687063748113e+02,3.643944560480982631e+01,2.946160456527551560e+03,-7.603921530244746041e-01,-4.752517750390691242e-01,-4.426505664076552105e-01
1.029037190771923633e+03,1.461299712607376478e+03,4.265595228397201311e+01,1.439518353699102693e-01,-8.307457626768351977e-01,-5.377167905953073035e-01
8.640053163249687032e+02,2.723674479730330404e+03,2.161627103399441239e+03,1.289501391680247244e-01,2.785320313736177056e-01,9.517309331462506794e-01
1.495705612337651701e+03,1.386568912800290946e+03,2.390538652190271932e+03,8.394117257266725529e-01,-4.292594772185959195e-01,-3.333530499794283841e-01
1.037907849904355089e+03,2.345028760618233264e+03,1.023618799319626532e+03,-4.529184851090236608e-01,-7.435427691850253762e-01,-4.919440986933487636e-01
3.917877075254978649e+02,2.773841166843319115e+03,8.118277969594633987e+02,-7.891524252740305112e-01,1.106862207884983101e-01,6.041415481587699698e-01
1.068602479864654470e+03,2.825629541254880678e+03,9.822361885426972776e+02,6.798278069183195660e-01,4.811875192857494321e-01,5.534371908575124177e-01
2.667782397501731339e+03,1.634173966008249408e+03,2.918207554920737948e+03,1.600752875877697046e-01,9.441496806137490427e-01,-2.880230596682298305e-01
4.448533621899803734e+02,1.860613052573141886e+03,5.075979848774322249e+02,5.752513517641519858e-01,-5.617946172344235878e-01,-5.945356930748090241e-01
2.445399144790369519e+03,7.999940650194774889e+02,9.381334023957865043e+01,-8.104088721201824219e-01,-5.742760100241534049e-01,-1.159505252236159439e-01
3.849648169353725393e+02,1.136776076006670309e+02,3.036171571256837183e+02,7.564141856721281476e-01,6.076567495205821290e-01,2.420554780955221919e-01
1.620729934193443356e+01,1.362644710697768687e+03,3.382671315573044808e+02,8.184210369407826091e-01,5.545611055585716320e-01,-1.504958022485314295e-01
1.740346120942274865e+03,1.960373370235258562e+03,6.450073397119341507e+02,4.737694971045717240e-01,-6.016770584907126240e-01,-6.430607909826605573e-01
2.351242696364536187e+03,1.220541240321628493e+03,2.785136989096449270e+03,-1.898302764773666385e-01,-4.160723915905676362e-01,-8.892964809829351225e-01
5.866719976531823022e+02,4.936827686813259675e+02,1.928827986695667960e+03,-6.592946211378610810e-01,-5.317205901016683889e-01,-5.316049441085153315e-01
9.906330982648456711e+02,1.342791312193644899e+03,1.766622439633230783e+02,3.202170497822514061e-01,-3.016664557987031592e-01,8.980302837179825470e-01
2.780119681111707905e+03,2.329208648534532585e+03,1.671600828594182303e+03,-1.563607226097191993e-01,7.776487650049473954e-01,-6.089447616255898588e-01
1.914634292734302107e+03,1.092979981455202051e+03,6.984509164399099745e+02,9.037647346102078982e-01,-4.107299973858037356e-01,-1.204581824634520931e-01
1.149015417365753365e+03,1.401737390614855485e+03,1.246023315931985053e+03,5.234868567156307773e-01,-8.368326995491022213e-01,-1.602265390356754360e-01
2.317977907763613075e+03,7.877366020005949565e+01,2.271918050954257069e+03,-1.205196572224328209e-02,-3.593446045956524837e-01,9.331271109930436847e-01
2.108091481363575895e+03,1.070025151301471851e+03,2.165048475479834906e+03,-6.359673831249154086e-01,2.599969637881944795e-01,7.265996603509854435e-01
1.536620944198153893e+02,1.416961627657737381e+03,2.839723061039938784e+03,7.118456553965248901e-01,6.914344202992630528e-01,1.232647772825392757e-01
3.103644903038862140e+02,2.811725815499135933e+03,1.226254433610469505e+03,-7.279061560389915586e-02,-4.215401262605581456e-01,9.038835368742137444e-01
5.419170822199840813e+02,8.420246796436822478e+02,1.116995020767380311e+03,2.552540765604517370e-01,6.544466825425594436e-01,7.117196752291659045e-01
1.947669098646914335e+03,1.561324441083207603e+03,2.513017330552998374e+03,-2.041679833134563971e-01,-7.319304505582029385e-01,6.500717269158706735e-01
1.226684250855346136e+03,1.118413294106619560e+03,1.591334994571680284e+02,-1.924925750823900106e-01,-5.485564131563345214e-01,8.136537777969246044e-01
6.705012871671073071e+02,2.364106458870608549e+03,1.612719126586441007e+03,-8.914325554884198199e-01,2.457106860930141079e-01,-3.807548525693214003e-01
4.834216460097433696e+02,4.853725754594743194e+02,1.260317832935702882e+03,9.088480123651663245e-01,3.155246207118614921e-01,-2.728360389400979469e-01
2.860489612690611921e+03,1.682975454580043333e+03,1.887430337260477017e+03,-9.306172661549256819e-01,3.036681929397342383e-01,2.042966777288577618e-01
1.829202707385426947e+03,1.458154749535716974e+03,2.868591516814540228e+03,5.109844863757857514e-01,2.508535353330820228e-01,8.221723411147863203e-01
5.646189851857835720e+02,2.695505309393060543e+03,2.826273936281545502e+03,3.037278695674189288e-01,7.146292753501631845e-01,-6.301225119455244883e-01
2.021629731838020007e+03,1.178735165162243220e+03,4.779446645974825287e+02,-9.005337867774376726e-01,2.677176550803413435e-01,3.425874428968054275e-01
1.079807842997087391e+03,1.478389983101435803e+02,2.619325812008975390e+03,-1.733997896457334931e-01,1.709579901360879228e-01,9.698999322401484768e-01
2.377727972101404248e+03,1.783001824624382380e+03,2.113734775043915761e+03,-9.531742828586246830e-02,-3.684583169877532205e-01,-9.247448602222787528e-01
1.481457233215976657e+03,1.926225075622653321e+03,8.572094732103822707e+02,-6.095669810512982512e-01,7.579913124091828269e-01,2.321147688627562822e-01
9.635638507115085076e+02,1.229443518108349508e+03,1.091420307007857900e+03,-4.597093412874899698e-01,-4.680330833674649638e-01,-7.547266752981278692e-01
2.668315854594903612e+03,9.957338580828816248e+02,4.752718647746017950e+02,3.934651969892310475e-01,2.274201727686534780e-01,-8.907666382258045967e-01
7.925518273571406098e+02,2.135508805132757573e+02,2.085462437326902545e+03,-1.953426223840734610e-01,-6.303949105589568003e-01,-7.512945604897443008e-01
1.191394367702957197e+03,2.217206550300695199e+03,1.740392216515297378e+03,2.595754650994381851e-01,-6.780489503675716234e-01,6.876555815405303029e-01
1.326410857744882605e+03,6.078513606168052092e+02,2.758525000532403737e+03,-9.974239558160358232e-01,3.146978680125241123e-02,6.446010303260819863e-02
2.209154002614074273e+02,1.849812024167957816e+03,2.258690111105131109e+03,1.851261881332658954e-01,-8.859818742663153612e-01,4.251639835860905325e-01
1.932106019264466340e+03,2.211993848287446838e+02,1.411321579778894602e+03,-1.102791931254498148e-01,3.267823314360199793e-01,9.386435997889928107e-01
2.270614776169315121e+02,1.396104316192766873e+03,1.639136834333745355e+03,8.111870101257785404e-01,-5.736816303195840794e-01,1.134240787357969765e-01
1.105750110693514898e+03,2.608594040641600714e+03,7.632795292708660639e+00,-8.458021494187022427e-01,2.311420983659815409e-01,4.808243488028392520e-01
4.080707442041377817e+02,1.105578359632261709e+03,9.511619459729220125e+02,2.602973971432654965e-01,-4.750060862487925362e-01,-8.406036420733886683e-01
7.913684527075630513e+02,1.978333224582694584e+03,1.921122724682169519e+03,5.985346337121580929e-01,-6.311044555869753658e-01,-4.934201641454472043e-01
6.147287859854022685e+01,5.493394625218014653e+02,1.523407446164393164e+01,3.455031017960543682e-01,-8.001725737724082466e-01,-4.902565234973883523e-01
2.380220328830900144e+03,7.271412155903684607e+02,1.685434724873902951e+03,5.108827267461324428e-01,-3.276397786673631574e-01,7.947647544696718747e-01
1.569788371668163563e+03,1.075665848590393580e+03,2.704312704796248454e+03,-9.456957798843625973e-01,1.971888690005991207e-01,2.584106070794539023e-01
4.551125437607656181e+02,2.951420389469936708e+03,1.528321477638734507e+02,1.554122958244906483e-01,4.791702877180679665e-01,-8.638534908621628983e-01
8.915638997455732806e+02,1.939977496143431381e+03,8.080896330078744541e+02,5.781377288354700994e-01,-5.194284147641198279e-01,-6.292462859903091843e-01
6.217322074341377629e+02,1.946500745764792327e+03,2.639538751006583425e+03,-3.979630197831857119e-01,3.773134224261447955e-01,-8.362176846623834425e-01
9.192742111776011598e+02,2.770048891017052028e+03,1.187162066578250005e+03,6.294202749853348156e-01,-4.701754830267791396e-01,6.186801537126598305e-01
1.872925490858124476e+03,2.971754633531566014e+02,2.918802748864246723e+02,5.966785033392868476e-01,-6.695496824644464606e-01,-4.423550455963488059e-01
1.476089169201079585e+03,6.020247608034519544e+02,1.317328765891860712e+03,-4.280025622319399980e-01,-8.930957069764275946e-01,1.385419247129524578e-01
2.685565163332254315e+02,9.672408197259841245e+01,2.424964809427576711e+02,-5.630564774408759465e-01,-3.656235320222684382e-01,-7.411388777033854902e-01
2.797972374849407061e+03,1.209735000694031669e+03,2.959423546181654388e+02,-6.140196781746826149e-01,-3.553115111367241008e-01,7.047932781092600685e-01
2.467147543089893702e+02,1.211045030641011863e+03,2.057861697833869584e+03,5.994695803685015090e-01,-3.605438014755206755e-01,7.145938632750726827e-01
1.660662678567538478e+03,6.617257694747597725e+02,2.285982572369442551e+03,-3.142762855609118611e-01,-8.572109103439755629e-01,4.079459173975013564e-01
1.182086734067431507e+03,1.953070685947782522e+03,1.798584699235821518e+03,4.892579689280850963e-01,-4.348467977061528655e-01,-7.559992740506231712e-01
2.158073688991692961e+03,2.373947451921419088e+03,2.957661971098307731e+03,-1.570006449514005087e-01,-2.213987676527359449e-01,-9.624621463552185396e-01
1.151573422513129799e+03,2.683073053427518516e+03,2.664478949624307006e+03,-3.093483808433140081e-01,-7.779309654888534320e-01,5.469250334398676472e-01
1.728961445631788081e+02,1.353301234530915963e+03,1.071665877940242581e+03,-4.968912467143149492e-01,6.629642275764524584e-01,5.599799299016452458e-01
1.307330355580156038e+03,2.765329885570233728e+03,9.218162701580115481e+02,4.844616019031122711e-01,-1.249016970456995751e-01,-8.658501731573278182e-01
1.338544985532408191e+03,1.334136465777383364e+03,1.849121926084409552e+03,-6.736026512899623286e-01,7.326668768229986917e-01,9.725592928745531440e-02
1.211201426225568866e+03,2.704939909296242149e+03,2.996632860448841257e+03,-1.631400596433206229e-01,4.795013942085865066e-01,8.622434307616355653e-01
2.648710566413275956e+03,1.736918906484527270e+03,2.863334856727148235e+03,-6.791797862796795648e-01,6.209139507357438470e-01,3.913830396054727156e-01
2.831593939400496765e+03,2.835518158383532409e+03,1.697216011648561334e+03,-7.538981236346913306e-01,-6.557259046947259140e-01,4.075729495900026755e-02
1.171544190494413215e+03,6.769562221537465803e+02,2.461264901717963312e+03,7.742311720816015264e-01,2.875870543006784352e-01,-5.637905447733301267e-01
7.709134249755346673e+02,7.284886928536577670e+02,1.281567299860097592e+03,2.078674292095635812e-01,-8.858152289754471775e-01,-4.148765020930724745e-01
9.011036130820962171e+02,2.322741551787416938e+03,3.370676986082881399e+02,-6.051519828079911928e-02,6.793650174673616648e-01,7.313009529725822411e-01
4.926669603234783494e+02,1.814019927679257535e+03,2.522190731814735955e+03,-2.953615026429476376e-01,-9.531910137903676361e-01,6.471842076094858065e-02
4.694930831438460928e+02,1.403208391065923706e+03,2.889650904148734298e+03,-6.752577129325061378e-01,5.924898543673495777e-01,4.392980691932506510e-01
6.206103300751838105e+02,2.584296712756208763e+03,1.331768028063791917e+03,-2.724614080670467731e-01,1.254935579354304331e-01,-9.539476652473284357e-01
2.111917311223298839e+03,7.477015188123405096e+02,7.988418188577472847e+02,-3.963794239897389660e-01,7.700398263117327335e-01,4.999220120492386954e-01
5.951148163716379713e+02,1.921004135286790643e+03,1.894281148527919186e+03,-2.429184230489626894e-01,4.869561363279646393e-01,-8.389662454687589754e-01
9.807613669592370798e+02,1.325935618637190828e+03,2.183939601603629399e+03,-2.271046612002406984e-01,2.513808761471084119e-01,-9.408672212212709773e-01
2.401942418231798456e+03,2.038128120110059740e+02,4.092011838457356703e+02,6.495721956052762369e-01,-6.498997161528132782e-01,-3.945710603187131404e-01
3.361408217105445146e+02,2.289281785094439329e+03,2.817542332894004176e+03,-3.942511786100424409e-01,-6.245592550047759373e-01,6.741600293346319273e-01
8.346445592369162796e+02,1.066391344596649105e+03,1.086010770028674870e+03,7.617340144504625155e-01,-4.197834509092762678e-01,-4.935009073668272794e-01
1.829528087610511193e+03,2.226481492247268307e+03,2.171014420871069433e+03,-3.704564663921465772e-01,-7.199231559913945588e-01,-5.869179295060209522e-01
2.069779384083899458e+03,4.069551504356557530e+02,1.395640644336875539e+03,7.995481948811979933e-01,5.429460423236577293e-01,-2.567728162934985736e-01
2.535464025920837685e+03,1.984834755169656773e+03,2.425612525845264429e+02,-8.826489028087410871e-01,4.304753228031423795e-01,-1.887376772879647835e-01
1.711878563300398582e+03,4.560010059106191989e+02,1.077151543134075382e+03,1.709067051096663792e-01,-9.852598586584550011e-01,-7.342279270011743166e-03
1.339723602957315279e+03,1.063955745788376134e+03,8.758658107113259348e+02,-8.921351283030477530e-01,4.375191323511085084e-01,1.125696303380172708e-01
2.548850931872146248e+03,8.404492409674265900e+02,2.125471406206809661e+03,-3.921848579927944001e-01,-6.676839656199892170e-01,6.327631146133099183e-01
1.434904898087686206e+03,1.666615460370863957e+02,1.406154023317422343e+03,2.983617521970127195e-01,-2.082095189148572834e-01,-9.314660815398336791e-01
3.479511285900221083e+02,5.163891048137488724e+02,2.277071939189554541e+02,3.978006097185736722e-01,-5.397498664970097337e-01,7.419061642310241789e-01
1.029399991567455118e+03,7.492778668739654222e+02,9.750098235026968041e+02,-4.998439539659840225e-01,6.651511050305436434e-01,5.547341968549425184e-01
1.207216122079290926e+03,8.338031089378805660e+00,4.579013333327730493e+02,2.717935267329818494e-01,-8.641655766036420161e-01,-4.234927803863282048e-01
5.933176012204007748e+02,9.634158730021355268e+02,8.284835411004903563e+02,9.213374118619757983e-03,-9.065461728281658527e-01,-4.220061021690983960e-01
2.740717684324817583e+03,1.837980221057483504e+03,2.405730455779744261e+02,3.823527219499668339e-01,-2.175293178474686229e-01,8.980464308120523764e-01
6.019424689391164520e+02,1.310359574845097939e+02,2.342553580807405922e+02,-9.635705117380092277e-01,-1.992640633163611508e-01,-1.783975952181091618e-01
9.393916233395208337e+02,2.208631025666605183e+03,5.917168434870865212e+02,-7.014638812250129085e-01,1.596324885401224913e-01,6.945976475192157107e-01
7.148163224472609727e+02,1.988592318998050246e+01,3.336740823372032878e+02,-7.908379175052286936e-01,-4.694356545661231284e-01,-3.926901507016296033e-01
3.992779483723727481e+02,2.395328211211443431e+03,8.378420307727219551e+01,-5.347571278170418774e-01,-4.840589446076032365e-01,-6.926194860052965474e-01
1.025869955332492054e+03,1.579772068477194580e+03,7.789666122860812720e+02,-8.122571271647952562e-01,5.762901276742975476e-01,9.015568820177534415e-02
3.493919184093044805e+02,2.134255138278485902e+02,1.540993260097533721e+03,9.476419349649617407e-01,3.571353171275225280e-02,3.173315407400681409e-01
2.320890986339364645e+03,2.892765454675698493e+03,2.284610839569951622e+03,4.934669931820245270e-01,-7.394675843711128183e-01,-4.579061238990400629e-01
3.470264343305715897e+02,2.152551971604955725e+03,2.852237894137271269e+03,-1.601272742732438026e-01,-6.631329269150928463e-01,-7.311730145969854711e-01
2.937579834393580768e+03,2.640548927022690350e+03,6.783715704923935164e+02,-2.430174374535029602e-01,7.596561037059355037e-01,-6.032123417138028909e-01
1.901909039415453208e+03,2.889324020929572271e+03,2.884716315700698942e+03,-4.333160111066616804e-01,7.243610474259877252e-01,-5.362259854674495951e-01
1.012826911137336879e+03,9.865021755783854474e+01,1.404070825095983309e+03,5.652829556822560608e-01,1.900796655459035533e-01,-8.026985117471503450e-01
1.895143376001969273e+03,2.474105742484465736e+03,2.172120645494010660e+03,-7.983131678813993881e-01,-5.832252664902033423e-01,1.501478421909421268e-01
1.490714938194091985e+02,1.962368148127880431e+03,1.143731124951199718e+03,7.707028218219222904e-01,5.165508315520747074e-01,-3.730849753857512496e-01
1.843581409327505980e+03,7.341911928720254537e+02,5.080307787813842424e+02,-8.700690701492351797e-01,1.239088743781401047e-01,-4.771020897250268789e-01
1.898836582866801336e+03,1.462729961327328283e+03,5.129603065642095316e+02,-4.947882742831958836e-01,-9.800642852787501413e-02,8.634693414355065766e-01
1.305814722450214958e+03,7.693879250205698099e+02,2.155864584913308590e+03,-6.963609492494643449e-01,7.113271722029034239e-01,9.536814167323437452e-02
2.199647119326269149e+03,2.647729678332173989e+03,1.634387063065572079e+02,1.029413394931620040e-01,-9.626849824389731580e-01,2.502812522140394624e-01
2.519999067465245844e+03,2.579763928720313743e+03,1.215791507986369652e+03,-8.417512868496808132e-01,-5.073242147766368060e-01,1.845993287858200826e-01
2.284546174823864931e+03,1.091161364636225926e+03,1.352635361546301965e+03,4.296559131216519112e-01,9.022887359660372031e-01,-3.564874848308875049e-02
1.370477841117005482e+03,2.068264045471178633e+03,2.390954027178256183e+03,7.687948301681480912e-01,-6.393422431873287959e-01,1.400018510316192177e-02
1.963640447459554480e+03,6.792295163682133534e+02,1.271847641273728868e+03,1.799063747870822405e-01,-3.298378112578326249e-01,9.267365939551606147e-01
1.080384665968926356e+03,6.242018125331780993e+02,6.438324670405174857e+02,-6.187302220755014348e-01,1.003366367516447116e-01,-7.791697322251225355e-01
1.989802286037116573e+03,2.883547635513585647e+03,1.681886115882421336e+03,6.565362178667970561e-01,-7.348933320670719693e-01,1.699764251668973714e-01
1.227533599304063273e+03,1.218453060201241215e+03,2.323714528344445625e+03,6.709521969315320744e-01,-3.424527097282480392e-01,6.576847961086913497e-01
1.726557493073452633e+03,1.512247540168800242e+03,1.750995597153645804e+03,-1.871936231407456130e-01,7.375453434998271440e-01,6.488338876300794311e-01
2.642385187647314979e+03,2.474948607948865174e+03,2.477253546344157087e+02,-4.628676924343675947e-01,-8.863891328275406156e-01,-8.234349137862251311e-03
7.386627370842659275e+02,1.524349860114530429e+03,8.695699646341766993e+02,7.961245003990488067e-01,2.232382800687575108e-01,-5.624503979697301759e-01
1.907296421435699131e+03,3.378618917892334252e+02,1.561900354438448403e+03,-2.106800603056528387e-01,-9.743888614934025361e-01,-7.861462196816428050e-02
9.635311203541144778e+02,4.615443888915465891e+02,1.024034849934831755e+02,8.100348754471242696e-01,-5.625326725384729443e-01,1.655309423826403226e-01
1.889037099259807064e+03,2.982282050507194526e+02,2.147589374136771767e+03,-2.898167454418019151e-01,8.357959357753068641e-01,-4.663168534408776988e-01
1.333874398252994524e+03,2.467579901664862518e+02,2.004898636240995984e+02,6.082170675038859470e-02,-6.165336278511462931e-01,-7.849757994465014210e-01
6.829218522388384827e+02,6.634508106989242151e+02,1.600035535800605658e+03,-9.231004221305183499e-01,-3.663780279658455097e-01,1.168449882807010148e-01
4.834541772233579309e+02,5.542918831947575882e+02,2.755512559066971335e+03,7.358882587687082255e-01,3.134707638844059785e-01,-6.001704347900567171e-01
1.846619649561200276e+03,1.184607413373741338e+03,2.238093817838405357e+03,-8.512243404233454935e-01,-4.923385363649163682e-01,1.817137525915206719e-01
1.764433576253446063e+03,1.767940804769162014e+03,1.704926719579189012e+03,-9.406759787463718769e-01,3.209029776364512587e-01,-1.102269565651468192e-01
1.973732253297034276e+03,2.345490747912886491e+03,6.283611859900313448e+02,7.588907622458218594e-01,1.025751249226716649e-01,-6.430887611559185091e-01
1.826863596712690025e+02,2.062435080595334966e+03,1.525668177629819183e+03,-3.018987451459180238e-01,-9.533349214175796948e-01,3.110512024931288977e-03
2.365676357680845285e+03,2.068910753975495936e+03,2.036458636496224699e+03,-5.974706865219990837e-01,-1.973213716677452850e-02,8.016479411248822462e-01
1.842548410350020276e+03,7.009592222850546932e+02,2.604851892518228397e+03,5.169742818789478944e-01,5.715555450001608140e-01,6.372298257734922977e-01
1.650614838342007488e+03,2.901354388803331403e+03,1.325404742950021955e+03,7.976958177092459135e-01,7.242182919500871063e-03,6.030165281281583134e-01
1.231891740827033573e+03,8.024085791020546594e+02,5.125661774966550865e+02,-9.353345004396341755e-01,-1.219884833571808630e-01,3.320665328146679141e-01
2.684707540296673869e+03,1.875469946987350795e+03,2.688606980954306891e+03,-9.598079260065922602e-01,-1.302217012544572561e-01,-2.486182891448636134e-01
1.179975646282535990e+03,3.237827646843329603e+02,1.984976526229109822e+03,6.765736019738961549e-01,6.678986577827726867e-01,3.100960239087867110e-01
2.209105782864835419e+03,4.919791806388993223e+02,1.928216442947299583e+03,2.609399709691248015e-01,8.190327848301637292e-01,5.109751744693464826e-01
5.556371310515742152e+02,1.769978988810828014e+03,1.702377198555041559e+03,-6.643647416542568518e-01,-6.211825756753577288e-01,4.156340911474911692e-01
9.475276603500726935e+01,2.020486047645894132e+03,3.029659777562576437e+02,6.359723285465861409e-01,-5.909370058971523676e-01,4.963191033844479017e-01
2.370091001101859263e+01,2.201744484787636793e+03,1.999088480834242318e+03,7.413503490207076219e-01,4.322810485454185725e-02,-6.697245635017129439e-01
1.713818434269843010e+03,1.571995799176884034e+00,1.280528064273164318e+03,-7.938128798938731689e-01,-2.681383200929867150e-01,-5.458598290882983317e-01
6.589007738229171309e+02,1.308918745614518684e+03,1.246772390131001885e+03,-6.132180316642799750e-02,9.810125580170032666e-01,1.839945582601665575e-01
1.584017802738241016e+03,6.553493782128153953e+02,2.102023152624451086e+03,-5.091067872711795284e-01,2.964387720629132472e-01,8.080435220780191052e-01
8.880963100070941891e+02,1.757191115237991426e+02,8.982307758446111166e+02,-2.677016708636865139e-01,5.267987205457345112e-01,-8.067334897276594585e-01
2.195544475120212610e+03,2.130425350579509995e+02,2.189539657009804614e+03,2.861528105375894526e-01,-3.393171706322545278e-01,8.960917512931139139e-01
1.698528596738996839e+03,7.685929996545833092e+02,1.720263522629222052e+03,-7.105655147300523611e-01,-2.689300970969142890e-01,6.502101599881843219e-01
5.776418854894711785e+02,7.292422807034313337e+02,1.908298965527741075e+03,5.819819079447809962e-01,7.090170278965031159e-01,-3.982360016092991728e-01
1.824062899800760306e+03,5.642558021538495723e+02,2.082371082193645179e+03,8.794872784563223522e-01,1.778472817596280509e-01,-4.414436219996873412e-01
2.927411924882786479e+03,8.805182925215571004e+02,4.040286958342636012e+02,-6.797836985511086505e-01,-6.963223418140461751e-01,-2.302809576903355193e-01
9.472296461899941278e+02,1.590045935334844899e+03,3.504929842780539957e+02,-1.828600946423392382e-01,9.379665922571974734e-01,2.945859086867783638e-01
2.037501219849290010e+03,1.455045313306000708e+03,9.923577516768493751e+02,-7.556571269548391090e-01,-4.538250431218597836e-01,4.722553723546194515e-01
2.365743663700518937e+03,7.406486050088227557e+02,1.897383597493929756e+03,8.912252484574788303e-02,-6.863716856540565958e-01,7.217694124147462365e-01
2.176670307286719890e+03,2.446577747035727498e+03,2.084134605200320038e+03,-6.480467552120022789e-01,1.351449759329820532e-01,7.495140015631922559e-01
1.500983533203025672e+03,1.643777213235223144e+03,9.706134020324351468e+02,-9.881048085050326835e-01,-9.972974479352939015e-02,-1.170592389034297298e-01
2.682355981094473918e+03,2.003352798059485622e+03,2.581583550379067219e+03,3.677707185174273752e-01,6.686264376790408415e-01,-6.462842914985718057e-01
1.044300769257551110e+03,1.029348654166116148e+03,2.585844789844337811e+03,7.605707556144821746e-01,5.635854215090305708e-01,-3.223408108919874060e-01
2.764786777437362161e+03,1.807841797271580845e+03,1.345376594341963255e+03,-1.020049010433650705e-01,7.531490036904537888e-01,6.498935131259659936e-01
1.073496056262754564e+03,1.915368540445344479e+03,1.067737463947709330e+03,-1.222821756939489329e-01,2.778210448163500046e-01,-9.528182075111211180e-01
2.401588094748072763e+03,2.137363752579668017e+03,2.248829343779057410e+01,-1.026531663940050826e-01,-2.638436073568442564e-01,-9.590875237882161564e-01
2.844998123519503224e+03,1.261171879928608178e+03,1.556254658073973474e+02,2.725114061095656459e-01,7.233124323821337187e-01,6.344735287635164811e-01
1.105041364135393678e+03,2.103489822109623219e+03,9.011663424571036103e+02,-7.385215556169584875e-03,-4.375618040988608626e-01,-8.991580095761473324e-01
2.557802767736987789e+03,2.853844851482101603e+03,5.953288321649436057e+02,-9.798483218604663314e-01,-1.668260988349938856e-01,-1.098467973803742975e-01
1.352352778425492943e+03,5.745784390836527109e+02,1.125335499905593224e+03,4.628535474102873915e-01,-5.726101577475434246e-01,6.766714127950479440e-01
2.414790433814524931e+03,4.022528780529632542e+01,7.002537403114171184e+02,6.879689579728875959e-01,6.557978448675528815e-01,3.108502847558167748e-01
1.674062739889996465e+03,2.762246523547234119e+03,1.290765766543462860e+03,2.258476413028185914e-01,-9.255584659827211791e-01,3.038657087689651815e-01
1.917293580609528590e+03,2.940052085763812102e+03,8.831728241579698988e+02,-2.833009900228418143e-01,9.532613917901621159e-01,-1.050393639278186658e-01
2.902275937638969936e+03,2.662078067078678487e+03,2.718914755236212841e+03,-3.805529257529635112e-01,-7.514554531669677129e-01,5.389751131606049794e-01
2.332155035224281619e+03,7.917232309554436824e+02,1.238022289521132734e+03,3.384052138591295278e-02,9.075141336530909708e-01,4.186560835963204497e-01
2.383552058879058677e+03,2.979826370019533897e+03,5.390939438338793188e+00,8.042559546567006334e-01,3.714217684311985068e-01,-4.639161878342685785e-01
1.607920420238798442e+03,1.607578905031019758e+03,2.619043289128979382e+02,4.670130348087592753e-01,6.131339139147755635e-01,-6.371543211234319548e-01
2.248317393652797364e+03,1.344819916243902526e+03,2.160272525122456500e+03,-4.619246546064718073e-01,2.540081777818197217e-01,-8.497678854173362772e-01
2.304427147763850371e+03,1.278396779702354934e+03,2.179136958021796545e+03,3.794336770648009116e-01,9.146691609644780341e-01,-1.393212499571485630e-01
2.959279792927526159e+03,2.687021959818504911e+03,2.214943959964194619e+03,8.660229613733086973e-01,2.540057384277522035e-01,4.306800613215999718e-01
9.013022469913757106e+00,1.935552348488903363e+03,2.180413219922435928e+03,-6.772360036577020903e-01,5.237129930083617158e-01,-5.167940559874586448e-01
1.055882448524185975e+03,1.659217580345059787e+03,2.583500652507872474e+03,-9.295178019263148350e-01,-2.912370934770131536e-01,-2.262246920323545130e-01
1.971296649685427838e+03,6.281614306755911770e+01,2.326071090641130468e+03,5.254280325575914207e-02,4.770175711818823161e-01,8.773217714212753204e-01
1.906479931354337850e+03,9.735298090441474415e+02,5.883758190368946543e+02,3.747458871059145772e-03,-7.416796882122236312e-01,6.707437637767708072e-01
1.681426991528536291e+03,7.174655601448031916e+01,1.507442992660223354e+03,5.822313987373303190e-01,1.239844499630450431e-01,-8.035138172375961840e-01
2.782287319291850963e+03,2.280415591513860363e+03,1.744218201231563398e+03,-8.795318168321557550e-01,4.070520184741922565e-01,2.464395208484488897e-01
1.649015093371396915e+03,3.741977142681339501e+02,1.907718003461981198e+03,7.873845162394541575e-01,-1.729992879318455190e-02,-6.162193895441065994e-01
1.561181679062310423e+03,2.595795627095342297e+03,2.048537093322278452e+03,-6.955749576827009728e-02,-9.670330322902829234e-01,2.449670778735537624e-01
1.656466957791719324e+03,1.024622408188302870e+03,1.551371010954379017e+03,-1.838300407552323767e-01,9.579183695994807346e-01,-2.204516121506086002e-01
1.769402510792994576e+01,2.152672925276055139e+03,2.482791015678286385e+03,4.120199612906500497e-01,-4.202459828278271581e-01,8.084756430561930163e-01
7.745257916661574882e+01,1.348137934245646420e+03,1.064984506577655566e+03,-2.732701281305374152e-01,1.365813811030144320e-01,9.521916631684572696e-01
5.789029940375047545e+02,9.235505373099153985e+02,7.005610187838118463e+01,4.136742608408868205e-01,-2.955827257788664619e-01,-8.611065312369203806e-01
2.344734227947158615e+03,1.836032773606350702e+03,1.183622622009522274e+03,7.890193954355008144e-01,-4.528865590957856235e-01,-4.151411304809200509e-01
1.014286971080171838e+03,1.558615960012619098e+03,1.393444550416707671e+03,-3.203993544318210485e-01,-6.467089486255962472e-01,6.921790154629423597e-01
1.151017949623866116e+03,2.426894970735911102e+03,6.629187144975245474e+02,5.573359054487806441e-01,3.917808020161732685e-01,7.320413182800216134e-01
5.516726553615699231e+02,1.711957773381868719e+03,1.111055026983647167e+03,1.635292937764216137e-01,-8.678022775708263969e-01,-4.692306225299785472e-01
1.891383154138630971e+03,1.164589305497105727e+02,8.583900831671418246e+02,-7.762580038996884368e-02,-9.918471759414242417e-01,1.010614401779348359e-01
1.362760469479928361e+03,1.984988607530027139e+03,2.578367777596516135e+03,-8.248549105202896969e-01,-1.486698260212188649e-01,-5.454462938011271911e-01
2.426977812064803857e+03,8.654179136403590746e+02,1.871488482547016474e+03,5.601177761086963969e-01,6.769538464406410494e-01,-4.774950959709110543e-01
1.443421594709057899e+03,1.698731363729667237e+03,2.400412700906906139e+03,5.190482464799588413e-01,6.452888518049371136e-01,5.605276224793438455e-01
6.602982185430626032e+02,1.140361837214305297e+03,2.510047960932801288e+03,6.012770640614240047e-01,7.829118283284123292e-01,1.597340329959047178e-01
9.623145598286710083e+02,2.248935435708580371e+03,1.925628995720377816e+03,9.026421607087188326e-01,1.269401480072053778e-01,-4.112460681088687675e-01
2.743553364857256838e+03,8.314080169693227162e+01,1.557698240131837110e+03,6.586203312046176039e-01,5.978445486386004815e-01,-4.569476501603086938e-01
1.205221415865325980e+03,1.870030472620818955e+03,2.277844803508221503e+03,-1.130407641645394812e-01,-5.369598047979924349e-01,-8.359999722897117902e-01
2.925803041979307636e+03,1.400405571447002330e+03,2.421652809034675556e+03,-5.611191571250361276e-01,8.138607162525460237e-02,8.237242250005143429e-01
7.614736051750430761e+02,1.049847628741493963e+03,2.741938028703951659e+03,3.056718611572207256e-01,3.082841454150506699e-01,-9.008471562825697276e-01
1.360194781338108896e+03,1.505101671946059696e+03,2.262025550767282766e+03,5.237597532945562628e-01,-8.493341694790590424e-01,6.562918088885982826e-02
1.266768729994701971e+03,7.548385454462849111e+02,2.750732302103642269e+03,-9.594787529111553637e-01,2.344062375421999134e-01,1.563785103950148248e-01
1.396170017177530326e+03,1.336268726862684844e+03,2.474645060737928361e+03,-4.253412252747039157e-01,-3.895725363068505698e-01,-8.168953917346217786e-01
1.961438837879191169e+03,1.694317981446002477e+03,2.944134966798703772e+03,-5.922531397922818908e-01,3.324263742554051659e-01,7.339815556984992106e-01
2.743492243384004269e+03,2.589297596037720268e+03,1.810778966464442874e+03,-4.067696589452340361e-01,-6.412767107599766092e-01,6.506171107482827676e-01
2.524159365469460681e+03,2.269300524592055126e+02,2.234164038783490469e+03,3.626514513183223820e-02,-9.302337484234483034e-01,-3.651712099038313397e-01
1.366971878548036329e+03,5.525744094779896614e+02,8.615724029278269427e+02,4.438883801586551159e-01,3.602874525670862194e-01,8.204608811411089331e-01
7.546874116312833394e+02,1.443046599201614981e+03,5.184464179667318149e+02,2.073183983627788496e-01,2.512450198622821484e-01,9.454602168757253455e-01
2.834858003682749313e+03,7.270477892961881707e+02,1.093938333428345686e+03,-3.385045051501230917e-01,9.407162978403091902e-01,2.162283447406720960e-02
8.695179504575515921e+02,2.834153173126454931e+03,1.801334124582248023e+03,5.447555411850114604e-01,4.569794053452649329e-01,7.031438141934502895e-01
3.355545197630671339e+01,1.110768665570578406e+02,1.358394076505843714e+03,-1.481666131550859744e-01,1.688438494991987282e-01,-9.744426146430804625e-01
9.454621533897327481e+02,1.002511885833054635e+03,2.888837792624723534e+03,2.491015683853997076e-01,9.682746077726749334e-01,-1.981647220386917665e-02
2.866123184457430398e+03,1.201885574857292568e+03,1.031514923081508414e+03,8.172973950583800606e-02,-7.270758980690293916e-01,-6.816750605144816788e-01
3.498304453514303987e+02,2.679868378584649236e+03,2.566098568241406610e+03,-9.359683750733911733e-02,-9.533595091352212725e-01,2.869586701078654656e-01
1.787460216078437952e+03,2.070666820093999831e+03,3.623377807181377079e+02,4.804592848922892845e-01,-8.397907035190563252e-02,8.729870510515145288e-01
1.823116641433452742e+03,9.648468527235585270e+02,1.832496533792014134e+03,8.326871956183864443e-01,2.671927078400019306e-01,-4.850155576167782812e-01
2.319556250405175888e+03,1.589082547838228493e+03,1.073103380548487621e+03,2.623765157645602253e-01,-4.730840631743772895e-01,-8.410410412968389871e-01
2.767599756616902596e+03,5.638091300480211885e+02,2.986340958230650813e+03,-1.355324561789066629e-01,-6.661740359193684125e-01,7.333778747610354420e-01
3.356242914151277432e+02,2.800237749151485787e+03,1.878622018756896296e+03,-7.558762663127994719e-01,-5.862886656081545134e-01,-2.914046509656831874e-01
6.296958657004101951e+02,7.071432645800366572e+02,2.652632830981701773e+02,-2.815001134647150960e-01,6.574265370658972651e-01,-6.989621123357796506e-01
2.172310661746837923e+03,1.056449498431794154e+03,1.966444668180566623e+03,-8.515286462369737741e-01,-3.337034779565895559e-01,-4.044019701206991724e-01
4.251787610819009160e+02,4.226889100418489420e+02,2.104334832417568123e+03,5.053378853499547185e-01,-8.609497908293712864e-01,-5.830162348423906238e-02
2.416429290548624977e+03,2.786623666544949174e+03,2.833484023794382210e+03,1.734694378110913093e-01,-8.612315044946867726e-01,-4.776909563842740014e-01
1.376780695194743885e+03,1.135138434331471899e+03,6.278768704156103695e+02,-2.595443376361607490e-01,-2.515957516610730638e-01,9.323820646854519278e-01
2.145279027818107807e+03,1.182163111468209536e+03,1.166784890558468078e+03,2.812621098497100625e-01,-7.262828594658470305e-01,6.272199244356020387e-01
1.838883179390300938e+03,6.837763415765023183e+02,9.586807470086923786e+02,-6.710453634280570956e-01,-5.632435662139803068e-01,-4.821356710929659006e-01
8.797189199978561192e+01,5.582210446394618657e+02,1.397577036319001763e+03,8.606337922401636753e-01,4.307712330939335033e-01,2.715614486502950786e-01
7.611028948557825515e+02,7.272481987937417216e+02,2.742761131151439713e+03,-2.988442059280789764e-01,-1.896566173929993826e-01,9.352660092520530544e-01
5.304589476572126614e+02,1.695336846723143026e+03,2.761762821309833271e+03,8.668202364442333385e-01,3.585084068070775731e-01,-3.465463893036753174e-01
5.730618010359210075e+02,6.884262547581166700e+02,8.149060418251343663e+02,-7.219004192197931991e-01,-3.243110083076381489e-01,-6.112954724360142311e-01
2.119144393963724269e+03,7.669533131172057665e+02,1.918125933066067773e+03,8.169587426638189598e-01,-5.008912571846034778e-01,2.858082596097941686e-01
1.298373369886755654e+03,2.273880754068780789e+03,2.103600188298756166e+03,-2.492766399585088499e-01,-6.116605325555942718e-01,-7.508212501553235274e-01
1.864112209689658130e+03,8.490950914957477380e+02,1.564620654945528486e+03,-4.439178234485862129e-01,-6.793740576713189760e-01,-5.842840540249898407e-01
9.468337349685853042e+02,2.679426410706582260e+02,2.230882008644510279e+03,-6.500984767795264796e-01,3.562721367245897941e-01,6.711498603759331605e-01
2.582031075261971637e+03,1.213776524895672537e+03,1.347358637484846440e+03,-5.014170283373735604e-01,-1.682711805569123142e-01,-8.486847315035781492e-01
1.113951667880717054e+02,9.644878768937981022e+02,2.087305156104662274e+03,5.712988971237602520e-01,6.847268798364675169e-01,4.525115138585880104e-01
7.859353296870439181e+02,6.022390684946067267e+02,6.278368955199663333e+02,1.655856774521163310e-01,-6.752337483914147009e-01,7.187772731910793134e-01
2.670448246968523108e+03,1.822462454918242656e+03,1.590417120276310243e+03,2.001994542449447023e-01,-7.810811535902641989e-01,5.914663219711908670e-01
1.594056564917423202e+03,2.367589838848178715e+03,1.425264653882421499e+03,2.470575592149351629e-01,9.089319790612443439e-01,-3.358648833602115857e-01
2.556912662729629119e+03,7.257762611006980933e+02,2.504158972658397033e+03,9.619014491111601561e-01,-1.266111117742846903e-01,2.423122542776774413e-01
2.493982078679095139e+03,2.018660922794354747e+03,8.180060905860543699e+02,-9.120859554788507406e-02,-8.278716549558045035e-01,-5.534523602071994564e-01
2.270106406857423735e+03,2.787103021005667870e+03,2.226042245616347373e+03,6.512088099552983955e-01,-2.900755644203718009e-01,-7.012725951887801568e-01
9.263781365665179237e+02,1.921456729562274404e+03,9.009440015240844701e+00,-3.271175624959326567e-01,8.109099307288633041e-01,-4.852001489612610130e-01
1.620465622032864303e+03,2.414866471930715477e+02,1.565102067825789845e+03,1.493423390484097668e-01,-2.459422706698229794e-02,-9.884796354819493924e-01
2.646345654866384393e+03,3.818849141659003408e+02,7.179682092688939292e+02,2.369489901554843944e-02,8.893384997902349376e-01,-4.566350671504516012e-01
2.044199355567134262e+03,2.017480747586339021e+03,5.832612031357674596e+02,-4.198611869171081645e-01,-5.869081956780514142e-01,6.922827121678623019e-01
3.650234569004967398e+02,3.180763312964218699e+02,5.760199362934256442e+02,-1.360833861362646668e-01,8.572707357545455986e-01,4.965563388343243734e-01
2.524039682160666416e+03,1.786336193274193874e+03,1.470154847787591052e+03,-5.705297318557108754e-01,7.119986956448534077e-01,-4.093332169134067389e-01
3.045192674201181262e+02,2.966796812750254048e+03,6.866810957042938526e+02,9.766572533110110532e-01,-1.430574218989696389e-01,-1.602347764831713040e-01
8.225742217736531359e+00,2.531925254534734904e+03,4.134654018996570812e+02,-5.027512380011041060e-01,8.321799926049672225e-01,-2.339180467521775331e-01
3.212503654691205384e+02,2.617945283796614603e+03,1.622483114092696496e+03,2.832067621410779834e-01,1.556890129134829159e-01,9.463376042066553584e-01
4.263928017384268401e+02,1.337027839712321111e+03,2.287824343218967897e+03,-8.172918809389975170e-01,5.762216131606594516e-01,-1.622922586897335368e-03
1.352231752265751993e+03,1.896275979686213304e+03,2.385477630231602234e+03,-7.884836109067934196e-01,6.074751333832464351e-01,-9.626815492358531401e-02
6.267891072758828841e+02,2.547814994775895229e+03,6.519087638741715409e+02,8.700779943614106449e-01,4.928065519150726104e-01,-1.029495593006046761e-02
1.486943320812865295e+03,6.080113735849012073e+02,1.965997149338435065e+03,4.222750449670321093e-01,4.093201262480447022e-01,-8.087897258536211886e-01
1.053502463495324974e+02,1.607503488774213565e+03,9.143733733760727773e+02,5.061595028846485045e-01,5.622408718421034735e-01,6.539784091770898256e-01
1.459094026379111938e+03,2.866490386714388478e+03,1.194256287397183314e+03,-6.518478436624557393e-01,-2.680038861149713347e-01,-7.094140580365462245e-01
8.616667339443082483e+02,7.256502227769751698e+02,1.686573219961323730e+03,1.509474992231170098e-01,7.314836539981725005e-01,-6.649409871648528370e-01
1.729081968704757855e+03,1.174024705202060659e+03,2.341617275820570285e+03,2.823641865679250018e-01,-8.855441580407359403e-01,3.688929523639051244e-01
1.645354824241430379e+03,5.220150503281828236e+01,2.533783466977782609e+03,8.618556851742573688e-01,2.267860934859490807e-01,4.536219193714010611e-01
2.469054022843031362e+03,2.845880850796499431e+02,1.501269741616229567e+03,6.233643105009546714e-02,9.892046124029603149e-01,-1.326212809644282675e-01
1.207608789866631469e+03,8.210722904652777743e+02,2.076170207270922219e+03,3.965312473674530436e-01,-1.626929779336782622e-01,9.034898808466442777e-01
9.693571425783359246e+02,7.743156345406534911e+02,6.529917916665933717e+02,7.084391247821884008e-01,2.899137051611369587e-01,6.434780882342368002e-01
1.435190740147638166e+02,8.398939696014945184e+02,1.627715442796739964e+01,5.212614261004211436e-01,-8.123155391846865747e-01,2.615912660217219465e-01
2.868740721255792323e+02,2.428197557252439310e+03,7.830389564065756076e+02,-8.852921921450611631e-01,1.271234776553085422e-01,4.473224295246243654e-01
2.797398197486252684e+03,2.780908191915958923e+03,2.469033528223119902e+03,-4.420158108120882390e-01,-8.900614992475223142e-01,1.114116266346787398e-01
1.284311246247939948e+02,9.476882529048016295e+02,4.075529695900019647e+02,-6.892596778333386354e-01,-6.786343151128098050e-01,-2.537253689808132151e-01
2.212612091135050377e+03,2.790631338344130654e+03,1.293888360969944415e+03,-8.647982024174704074e-01,-4.906530642651389940e-01,-1.066941405267483184e-01
