x,y,z,nx,ny,nz
2.326256144039128230e+03,6.251884242574745798e+01,1.957003640067544438e+03,-5.230639674980700482e-01,-7.378167536164489393e-01,-4.266503533199784148e-01
2.065458482172583899e+03,6.912718031690123155e+01,2.424729660248715390e+03,-6.066116952931823736e-01,5.137240114268508684e-01,6.067206039166926912e-01
2.657839324772719010e+03,4.787608355478568569e+02,1.020273701393839133e+03,-7.698239472051831012e-01,-6.382529247790933447e-01,2.072274201134316918e-03
2.920251242749961875e+03,2.828733926055349457e+03,2.663048278864745498e+03,3.479082548862250657e-01,8.861868790145293051e-01,3.059945451221469104e-01
1.339761996195179108e+03,2.070620208107334747e+03,2.499683593213676147e+02,3.610693636116718563e-01,3.680179136488254676e-01,8.568498876084584825e-01
2.690693871629079240e+03,2.801014967725709994e+03,2.102698500411167061e+03,-6.575047619691425371e-01,-3.155828062159008462e-01,6.841746709786897807e-01
1.940760943317230158e+03,9.804858016398293330e+02,2.576623296778324857e+03,-3.302952107952880634e-02,9.932659397110631394e-01,-1.110487449148152006e-01
1.334592017772264853e+03,4.187846233847071176e+02,2.227813671052308109e+03,6.150395416726180953e-01,-6.867679191773662373e-01,-3.873966796036417137e-01
6.553176380237383682e+02,2.310523438034691935e+03,2.958797278958624247e+03,-5.860998558534712410e-01,-1.226485581944151970e-01,8.009021726411855724e-01
7.928656420367284454e+02,2.981235328564354859e+03,1.861326427899520922e+03,5.767788895889031098e-01,-8.132783000562376907e-01,7.684086921832755657e-02
1.613660980635835358e+03,3.724748226347779223e+02,2.279268373071201950e+03,-6.678092235377738328e-01,5.251214727895927581e-01,5.275208808882969613e-01
2.601806487414402454e+03,2.171472606910150716e+03,1.090101345316903689e+03,-8.527571041410263453e-01,-7.549395794641181046e-02,5.168229712876510895e-01
1.490855785547372079e+03,1.098758783309867340e+03,2.484719994359720658e+03,2.571896088342358055e-01,7.881962644654317840e-01,-5.591065674720983036e-01
1.034706645405912241e+03,1.722998828319050062e+03,1.003960863202314727e+03,4.814467826476968582e-01,7.237173137760936070e-01,4.944110083916990472e-01
1.767717680740038588e+02,2.272792152460442139e+03,1.932718644567023830e+03,-1.785326855753877062e-01,2.067128936999929334e-01,-9.619749787595388568e-01
1.450249175788366983e+03,2.275583247356465108e+03,2.941249913937951987e+03,-4.036439695122525095e-01,9.123465403573661758e-01,-6.852252311712427046e-02
1.826695805067757647e+03,1.701248625543983053e+03,2.206206831690015406e+03,-4.191189256414367126e-01,8.644343311092874682e-01,-2.776555660684774107e-01
2.993757118354507384e+03,2.050700614958034294e+03,2.719010322051958610e+03,5.718592420448488367e-01,-3.494145075983200455e-01,-7.422172924202956601e-01
2.169606743472684229e+03,2.935682410874189372e+03,2.979625782139682542e+03,-7.217248052594683605e-01,6.812349850850900612e-01,1.226058749379470569e-01
2.870466868743349096e+03,2.328907382113384756e+03,2.797721768930611233e+03,-1.463017108787492693e-01,7.622018900246453343e-01,6.305902696972175425e-01
9.367211141352598816e+02,3.047467611643750729e+02,1.735694106807214894e+03,-1.224336998466497572e-01,-7.688765033909379376e-01,6.275658624201809754e-01
8.855881815738846399e+02,2.044744232895708592e+03,2.784404960296307308e+03,-4.481718370785598982e-01,4.184285943661077839e-02,8.929676251487490557e-01
2.340318871289165145e+03,2.419772355299589890e+03,2.069597172997661801e+03,-5.599296641311215517e-01,4.632671346140279645e-01,6.869223633079051261e-01
2.532728849118323069e+03,2.555803837167309666e+03,8.182166462099955879e+02,9.378536128449316278e-01,-1.789567449174468416e-01,2.973299250365846746e-01
3.993811846531654055e+02,2.510253529056055584e+02,2.822492691133184053e+03,-7.618242968294740569e-01,6.276276897922852260e-01,-1.603347241438248805e-01
2.349481847183984087e+02,1.319246451741390729e+03,1.321711457889547773e+03,7.085033264455884439e-01,-1.295203898247687668e-01,-6.937200480274273717e-01
1.335657188414709026e+03,1.678361991089879666e+03,1.274588784714666474e+02,-2.591496541802157938e-01,-7.626399251380729938e-01,5.926396892916210302e-01
2.887018565932709748e+02,2.662790545566493620e+03,1.319619848601897957e+03,-2.101985966736578948e-01,2.142462453862751248e-01,-9.538946987452592285e-01
1.597441778874210172e+02,5.085130810136818695e+02,2.950292368784949304e+03,-5.206070168066008197e-01,-6.755760594661473772e-02,-8.511194416358338621e-01
4.293823997345116368e+02,5.821438439538736702e+02,2.614187116155581407e+03,7.562659447681560065e-01,-6.481791024710069626e-01,8.902624278159977644e-02
6.013581113733180246e+02,2.547826146381301442e+03,6.871317157799032884e+02,-3.168896414544589701e-01,-5.559052126417564077e-01,-7.684727384212064472e-01
4.452751690847196642e+02,1.153918388227819833e+03,1.633224108580151324e+03,9.435012005220496656e-01,-2.276656388847160817e-01,2.407775767895863339e-01
5.459691991467176422e+02,2.503165227554037301e+03,1.970197307110153133e+02,1.086082322531217170e-01,-9.783630629850439409e-01,1.760964760390593409e-01
1.849872944154677270e+03,1.892376371513982576e+03,9.182213337001232389e+01,3.007699730352844658e-01,-5.551885157573036578e-01,7.754373832177272607e-01
1.441369303642995646e+03,1.224191940677433649e+03,1.906206116666795879e+03,-3.803292835794866433e-02,6.151079975395801203e-01,7.875250140302636481e-01
1.518328077750617240e+03,1.065803431881540519e+03,3.460865202613412066e+02,-7.797065992840780391e-01,-2.400168277096651481e-01,-5.783161258767104407e-01
2.730940689508408923e+03,2.706041294983044736e+02,1.063080080736637683e+03,5.294668190793705431e-01,-1.100179897547873126e-01,8.411664100665746657e-01
1.939029642067406257e+03,7.248767615072943045e+02,1.042323481316285779e+03,7.917695582745780669e-01,6.096509608563686067e-01,3.777131870329775154e-02
1.476713008033673759e+03,1.325552363055651313e+03,1.417085050498562396e+03,3.703831147722233541e-02,-5.535034749379678098e-01,8.320228763168179276e-01
1.468224480719600024e+03,1.710086831333034979e+03,1.249845180171618495e+03,2.902241873270038908e-01,2.701391350029751504e-01,-9.180385443053165062e-01
1.729986556707247928e+03,7.160717625142204952e+02,2.458053156803933234e+03,-4.956086957780190261e-01,3.776177888384606440e-01,7.821616368896922022e-01
9.306797491808094946e+02,1.855222452401846567e+03,4.217803149511552192e+02,-8.501817776913787039e-01,4.497303994847242636e-01,2.737398631197827115e-01
2.231421416231971122e+01,6.105329471560078218e+02,4.697647677045108026e+02,9.306052975667138405e-01,-1.909470812512792937e-01,3.122707035608451864e-01
2.079167003595968254e+03,9.450500298643557926e+02,2.019481564043675462e+03,-4.835398228674697707e-01,-8.670783069673678733e-01,1.198517804953229821e-01
2.904409493310286052e+03,8.951805206532879993e+02,1.499331971326822440e+03,-8.211943403568529032e-01,3.806839531545603839e-01,4.251112597620647637e-01
1.927676587732855296e+03,1.793821553745258825e+03,1.690187947650376827e+02,9.820940091940769667e-01,6.719044266326158581e-03,1.882716429769804023e-01
1.579717917132507637e+03,2.656906088918334717e+03,1.104732763368948326e+03,-6.640916086136091634e-01,7.113232395060971047e-01,2.302207295348111249e-01
6.690594730712463161e+02,1.721918180512561321e+03,8.917009982555998704e+02,-4.663329485872012153e-02,-9.029313377608018110e-01,4.272473933216076603e-01
1.579171927425199101e+03,5.772939114195845605e+02,1.580842442360093628e+03,-2.721368841840824185e-02,-7.274883619823501180e-01,-6.855801181064857808e-01
2.298828573310738193e+03,4.100683791166343894e+02,2.084425120156390221e+03,1.127615988793958385e-01,-5.003911811495673767e-01,-8.584250040894096934e-01
1.790785510318571824e+03,1.740582475559328941e+03,6.937536689107787424e+02,7.592270471787384567e-01,8.549210260933483296e-02,-6.451863228740117862e-01
1.928924731371000235e+03,1.597450346073836513e+00,8.810026658460981253e+02,-6.140036880170564038e-01,1.418100448408176617e-01,7.764595174789852283e-01
1.617757160526848281e+02,2.277395611742069377e+03,2.858237015724076173e+03,3.865775438612422676e-01,-7.375904899409431170e-01,-5.536407424773657215e-01
3.518267458648527679e+01,2.757155113666141915e+03,2.062743103860548672e+03,9.886576684107726276e-01,-1.256897744198572642e-01,8.220763528322817815e-02
1.531221607016501878e+02,1.282818478713989521e+02,1.503310653071421257e+03,-2.511689478866337977e-01,4.174118381700036573e-01,-8.733163899601679159e-01
1.359978583937737540e+03,8.757253534354912290e+02,1.720063030754908596e+03,1.266441736083056824e-01,1.319220691617795094e-01,-9.831367254655600796e-01
1.010423705607837292e+03,2.773087568648031720e+03,5.859122809601442441e+02,1.186555564363905857e-02,-8.828916239338874261e-01,-4.694268728744135921e-01
8.515303659578639781e+02,1.881124507974531070e+03,5.013927723248107213e+02,2.455061013003869697e-01,8.551319523479912199e-01,4.565918289871131464e-01
1.410449498904270513e+03,1.687685194469042472e+03,2.739942542915990543e+03,-1.218250255211346667e-01,1.135985096617815882e-01,9.860294325015845907e-01
2.412840021268827968e+03,1.619399351317929359e+01,2.130005117343754137e+03,-8.250069233827314052e-01,4.994200874174788973e-01,2.644676779012469225e-01
4.368047313505645093e+02,1.858511627864108732e+03,2.128069806803836400e+03,-6.344429273614275999e-01,-1.658409366405418084e-01,7.549695064406576339e-01
1.846870703704043990e+03,2.338540225084219855e+03,2.151557056065112192e+02,9.668295421602873807e-01,1.021993137670440255e-01,-2.340853192143290684e-01
1.302256193903126132e+03,1.151952182100691743e+03,1.121234534703460440e+03,-5.018462040365628818e-01,-5.315532455821815327e-01,-6.823500088701851540e-01
2.930435197135695944e+03,1.476515491709881871e+03,1.704959550061028494e+03,7.353817728524789654e-01,-6.532260719879736666e-01,1.803034859105827614e-01
2.229216678148052779e+03,1.555197539134730960e+03,2.945697848150574373e+03,-4.145839564997285120e-01,-6.201684291169382579e-01,6.659664124711249800e-01
2.742525064014365398e+03,1.440950840202229074e+03,2.701196736541001428e+03,-1.666991849456480324e-01,-8.825859368471242750e-01,4.396060120359372991e-01
2.837059510321824291e+03,2.995006001218383062e+03,2.864581142150555934e+03,6.294972368737484780e-01,-6.338945920103497000e-01,4.493449398717517251e-01
2.484866880763252084e+03,2.746459560727666485e+03,4.094274090923879612e+02,-6.341024072311232662e-02,-8.374936835967849991e-01,5.427554433692262092e-01
9.287923425325698190e+02,2.210802701623693167e+02,2.496598679410588829e+03,1.760427586491727925e-01,5.716174191524817649e-01,8.014127982810388406e-01
3.581353040105585137e+02,8.086488569290872874e+02,2.018479374821998363e+03,8.695545614723366734e-01,-8.284058449331855103e-03,-4.937673936159214794e-01
2.985922163855052077e+03,1.170193860807349211e+03,1.560342018903530743e+03,-6.320406842427862548e-01,4.580994853764321917e-01,6.250355469569379707e-01
1.278462936511858061e+03,1.141368170676516911e+03,1.447699544364728354e+03,1.106041753541574801e-01,-8.975610444251087561e-01,-4.267913868914585684e-01
1.735110332481289333e+03,2.672951451268911114e+03,8.469642424787756454e+02,3.521685964232215693e-01,2.571745478277656094e-01,8.999102908861984496e-01
2.780122107396425235e+03,2.949961628186695634e+03,1.482811340284311200e+03,1.194233330871371929e-01,3.994775859640815607e-01,9.089310897018918478e-01
1.665924797895971778e+03,1.575602507990048252e+03,2.629287035798050056e+03,-5.158150665248980582e-01,4.374793024325017710e-01,7.365776789240132683e-01
2.925342592811271061e+03,2.533088023522200729e+03,2.156310876014200403e+03,8.744343787897298492e-01,-3.956582946106465548e-01,2.807472726428772436e-01
2.613283159412002988e+03,1.838593366343320668e+02,1.412494935258610440e+03,-1.226146793807133401e-01,7.349527317602436716e-01,6.669408688021152276e-01
9.553231484505937487e+02,2.132805726653381043e+03,1.736376616681940504e+03,-4.101189131618151462e-01,-9.092214641412145193e-01,7.154583294558647388e-02
9.750446507757956169e+02,1.315596607489134158e+03,9.000663540525479220e+02,-3.334826516202245572e-01,8.642106097035798795e-01,3.767351100496350580e-01
1.331272490719871712e+03,7.003065028763288637e+02,2.804434059828900558e+02,1.600594763111687080e-01,7.340824237763875493e-01,-6.599272377660879707e-01
6.521858324625029013e+01,9.413787601734613872e+02,2.396120022150011664e+03,2.170988113953744025e-01,9.728015402864598205e-01,8.077913905834233077e-02
1.579452841319959134e+03,2.666324712243385875e+03,2.160966187778498352e+03,4.577223150394424955e-01,-6.028780090417605875e-01,-6.534740917043125874e-01
1.751943830639258977e+03,2.679329233124145958e+03,1.296682620271979431e+03,-4.696914198996687828e-01,8.538098862940360911e-01,2.244964323529399230e-01
2.805856667437873512e+03,2.660383216167132105e+03,2.470646328235459634e+02,8.738553510118535206e-01,4.245527951275925027e-02,4.843287878594910723e-01
4.666797536143808429e+02,4.848129818891302421e+02,2.041969837500790391e+03,-9.344967467446059217e-01,2.433435161524633017e-01,-2.598071659333201500e-01
8.063145082414999933e+02,1.713751072274724720e+03,2.638316548409754432e+03,-4.767590900353557148e-01,2.321122881558054241e-01,-8.478352763100482914e-01
1.466527945970985002e+03,1.418603881440977830e+03,1.639039448594877058e+03,8.185047655524222421e-01,5.560123471609214052e-01,1.445690788950992900e-01
1.908952831109433191e+03,2.734769751986919800e+03,2.843655229629275709e+03,-4.244997497303899525e-01,8.425352359923835577e-01,-3.315634759591215008e-01
2.939355392785519712e+02,1.439125351816331658e+03,2.420672372972298945e+02,-6.322793004945779227e-01,-4.832578675624558673e-01,-6.055449773593000184e-01
1.310017333240351718e+03,7.304967149593779823e+02,5.851527863115322816e+02,-5.542238810251871595e-01,-2.748162554589445028e-01,7.856919978190584075e-01
2.800463107450056555e+02,1.862548456129786700e+03,8.687585362717600219e+02,-1.141431131701569623e-01,1.505662688304366115e-01,9.819883647000637872e-01
8.576712526002837649e+02,1.674498698609434086e+03,1.209815575041483498e+03,6.819508105848383073e-01,-8.754661783631829952e-03,7.313456418409398641e-01
1.567662693413814168e+03,8.066631892388604683e+02,2.086960691615852738e+03,8.457134241017375542e-01,4.055159991692587895e-01,-3.468797755878432199e-01
2.430234046324011615e+03,8.300528506168061540e+02,9.066449284467083771e+02,-1.102981604856651393e-01,9.937261991669097405e-01,1.850829227037831606e-02
2.822187803124770653e+03,1.959210975717920519e+03,1.618612734159748925e+03,-1.084971507273001755e-02,-7.591652813937610489e-01,-6.508074670816033080e-01
2.074762688359497588e+03,2.637693888999904743e+02,2.855502643884276495e+02,-3.854316066921119055e-01,-6.638400921704287194e-01,6.409046798002758782e-01
2.966429932185956204e+03,1.116892154978127792e+03,1.772876262179143623e+03,-7.009537789501363303e-01,7.122458508773462649e-01,-3.700875144514560039e-02
1.061356445585555321e+03,2.230399569005284775e+03,6.330662095785089605e+02,-9.995725488377308343e-01,-1.043500354647502321e-02,2.730989401347505563e-02
1.280966917963362675e+03,1.078798271214693614e+03,1.199854405784001983e+03,-1.424043776691471808e-01,-3.911848307106302047e-01,9.092279260133613317e-01
2.150257537307636085e+03,6.728129612819345766e+02,2.559427579290163521e+03,-4.354538378027778545e-01,5.410337743527467991e-01,7.194876025008722920e-01
1.706261506787398503e+03,1.287456250426129827e+03,1.904873986384432328e+03,1.600341683647249214e-01,3.025155365820612063e-01,-9.396134391771322480e-01
1.499457238555432923e+02,2.777128542145583651e+03,2.725345492298854879e+03,2.756652364026176416e-01,9.612536116548017207e-01,4.141493556417686337e-04
2.486061809368949980e+03,1.443645509814304205e+03,2.348252630700031204e+03,-3.147126653411201347e-01,2.811731186167050478e-02,-9.487704438100723614e-01
1.894623968430048308e+03,2.876895949911090156e+03,1.889517137239551403e+03,-9.058047826741317810e-01,-2.579215932376725529e-01,-3.361460209885125394e-01
1.046900315991282696e+03,2.279628694252764035e+03,4.142476532436144794e+02,1.330722257298699029e-01,-5.257260917348237639e-01,-8.401808491084084007e-01
5.181745842170566902e+02,3.662502489250901476e+02,1.948200698584544170e+03,6.075352026249132287e-01,7.522569176391203927e-01,-2.549715816235123556e-01
1.888802887246961291e+03,1.448031813277993933e+03,1.678944351916071128e+03,-9.328421335215101307e-01,2.402631934789695722e-01,-2.684756074326386521e-01
9.764446875400374211e+02,2.752867369752751074e+03,1.563981939993163678e+03,-7.084451162448222039e-01,-1.767259265747802011e-01,-6.832813945550879620e-01
1.607004499430830720e+02,1.303698372614701100e+02,2.411174065131568568e+03,8.131717035636264468e-01,4.656279848686945555e-01,-3.492024630934734142e-01
1.970370718813668645e+03,2.096743713647555523e+03,1.952798955285389638e+03,1.026944080586762731e-01,-8.080365698669967900e-01,-5.801127134540804420e-01
1.015090339352810929e+03,2.011578098769679400e+03,1.754905792968442483e+03,-4.268187561869101199e-01,-2.436889600469473449e-01,-8.708854345539924768e-01
2.967847838025118108e+03,3.826955183019138644e+02,2.850181954594241233e+03,-8.613483335061600243e-01,1.511385302149954313e-01,4.850115390901661439e-01
1.885015975547047901e+03,1.725643549916790562e+03,1.872050096631061251e+03,-3.583216566584507268e-01,1.954845668076945486e-01,-9.129027190832281757e-01
1.233194754995751055e+03,2.267145027667109844e+03,1.356948955003125093e+03,4.043380241666662545e-01,-4.214144032789198246e-01,-8.117392826037608256e-01
1.901865988629340791e+03,7.209276711652023550e+02,2.116261006871074187e+03,-7.515051671311442361e-01,-5.785406627387384981e-01,-3.170657429193703969e-01
2.418157894734972615e+03,1.259247041389585775e+03,4.344188847141898577e+02,-8.308242114941581935e-01,5.012991612181344481e-01,2.417235622712545773e-01
7.546611625059956623e+02,6.337854063363546402e+02,2.031315782096675321e+03,-1.956154866120701080e-02,8.392749381371333861e-01,-5.433552466194526698e-01
1.206186438110933352e+02,2.103766021534509036e+03,3.781883945620846248e+02,-5.354755465526642721e-01,-7.322706360645299117e-01,-4.207679343792420923e-01
2.901093842039379638e+02,1.473863846655304542e+03,1.093869518736452164e+02,3.690619515410497598e-01,5.447506356373413849e-01,7.530205979237383218e-01
2.772558362271333863e+03,1.964789931698443525e+03,2.876890607566458584e+03,-2.883511843618131731e-01,9.569088563060725861e-01,3.433708199809215600e-02
3.426903711389237515e+02,5.504808174407027082e+02,1.550258109933351989e+03,-3.715540143414312602e-01,-6.377717223010608283e-01,-6.746812911737705143e-01
7.022561042599154462e+02,1.544481111214633302e+03,2.757359988626237737e+03,-3.199593041372832958e-01,6.221441091464585682e-01,7.145367388387702245e-01
2.708411472098302511e+03,2.690448237525892637e+03,1.303578933323903129e+03,3.535368650170780946e-01,8.552416077491257207e-01,3.789109096457725645e-01
2.963979826313022272e+02,1.639524736539601008e+03,1.052269756221873422e+03,-5.320457483149462208e-01,-8.446355093777392353e-01,5.931423099219945705e-02
2.542186885686423466e+03,4.293155308229563616e+02,2.509627954398850761e+03,4.322962429824550590e-01,5.265962571883310295e-01,-7.319947678901095323e-01
2.549488743326184704e+03,2.554793223703823060e+03,1.116206556076313490e+02,-2.978117073928529535e-01,7.402710078670416971e-01,-6.027495515147796024e-01
1.509528068437447814e+02,2.066672478468246027e+03,4.508555070739028565e+02,8.232446495099361439e-01,-5.432354581742490085e-01,-1.648134825658276459e-01
2.134828079898475153e+03,1.858656752615074311e+03,1.805439644065314496e+03,-5.088648044659963565e-01,3.307078633117707667e-01,-7.947886007735305292e-01
2.039319515006407983e+03,1.083734343090214452e+03,2.136845306245292704e+03,-1.599459924823021517e-01,2.051737752635892920e-01,9.655677093984333936e-01
5.384585768462031865e+02,1.169094672885755017e+03,1.258386182451663672e+03,2.606603073124331149e-01,6.991149917585266493e-01,-6.658035990367303647e-01
1.258923940405932854e+03,1.093413274331675439e+03,7.742895460352401642e+02,9.324674594081404366e-02,6.220525417113853539e-01,7.774031642087999572e-01
3.901134907568622907e+02,1.536414189344923443e+03,8.819219385060575860e+02,7.777433307430524634e-01,-5.882300665701725162e-01,2.215867781875837661e-01
9.013292494119008325e+02,1.147644673955292518e+02,2.662311117519316667e+03,5.415601064318734809e-02,8.292105449921584048e-01,-5.563065688853787716e-01
6.131157010156573506e+02,1.800153998346582512e+03,5.643122308956201323e+02,4.867324943645452429e-01,-7.362338487191210090e-01,4.701608224106921807e-01
2.191984975848538681e+02,1.554001821787637709e+03,2.905723023725210510e+02,6.148436348330930112e-01,3.144550783666552052e-01,-7.232463677023555082e-01
6.886739698606611455e+02,2.173788462903317850e+03,7.581318045573092377e+02,-3.043275697492538456e-01,9.227142160167853824e-01,-2.366077045470880158e-01
2.534331602266864593e+03,5.846339779191971502e+02,1.200175385749080533e+03,-9.912018940934493871e-01,-1.260790405180483298e-01,4.028499333010682193e-02
2.132847739640070358e+03,1.482801661067661598e+03,8.833790719072941329e+02,-9.609096627020298209e-01,-1.738197172487149222e-01,2.154978561875919851e-01
2.459470617791712357e+02,1.010547861327986766e+03,9.420232148658921005e+02,-8.077419791627673540e-01,-4.979901324425271558e-01,3.155292745342180294e-01
2.060519340741070664e+03,9.342494301273499104e+02,2.244708800344762949e+03,1.254520084077261066e-01,-7.954899250161793223e-01,5.928385722810394221e-01
2.598266959439770289e+03,1.609880407883291809e+03,9.514839887042469400e+02,9.975820966991244543e-01,2.762728413102409283e-02,6.377063208815260398e-02
1.460342605355149999e+03,1.599624517149887652e+03,1.786283079444025134e+03,3.819608220370488971e-01,-7.750153638381624965e-01,5.034452465199991122e-01
2.219795623276417246e+03,2.594278709250326074e+02,1.451614500590727403e+03,-3.778467348559675920e-01,9.130714220812219395e-01,-1.534028133290232798e-01
2.000141138127787144e+03,2.848015432992764090e+03,1.849675535405577875e+03,7.257064982307237511e-01,5.791802503412599723e-01,3.713493180824976037e-01
1.669977434371710615e+03,9.968622558359238610e+02,1.719972077612264457e+03,7.138662592660885986e-01,6.550621032231135343e-01,2.475653546083387280e-01
1.698543434430892376e+03,2.000817192143490729e+03,2.166466878413195900e+03,-1.910213154316666995e-01,8.665636295681646839e-01,4.610621790609206183e-01
2.405880550351032980e+03,1.280187299056314032e+03,1.677565369702859243e+03,-6.168402434466312423e-01,6.941801278071776382e-01,-3.709744792062002472e-01
2.487471162759004528e+03,7.878896181973332205e+02,1.081357279219427937e+03,-6.967109362359298341e-01,-1.870607634444989564e-01,6.925331343039229370e-01
5.541033210184239124e+02,5.902850184944530838e+02,9.594289575513853379e+02,-6.762533952783824631e-01,-3.841609525803720837e-01,-6.285711637412274566e-01
2.939798247969723889e+03,1.218580854219833782e+03,5.655197262175837523e+02,-4.904517510039933109e-02,-7.964431550384708514e-01,6.027212221182671747e-01
2.293552326899864511e+03,8.537949748733244633e+02,4.717201734167754239e+02,-4.571496120183929923e-01,-7.737476896464328124e-01,-4.385530127569987613e-01
4.972646730882645727e+01,1.025434753960320904e+03,2.094123945536641259e+03,-5.342878006105407085e-01,-3.974629927957187281e-01,7.460292993419370688e-01
2.640099332036708802e+03,2.509275173700421419e+03,2.297763625465011501e+03,-3.156579499694842084e-01,-8.491309462613885195e-01,-4.234816344569165558e-01
4.051624948257233996e+02,1.424991733274629269e+03,3.055876229560818729e+02,6.793556069604491654e-01,6.059927379359815180e-01,4.138221367450667376e-01
1.704577901931526640e+03,2.861874796143095409e+03,6.248343538344033732e+02,5.424923071609676767e-02,4.800261716465549222e-01,-8.755751798109994155e-01
2.623238294462998965e+03,2.394349381979423583e+02,1.055731098476328725e+03,-9.911906656405824467e-01,5.548323015594884555e-02,-1.202608644507476843e-01
2.931655531166843957e+03,1.539216384050408124e+03,8.407174770740093663e+02,1.669565253012489370e-01,3.651485819036632829e-01,-9.158559012164944058e-01
1.867610104611505761e+01,3.900072106486645112e+02,1.405252608724988704e+03,7.198237460097107743e-01,-6.179652120038706675e-01,-3.161847109421305202e-01
2.564633175892803138e+03,2.299881047906030290e+03,1.482607643523579327e+03,-9.774607634744970630e-01,-4.927433431075432108e-02,2.052863752081111048e-01
5.151963746573561593e+02,2.658654985336772825e+03,2.839444598337075604e+03,8.858446975791024469e-01,1.405314902754850881e-01,-4.421878243596717994e-01
2.601502992170755988e+03,2.007201942276304862e+03,1.419296060728981502e+03,1.176970617559650323e-01,8.577500835416493885e-01,-5.004120260728216474e-01
2.554500902860291660e+02,1.494963341738634654e+03,2.974673860620708183e+03,6.782876940633730811e-01,-3.704492634938792439e-01,-6.345810801300607595e-01
2.650245073338700877e+03,2.882105990331242992e+03,4.610090083975341031e+02,8.556941191169811223e-01,2.605039803758643635e-01,4.471300154507020785e-01
5.887234312955908990e+02,3.771760217855940596e+02,1.842562747168256237e+03,8.536050554310218308e-01,-5.087948821578581748e-01,-1.117415644806070280e-01
2.135560960512005749e+03,2.575994831726938628e+03,2.275255076178961644e+03,6.931363289632417324e-01,-5.558516007296953054e-01,4.589019802066627851e-01
1.739785680141324633e+02,2.570627847812741493e+03,1.637358090256190508e+03,3.489983242718978917e-02,-7.835857151977547730e-01,-6.203026911392350851e-01
2.718948440368915840e+02,2.606662119181022717e+03,3.638834277397714345e+02,-9.742024288906255824e-01,5.058144339494716896e-02,-2.199344109676553416e-01
3.276713856300776797e+02,2.900979139976010174e+03,2.262031350834840850e+03,-3.919887405262549307e-01,9.199280651316240620e-01,8.785344832553665384e-03
1.744541795668100576e+03,2.589113941119745050e+03,2.377501614321933630e+03,4.892544373801477331e-01,4.985609850744128213e-01,7.155885966569521806e-01
1.474664785814061645e+02,1.037641287659733962e+03,1.166251682683361878e+03,-4.099295359730075750e-01,-2.987077556596143824e-01,8.618186887308436628e-01
7.250739941911830329e+02,2.616925779901948317e+03,6.467517532974143251e+02,4.409706506977456031e-01,-8.142368354865642255e-01,3.775755036546102339e-01
7.526550893516714495e+02,2.616120972017924487e+03,1.819642759182541454e+02,1.811621869970674314e-01,5.471578405948437571e-03,-9.834380121960850651e-01
2.918622421595524429e+03,1.803054296901522946e+02,4.555197613965196410e+02,8.916866023377966188e-01,3.648494684592401005e-01,2.679176526029707350e-01
1.890950979680373621e+03,1.011695550403191532e+03,1.349792058116082444e+03,-1.577112438575772047e-01,8.469818343825025186e-01,5.076898027210581255e-01
9.306498837373029573e+02,2.097139185580496701e+02,9.729755734119905242e+01,-3.133515333684326176e-03,9.926370371093858891e-01,-1.210863065765623997e-01
4.357157582310283601e+02,2.666849385347676161e+03,2.698122119079545882e+03,-3.037353145563553847e-01,3.971265417690008070e-01,8.660458235647499059e-01
1.190998095202238801e+03,1.594064554305470892e+03,5.529619060643904049e+02,7.939073096052060574e-01,-5.838805429673687986e-01,-1.696899976414460998e-01
2.685381216682528702e+02,2.236185082782611062e+03,4.269709407976765192e+02,-7.944491307289506254e-01,-6.030070848318982435e-01,-7.233971472538835989e-02
2.766295915700023670e+03,1.687811798575301054e+03,9.899365330405536270e+02,-6.749618085560488145e-01,4.340064909062449905e-01,5.967117585920318490e-01
2.584425259616737549e+03,4.714350544530180400e+02,2.566508002533309991e+03,2.040707108858285379e-01,8.105114086853287825e-01,5.490231337106630249e-01
3.099949414882649990e+02,2.746094611473482473e+03,1.258512352979263369e+03,-9.783086896131475418e-01,4.636021977462244218e-04,2.071518595147255060e-01
2.128171633392215426e+03,1.481474758773550093e+03,1.543600088383507682e+03,1.336734447354898936e-01,-2.479787871754690898e-01,9.594987917050918913e-01
2.500104723498547173e+03,1.183790259957215540e+03,2.814053673446703215e+03,-8.952422070598589077e-01,3.102601206065798700e-01,3.198125204862740656e-01
2.578176399155498075e+03,1.388957024915642023e+03,2.095903094289475121e+03,3.077893060278956774e-02,1.683922432753528486e-01,9.852394175202507931e-01
1.887860926059012854e+03,2.345952214760593506e+03,7.636595911254606790e+02,-3.201505507769593084e-01,-9.143223890343944449e-01,2.480286147758905546e-01
2.081276853842539367e+03,6.800124366360104204e+02,2.312732682932716699e+01,-2.222537830103554768e-01,-7.447734745598275641e-01,-6.292183464662068904e-01
1.470435958113100241e+03,1.783270229397135154e+03,2.658266386940115353e+03,-9.952012690059913735e-01,-2.520440776331627636e-02,-9.454719455470361744e-02
2.694526442698187111e+03,2.645220759463353261e+03,1.098620841991660654e+03,7.587753725232152524e-01,5.404000991050375013e-01,-3.636312238236993344e-01
2.253214825698863024e+03,6.648558909526396974e+02,2.984559701151053105e+03,-3.297759813883124891e-01,-4.450213245690562425e-01,8.325886275815794768e-01
1.200843446686381526e+02,1.196087061169968365e+03,2.723280923234213333e+03,7.589995415926231379e-03,1.405516703392096223e-01,9.900442515031560031e-01
3.741269235781097109e+02,1.537982024221951072e+00,2.025873303199354268e+03,-5.781423718319745886e-01,6.986759473932748765e-01,4.214300872346548599e-01
3.112517175628446466e+02,1.886770325378538018e+03,2.587029367938973337e+03,-3.095565741550325711e-01,-8.324381628413665135e-01,-4.595883293151494797e-01
1.388123189573029777e+03,1.028875828343005878e+03,1.663306400033026193e+03,7.388856729761250630e-01,6.415368419803469946e-01,-2.061029904016493941e-01
2.151097242615327559e+03,1.198378135417288149e+03,2.802615164816022570e+03,3.152537088222313599e-01,-2.859286327600490396e-01,9.049087887968580990e-01
1.810839716059182820e+03,2.007637868488291133e+02,2.566670457141702173e+03,-4.210504685246352907e-01,-9.068830988749350119e-01,-1.671968690436798424e-02
3.070360301229306970e+02,2.545489385421742554e+03,1.573632487026054605e+03,3.310505242443004814e-01,-3.920469520023210919e-01,8.583150574371065655e-01
2.127155826097870886e+03,3.679191149319034366e+02,2.128956209912700615e+03,-2.878983916619584638e-01,8.321797096008863859e-01,-4.739108006862072231e-01
1.638931829315663435e+03,1.182453958950679862e+01,2.794979751082457824e+03,-8.592841256328945798e-01,-5.009834061748102974e-01,1.031814817338703172e-01
7.700736056224561707e+02,2.550651071001210823e+02,5.600877720157413933e+02,9.234802054303606900e-01,-3.046043385695418881e-01,2.332391628841750109e-01
1.087748893307908475e+03,9.111479589176727814e+02,1.988290570194892837e+02,7.650245053577501286e-01,5.942617415723410179e-01,2.481743111313861327e-01
2.120757616240661264e+03,4.484967328506675130e+02,2.648061466822991406e+03,-2.443390304912328448e-01,-9.586070169912903616e-01,1.461883208524688005e-01
2.108068396941736410e+03,2.134717087543913294e+03,5.077827697303116565e+02,-6.859736199034989490e-02,-1.745083418478199921e-01,9.822633254649637546e-01
9.920147047018564308e+02,2.481510747852878467e+03,5.215649272654799233e+02,9.309424679901942556e-02,2.830950450995554646e-01,-9.545630710712644795e-01
2.946000914237219149e+03,1.470823356211635200e+03,2.634119771615218610e+02,-8.933224062482636452e-01,-2.646592667670660814e-01,-3.632224538889788357e-01
2.852645116452850289e+03,2.493197391668562375e+02,7.107712142135708291e+02,8.913125494461938692e-01,2.495406629208861762e-02,4.527021468639356727e-01
2.239510525374538474e+02,4.194144273022376410e+02,2.686230389155190551e+03,5.934091060743467150e-01,5.138936856240645945e-02,8.032588409888818948e-01
3.665559366473299860e+02,2.583692836442425232e+03,2.665516490561893534e+03,4.996191498481382665e-01,-5.412934751929660004e-01,6.763002874600494430e-01
1.391007383009389514e+03,2.016775681036456490e+03,2.000632908295608331e+03,2.205773271846182826e-01,-9.628041466417252003e-01,-1.560570983377211896e-01
2.126870595689380025e+03,2.995840219432283220e+02,2.174722532904455875e+03,-8.663662840286155964e-01,3.126105382070341610e-01,-3.894664469506413096e-01
2.605845827273913642e+02,2.711560607758305650e+03,1.360042714888698583e+03,-4.117022699750425702e-02,-3.274349924032432524e-01,-9.439763440674040496e-01
7.916783702005452596e+02,2.867066205908169536e+02,4.354445680758768162e+02,5.137840418813110349e-02,8.827844189351590209e-01,4.669603080224214442e-01
5.828329018307912293e+02,1.871962102073146298e+03,1.699744108591186773e+02,-3.092400254066675069e-01,9.480132930838468530e-01,7.510927254876076375e-02
2.031482939080671713e+03,1.846907671726801254e+03,2.667345242737859735e+03,9.757640717005682252e-01,-1.986289556851852101e-01,9.182055511562327299e-02
6.684344182672485601e+01,1.576845641457272222e+03,5.286305705578146217e+02,1.104961267753579029e-01,5.902580641497620073e-01,7.996161727190236324e-01
1.759121779613199351e+03,1.654786798891783292e+03,2.338405744319707082e+03,-8.545190855962808696e-01,4.592887946174945557e-01,-2.425921175358030091e-01
1.976653359249211803e+02,1.111347769179131092e+03,2.307267588725873338e+03,8.820201545729634551e-01,-3.777828847892232833e-01,-2.816390223094416001e-01
2.456080424068776665e+03,1.995255539129960880e+03,2.845296330984917859e+03,9.664295278760737240e-01,3.783532001729052879e-02,-2.541307856368812956e-01
2.478806074414822433e+03,2.869360490900604873e+03,1.708902409972577516e+03,-8.920822664582750416e-01,-1.230878671265850793e-01,4.347857021992502791e-01
1.791253743120564422e+03,6.097770461657385113e+02,1.994003647296234249e+03,7.215804765315325664e-01,-2.856346746065905884e-01,6.306619130333728229e-01
1.164873979151327603e+03,8.941433951655004648e+02,1.159129861719336759e+03,5.674099847186893086e-01,7.328156327322240537e-01,-3.755358274050653589e-01
2.064465535137467668e+03,9.090369119063485641e+02,4.433923433974331374e+02,-7.837233693335521334e-01,-3.268832646859733959e-01,-5.281335168579102124e-01
2.264443049074646297e+03,3.392140631389120244e+02,1.814398745343700512e+03,2.521105681197197690e-01,8.938917252109911393e-01,3.706721530431847378e-01
2.581352540812762527e+03,2.474669012305695105e+03,1.790468242057811949e+03,2.615420277572432783e-01,-9.508729712209017526e-01,-1.656392475174999213e-01
7.801847905886346553e+02,2.279902132526544847e+03,5.674260134095335388e+02,8.203322633981398049e-01,-1.855011217831230852e-01,5.409660908460787176e-01
1.891583880798589462e+03,1.459662953197851493e+03,6.979287967971109765e+02,8.699480242769150329e-02,8.673676404130084006e-01,4.900053884550018002e-01
1.326824740687290387e+03,1.715894579527812994e+03,2.982112323478281269e+03,-9.211866998368875015e-01,-3.390901618389933203e-01,1.908741108365133166e-01
1.673302236451468843e+03,2.138186463096071179e+02,1.340723126923766586e+03,-6.012523365019580845e-01,-5.609489377241876351e-01,5.690623139138997200e-01
1.009884117865588451e+03,2.580551946733748537e+03,5.831498678084203675e+02,8.119778554310941310e-01,-2.941968960121605359e-01,-5.041231483143095993e-01
2.811514206349683604e+02,1.730942036014991800e+03,2.292974793963099671e+02,1.655368072011511038e-01,5.049337073850701518e-01,-8.471360673516488138e-01
2.308805704626123770e+03,2.673146411831303340e+03,1.295848847072034459e+03,3.153396407702546700e-01,-7.573141044550597556e-01,-5.718708404459154071e-01
1.997188774735347124e+03,1.397291120568378346e+03,5.194219474293240637e+02,9.012128196918712808e-01,-3.085830586786613150e-01,3.042892530464205159e-01
2.709581640213701576e+03,2.533180182369901843e+02,3.098971800110198274e+02,6.032527480278612186e-01,-4.233715434149843554e-02,7.964255692524555563e-01
1.398968927123490630e+03,2.242461792067204442e+03,1.550705733830019426e+03,9.706713765687277062e-01,1.834983881810138551e-01,1.553235984811747183e-01
1.487325390372759784e+03,1.419399951552514494e+03,8.822402892287763052e+02,9.142741400841929433e-01,-3.560272897393066960e-01,-1.932546654914009121e-01
2.432620519041083753e+03,2.204769679205851389e+03,6.305989213664070121e+02,-1.879344888924878720e-01,9.683036872863989286e-01,1.645253690841721461e-01
2.171532657086008385e+03,1.372699368425364128e+03,2.800643269695046456e+03,4.155255068138289376e-01,-4.447324320375317663e-01,7.934428883549797806e-01
2.692369755432985585e+03,1.603610584828358469e+03,2.585629000326842288e+03,-6.107707378518058283e-02,-9.754708661102615697e-01,-2.114856506431011252e-01
1.063716707267921265e+03,4.234851764832822028e+02,9.027952490708373716e+02,4.190665379171156779e-01,-8.149098132790449922e-01,-4.003813594807763554e-01
1.687334938582388986e+03,1.050114291550471251e+02,2.003186647955784565e+03,-7.865076758513686039e-01,-5.011211009564540131e-01,-3.609478050952379391e-01
2.212679114581493650e+03,3.804606806492777196e+02,8.086493117147457497e+02,-5.878609736357497395e-01,-4.547711904985834441e-01,6.690311203288900055e-01
1.205881159871268665e+03,1.848789009545741465e+03,1.993281324327060247e+03,6.354017270915822690e-01,-9.941713645665402246e-04,-7.721811036488346325e-01
2.136316342654526181e+02,2.922646409822334590e+03,2.409265679119918786e+03,5.094541675950998716e-01,4.290199350287048352e-01,7.459211395770666275e-01
1.817190279595114362e+03,2.771712545080097698e+03,8.883439143300234946e+02,-5.560176211628711229e-01,7.992297736606237546e-01,-2.282020461143374757e-01
7.156078403285075638e+02,1.246815166376799425e+03,9.646362559517991713e+02,1.589632784762309847e-01,-7.242927782065197162e-01,-6.709177651053588320e-01
2.877209649397920657e+03,1.865704684252044899e+03,2.288803233191801155e+03,-2.010571679271255796e-02,7.634081548823663799e-02,9.968790498565220926e-01
2.851066458920640798e+03,2.410077772193947112e+03,2.092197358580952368e+03,-8.824764722731269773e-01,-2.019901156611101090e-01,4.247767284816674760e-01
2.005130042055375725e+03,1.164958792394233882e+02,8.844845592554931955e+02,-5.830917239308527344e-01,-6.801146805758481184e-01,4.443512830504243727e-01
1.372806735881080158e+03,4.083705901967106229e+02,8.195354209400170475e+02,-8.710745892641219568e-01,4.778443861772151968e-01,1.135508808299687811e-01
2.319059210763392912e+03,5.778120826631003411e+02,2.796403750440756085e+03,7.800758439587104354e-01,-5.228344000849755036e-01,-3.436944395242513828e-01
1.532729536514399911e+02,1.280324031109648331e+03,2.883359885749207479e+03,6.398685153871596087e-01,7.097267059036598269e-01,-2.947139052426480110e-01
6.999299118731912586e+02,2.219919980287138515e+03,2.686247062454229308e+03,-3.658786695468594363e-01,-5.193996536499467798e-01,-7.722414123568712707e-01
7.011558024736256129e+02,5.732178520853744885e+02,2.088007202371842595e+03,-7.316868330795055220e-02,-7.909013929296018208e-01,6.075535617910544639e-01
2.129041442385839673e+03,1.696682874527406739e+03,4.815237737673193692e+02,-9.425852553720206473e-01,-4.693585630291814692e-02,3.306509666527142066e-01
2.791013410901868156e+03,4.208212179001591124e+01,1.622644216209408114e+03,-4.357770514049843502e-01,-4.816942028913349105e-01,-7.603085270925606931e-01
2.332588668267694175e+03,2.419129477404750105e+03,1.515038085847070761e+03,5.677441340830702288e-01,7.963662532556311513e-01,-2.084883423356151955e-01
1.674608580221049124e+03,1.108940006684538048e+03,9.461676807797606443e+02,5.265836336658880068e-01,7.214987719394773125e-01,4.496100519840009468e-01
2.768648471467869967e+03,3.574338472387110528e+02,1.190934466418073953e+03,-1.329877598809986738e-01,-9.371006066365827891e-01,-3.227331850975082017e-01
3.535549555615255031e+02,1.055683116935835187e+03,2.030297248495851136e+03,-2.731387919159941613e-01,1.532618461619711658e-01,9.496873205754068348e-01
4.061271159300006417e+01,1.984698115252296930e+03,7.328333038178097922e+02,-5.366004937346700032e-01,5.983527921963468499e-01,-5.950074337304902539e-01
1.513020402646072625e+03,2.186491538272044636e+03,1.972184018769285558e+03,6.196397693450932387e-01,-2.301963955636768255e-01,7.503706922018282821e-01
1.729950692195586271e+03,1.644552638558801164e+03,2.526332510097465729e+03,-9.111386760212464297e-01,-4.120003080156375841e-01,-9.058656261837551640e-03
2.932915463192739480e+03,1.037450326613174411e+03,3.947878855603347006e+02,-3.155597620128482439e-01,-9.478970321913180452e-01,4.374074715052379131e-02
2.612533102400479947e+03,7.495691726637533066e+02,2.574077820863467878e+03,-7.311181193417061186e-01,-2.826161212218772367e-01,6.209624977369792020e-01
2.518616382843184056e+03,1.743084658223503084e+03,1.481393185614672348e+03,-1.900245804031050478e-01,1.244906839416794614e-01,-9.738545725386089646e-01
4.044151825065274011e+02,1.084525713625924254e+03,2.312156199797503632e+03,-3.825580019182847069e-01,-8.304585032977129799e-01,-4.049543794908412875e-01
3.432176562205547725e+02,7.287640180919352417e+01,2.208176820143916302e+03,8.597127639088413265e-01,-2.300953475133390158e-01,4.560154543707226615e-01
7.688338798330225927e+02,8.087197501259096271e+02,1.935438386002942252e+03,1.848576862980642332e-01,8.259720366633220845e-01,5.325390412606105794e-01
1.171452538899720963e+02,5.195732615814587234e+02,5.926626766144221392e+02,-8.186338783216242643e-01,5.726559011679835942e-01,4.363246637059271099e-02
2.598223098823387772e+03,2.161366140276466012e+02,1.893521057731943756e+03,6.151836367507306225e-01,-7.839230150886845605e-01,-8.374842976683960494e-02
2.077729105946248751e+02,2.784473287248806628e+03,2.789770426264375601e+03,-6.639398101988982503e-01,-7.426895084040147088e-01,-8.715631095711851017e-02
2.161272376734023965e+03,1.565760161989517655e+03,2.806742752449949421e+03,8.990199957435142109e-01,7.925216826061842745e-02,-4.306763762726282252e-01
1.986812657468482257e+03,9.854503502803664787e+02,1.410404610299192882e+03,1.682922464090133019e-01,-2.313728737860561990e-01,-9.581984726947698761e-01
2.033740865623507261e+03,2.999946756394905151e+03,1.919173710271014443e+03,9.760609442796889246e-01,2.521542128388978149e-02,-2.160305894574148511e-01
1.368415747301417014e+03,5.147212784000205374e+02,2.662539022975726311e+03,-5.924735064847717059e-01,6.424035133674688147e-01,-4.860996504079915237e-01
1.096469017993048283e+03,2.546917433576526491e+03,1.667242828043620193e+03,1.117481270039406144e-01,8.667848416260329758e-01,4.860004058006990868e-01
1.507670719691966269e+03,8.138617783831994075e+02,2.310186120074700966e+02,5.579152833349346752e-01,8.077032690395128389e-01,-1.906461796212664261e-01
2.186794565126793714e+03,7.730757672540142948e+02,1.078304693634998557e+03,-5.250104480431338344e-02,-2.604911726183913867e-01,-9.640477111026979351e-01
2.414319047616679654e+03,3.918962120056352774e+02,1.525207693891061126e+03,5.807332439006609448e-01,-7.587566916897404701e-01,-2.950206471497471838e-01
1.619014853658401535e+03,2.402610007641231675e+02,2.115705466925727706e+03,-3.385009472122336716e-01,8.696134702382491977e-01,-3.594294382999399518e-01
1.024412110321650289e+03,7.847376995669453663e+02,1.556930092884243550e+03,3.161589077700979744e-01,9.475956464470738361e-01,4.589156646020132319e-02
1.374935312315664760e+03,4.108956524778750463e+01,8.633024169958136440e+01,6.436070037300618552e-01,7.600772597782641249e-01,8.973619067899751833e-02
2.102577186452491333e+03,1.673935550080899247e+03,1.989705403417968682e+03,5.500657106231702231e-01,7.947312535976350234e-02,-8.313313035981371169e-01
3.605919018721659342e+01,2.056823293521740652e+03,2.132921189878881705e+03,5.824407860879133869e-01,-7.062139434368954749e-01,-4.025227904064601070e-01
4.827843626735410680e+02,2.474829972882516358e+03,9.342339415024489426e+02,-2.359186407797637386e-01,8.805342451844115903e-01,-4.110983312908815801e-01
1.596157173263396999e+03,7.361379184210602489e+02,2.825004454618372165e+03,3.389611801904242605e-01,-9.406703179509037227e-01,1.564197078569607227e-02
2.525221657788354605e+03,8.256664074276099541e+01,2.403784532508696429e+03,7.077374944192865724e-01,3.189300905781067841e-01,-6.303897495335333279e-01
9.863594659243685783e+02,1.711070311915074626e+03,3.914385462473661619e+02,1.180432180743020698e-01,-9.896354954869570619e-01,8.177643143930769798e-02
2.793377618945734866e+03,7.224529448449738993e+02,7.107180000137332172e+02,2.344324571440755400e-01,9.686588103375457504e-01,-8.210683402032881162e-02
1.895645690616860293e+03,1.375179989822908510e+03,1.218504174978586889e+03,3.834758222618317447e-01,-4.653858597251880336e-01,7.977231946662073359e-01
1.409480714808197810e+01,8.105829225066752741e+00,5.867154255209272833e+02,-3.986272412789693687e-01,6.989875417616292497e-02,9.144454530888863619e-01
4.180325094123470535e+02,5.752550386377486120e+02,1.367057733992389785e+03,-9.227942835158265966e-01,9.383813274239839741e-02,-3.736912029389137246e-01
5.983062125026899594e+02,2.261331062440955975e+03,9.656326623458026006e+02,-7.775341648303160103e-01,-6.279590422351456480e-01,-3.328759223406718704e-02
1.359344421943471161e+03,7.371887897719432203e+02,2.966325798381556069e+03,4.886205861996363864e-01,6.148351253681172413e-01,-6.190538678947861140e-01
1.816684347244308583e+03,1.546052753080059574e+03,1.323865324645612645e+03,-9.683504075187124860e-01,-6.402269624234575851e-02,-2.412438240125616140e-01
2.296612875215815166e+03,1.358912861639125367e+03,2.538881457596345172e+03,1.075204791441878027e-01,3.699724409479708265e-01,9.227999455481152857e-01
1.882602348196632875e+03,7.498732232292672961e+02,9.279987947458781719e+02,3.366931447306876213e-01,-6.704351327229867152e-01,6.611765718036836104e-01
1.531921175914443666e+03,7.928654437423263062e+02,2.220538979018824193e+03,-1.508534915601316140e-01,6.649509160884863324e-01,-7.314940213543785763e-01
1.844715562392766515e+03,1.942913103306464791e+03,2.001494538577487901e+03,-4.326198743600958574e-01,5.683071517006312856e-01,-6.999050118655891772e-01
6.963662124472592723e+02,1.215634721625068096e+03,2.379185494959077459e+03,2.150722192147810630e-01,6.986763023342829060e-01,-6.823454880619661544e-01
6.184342816223157797e+02,2.603071332895573960e+03,1.310500921855519891e+03,-1.629199251839521800e-01,-2.984271201176715363e-02,9.861878677604172250e-01
2.596356303834341816e+03,2.550232934619955813e+03,2.144625960185400800e+03,-2.105284435579055369e-01,-7.901202779993692360e-01,-5.756628533675638426e-01
3.306818687807935362e+02,2.957563338241252950e+03,4.921832647772491782e+02,1.579519003621225604e-01,7.937366527579157172e-01,5.873953721648257353e-01
2.229183884870483780e+03,1.175611758704923432e+03,1.027857314351737386e+03,-1.920300885606061325e-01,-7.264740123463119259e-01,-6.598181222676871016e-01
2.657205735855467537e+03,8.985961073242978046e+02,8.665012696641150569e+02,-7.537485621999520102e-01,6.479825503592314684e-01,-1.094610406101235167e-01
2.927129999656173823e+03,2.073185165048124873e+03,6.672268379400444474e+02,4.273301978625841380e-01,4.260852437172706897e-01,7.973959286835610172e-01
1.845807202137132663e+03,2.477592478198825120e+03,4.602815225542268536e+02,-7.804859922232514347e-01,-6.113576261409636725e-01,-1.307037447916952477e-01
2.155625467134395876e+03,1.153394840974411181e+03,2.189526540770610154e+03,8.192862219955471259e-01,-2.187144969148465956e-01,-5.300321266560630296e-01
1.524140120372707997e+03,2.408448787746154267e+03,1.775853303210733429e+03,2.353705254063145902e-01,-9.673687823774482775e-01,-9.379954504968891771e-02
2.219353573316972415e+03,2.476692661526283246e+03,1.017025292863301615e+02,4.404861160652900343e-01,-8.565902625594458142e-01,-2.687472858319793212e-01
1.479415595217051305e+03,3.543160407262438980e+02,4.814442823587627629e+01,-3.402232080510969592e-01,7.893247688543939544e-01,5.110915553757247043e-01
6.731667554441802395e+02,1.957847851815666218e+03,1.618514164779244595e+02,-1.668525622293126620e-01,8.184099560584852107e-01,5.498775921074269268e-01
1.808901105638799208e+03,6.354155000704450913e+02,1.245662529259675239e+03,-5.328356939785194868e-01,5.374795482343337483e-01,-6.536068072260616812e-01
2.385708233536229727e+03,2.783967850799837720e+02,1.589752104093347725e+03,3.362837647660090190e-01,6.279986391606956486e-01,7.018054849936083972e-01
2.654963473042862006e+03,1.980574927373851324e+03,8.915940097713948944e+02,4.311069328774888576e-01,-2.225198698072518022e-01,-8.744322271999860341e-01
1.340114296674707077e+02,1.939106708384709918e+03,2.034452142605659901e+03,-1.871857009422208395e-01,-4.435227563283699603e-01,8.764981905181863375e-01
1.522006929895044323e+03,6.261971364576111228e+02,1.063033867672412953e+03,8.914791903316862109e-01,2.415778607608509709e-01,3.832818680759269570e-01
