x,y,z,nx,ny,nz
1.392803548181976112e+03,2.557918458981222102e+03,2.620370755459710836e+03,-1.371224435273832587e-01,-7.509327574499372604e-01,6.459856262098355728e-01
2.316244378098900597e+03,1.549061825926990650e+03,9.712285442462389256e+02,-7.169866350989491099e-01,6.943409092872203647e-01,-6.181316024668804393e-02
2.369224956522366028e+03,8.008000971267326804e+02,4.986675967688540823e+02,-7.908632143046556706e-01,-1.894509496778520596e-01,5.819310216218656073e-01
9.413428928337856405e+02,2.588773117104050812e+02,1.889686243455397289e+03,-3.834127402689384012e-01,9.113204006171061744e-01,1.499659895394314379e-01
2.541860852567538586e+03,1.529270083981650259e+03,1.293051908360839434e+03,4.318509553703774317e-01,7.269716265845786729e-02,-8.990104976512243162e-01
1.494808600968379096e+03,1.097771070119649949e+03,2.418218110989376783e+03,9.968847312086781542e-01,-7.835489956564156699e-02,-9.019001999108324300e-03
8.424015601454486841e+02,1.777065979617702624e+03,2.509134019598405700e+02,9.975740019255889823e-01,6.023533535339679890e-03,6.935292153841633722e-02
1.707861458499161699e+03,1.885494137577570655e+03,5.971534722019051742e+02,-3.339505776028580120e-01,8.956885691454805620e-01,2.936307184557487293e-01
1.815254346084691633e+03,2.004438149211566497e+03,2.338300918406413984e+03,2.910492370575621379e-01,2.017401630339449026e-01,-9.351958341584121204e-01
2.642003135942447898e+02,1.393408702801600157e+03,7.103845813809708716e+02,-7.071368973853063844e-01,-1.928680793975860383e-02,7.068135732962246287e-01
1.918083750728018913e+03,5.770352689220239881e+02,1.290592084117996137e+03,-3.319184878179199938e-01,-8.762986865707959039e-01,3.491858092176190476e-01
7.183851010215957444e+01,5.329603114440801619e+02,1.444022521789102257e+03,8.264274274097329620e-01,-3.717474622993890976e-01,4.228729495946683681e-01
1.129223558442573221e+03,1.412427557885119541e+03,1.793166227787180105e+03,-1.613779542180942550e-01,9.252203779831106312e-01,3.434012347927313247e-01
1.609971230768735211e+02,2.184900992850489729e+03,8.785849864182366673e+02,5.184996941075322718e-01,-5.171955353625864449e-01,6.809308668370108730e-01
2.341072646482513846e+03,7.861080550135385465e+02,7.912487952764635679e+01,-7.450427080648756029e-01,2.219850961690881044e-02,6.666472750489156329e-01
1.392671842821769587e+03,2.102542846117626141e+03,2.895498801099533466e+03,-8.992691708574629406e-02,-8.321471840461795999e-01,-5.472149611144299097e-01
1.732013165361456686e+01,1.853201198280363315e+03,2.373773519344388774e+02,-3.375595946596053887e-01,-2.182381770378966634e-01,9.156558404424768316e-01
8.272384118037492726e+02,1.840362795901539812e+03,6.115242957842314127e+02,-1.569623034701381897e-02,-4.427760061214528475e-01,8.964948615335330828e-01
5.476847244015780802e+01,1.577864742512282646e+03,3.877338670240331453e+02,6.663218532011669915e-01,-6.805090455887934375e-01,3.048321289142471024e-01
6.293327027278869537e+02,1.661727347297954793e+03,2.466039172321834030e+03,-6.185837317305505900e-01,2.445696438466963829e-01,7.466859153265221760e-01
9.532544262140485216e+02,9.675297533946936710e+02,1.634987642215183996e+03,6.419005787495422888e-02,1.934805586749256956e-01,-9.790019968748013834e-01
1.314111389524072365e+03,2.994999392567445739e+03,4.676292837800046982e+02,-4.642579256177730047e-03,-8.172871029882131655e-01,5.762119729292198844e-01
2.376941799077773112e+02,6.709501373486305056e+02,2.176097132862824310e+03,6.333872832674217745e-01,-7.514634344163729773e-01,1.847248118966811070e-01
1.758048627724732114e+03,1.660485969553008999e+03,1.826453647445616525e+03,9.945258402888133009e-01,-7.882560418144424208e-02,-6.859210685829708609e-02
1.734489925397383331e+03,4.041809544941074250e+02,2.884050330757197571e+03,7.892268675103241149e-01,5.903449439885867234e-01,-1.691561370655936536e-01
3.878802164302601341e+02,2.064597940259181996e+03,1.827979550126329059e+03,-5.435207725522179789e-01,-6.077121137631736891e-01,5.790260413744234835e-01
1.281969321058115838e+03,1.818093260991970737e+03,2.546938839296396509e+03,1.400953794706380762e-01,-5.649782286803978204e-01,-8.131253813331239533e-01
2.984860179103827704e+03,6.844558958355540312e+01,1.524090781142689366e+03,-1.086606045759211936e-01,2.451534778947226656e-01,-9.633756511814677292e-01
8.253727462732659887e+02,1.574773284528041813e+03,9.454533462280620597e+02,-8.857875086623427929e-01,1.970480713633042391e-02,4.636725246048982729e-01
1.593093673749144955e+03,2.622253696013618537e+03,5.978893705437415917e+01,5.225656018086104471e-01,-7.185917653121907112e-01,4.588584385536724763e-01
2.427282416176969036e+03,2.877196309916728865e+02,5.766121966838893513e+02,-5.048573129059130693e-01,-1.119825085606824949e-01,8.559082961286668123e-01
2.182769754761014610e+03,1.323683387098238427e+03,7.551887190747638670e+02,-3.876929764563984970e-01,8.721971417213996158e-01,-2.982721944456090402e-01
1.685354561471697934e+03,1.137433575466884008e+02,2.052416728772729130e+03,2.007867867470795042e-01,-4.043408356709671803e-01,8.922965621791258961e-01
1.530243294386898185e+02,2.527071878808254496e+03,1.879620565285643579e+03,6.388464792381811641e-01,-6.759427282059401465e-01,3.673916223194138020e-01
6.823620857894170513e+02,1.998408907704560306e+03,7.101182162651087992e+01,-7.525229183548025613e-01,-5.867355488290176835e-01,-2.990830203991570180e-01
4.798108490473765642e+02,2.197285206150922022e+03,1.276351220476762592e+03,-4.099717198659506012e-01,7.101021011247290460e-01,5.724318255376787956e-01
1.770932879851693770e+03,1.331945038244979060e+03,1.075174430378430770e+03,4.164236700199441255e-01,-1.303010695961586141e-01,-8.997849511462268079e-01
4.938062034499213269e+02,1.308197413408182967e+02,1.759433228446106114e+03,5.097262260971874293e-01,7.638941763664279794e-01,3.957838573542076244e-01
1.159979097333189429e+03,7.816696388099201158e+02,2.471061444550798569e+03,3.480027421156945550e-02,-9.903025017578630518e-01,-1.344986837367456722e-01
3.255876329671596636e+02,2.757146642123586844e+02,2.534179370837653664e+02,2.337333384956441495e-01,8.321017121463056831e-01,5.029666660116427490e-01
7.742043415103705684e+01,4.665506218691754157e+02,1.935815448300380922e+03,-7.682498321514281692e-01,-6.375290751702418213e-01,5.786945404856336933e-02
2.326428138117823892e+03,2.738040296738618963e+03,3.660294956771153920e+02,1.112881166463730032e-01,4.641747090454629299e-01,-8.787245271277359659e-01
8.132584581833357618e+01,8.387844076549264400e+02,1.887421427909903969e+03,1.501314518780555995e-01,8.330342389136839998e-01,-5.324608003923727573e-01
1.308115001752278658e+03,1.244787984762393307e+03,1.803157903515856333e+03,1.685917052505671865e-01,6.555814935125249265e-01,7.360636808623239880e-01
2.223234703043308613e+00,2.479550843938812250e+03,4.400213088081698061e+02,-9.157700501052911113e-01,-1.247583019671663629e-01,3.818384231850193711e-01
1.171353658320438399e+03,2.244498794306076888e+03,2.648882879923211931e+03,3.899621049401950090e-01,-8.701357077318113697e-01,-3.013194431839277265e-01
7.630144751211919356e+02,9.903132947820507752e+02,1.305176714408927864e+03,-1.125329327796464468e-01,-9.912277313412318769e-01,6.931034309629624524e-02
7.749586640644115505e+02,1.000823719506127532e+03,2.316958776734580169e+03,6.512903128839117040e-01,4.413650978692749971e-02,-7.575439900411096161e-01
2.336464266837085688e+03,2.498192866600606067e+03,2.063134482285307968e+03,5.953906914563595471e-02,8.754219868572579166e-01,-4.796784799969269764e-01
1.696781000202979328e+02,1.932330159097520436e+03,2.340774846078127666e+03,4.455395501188418317e-01,3.246510057123757620e-01,-8.343238182923000679e-01
1.925021304091593038e+03,1.812374193273555420e+03,2.257660878949920516e+03,6.257571106484051127e-01,5.517044013764969834e-02,7.780644324270180601e-01
2.803393902667838120e+03,6.898576364847581317e+02,2.782754341562891568e+03,-9.737693543018881570e-01,-1.171996751037647638e-01,-1.950319993694775988e-01
2.240319889198740384e+03,3.645216264317695618e+02,1.638355656192739843e+03,-6.512605345698941894e-01,-3.730126131797993350e-01,-6.608489286671448415e-01
6.906093862327305715e+02,2.308339084949951030e+03,2.236132221148736789e+02,-5.130541136532775631e-02,-7.516867466820760235e-01,-6.575217027803349490e-01
2.298097790033147874e+02,1.024784790834040678e+03,2.097439353665472026e+03,3.683728176714594071e-01,-8.862347487409512059e-01,-2.808726354147959570e-01
2.000550630202196317e+03,2.814937028284118128e+02,2.388056023546531890e+02,6.827823036976562454e-01,-4.458984555900142310e-01,5.787770668053129342e-01
1.751013714429597258e+03,2.727595518908462964e+03,1.545022203541615454e+03,-1.604060591630923627e-01,9.589721708011360313e-03,9.870045255323449673e-01
1.588394971406511559e+03,2.757604269640978600e+03,1.532972365039927354e+02,9.879910377569821600e-01,1.539915636774732421e-01,1.266126486763141830e-02
2.772699357684052757e+03,9.427485456099653902e+02,1.725764382011653652e+03,-1.003580408064614626e-01,-8.774526764691166214e-01,-4.690469744094638571e-01
2.869935128412258791e+02,1.599437219434167673e+03,2.758206273332244564e+03,2.159805166509885452e-02,-9.906151312270371490e-01,1.349636467657560068e-01
6.522368345630858357e+02,2.300739318321186147e+03,7.752326958662303014e+01,4.868526155104659359e-01,-8.693942861902621555e-01,8.442811090118641781e-02
1.043802819034356617e+03,5.438907351804878090e+02,1.590927062928837586e+03,4.068235483743428693e-01,7.184977597364679003e-01,5.641414448006685234e-01
2.091090448449479936e+03,5.418249474340398137e+02,1.642571683132895487e+03,4.423338633995936298e-01,-4.187800744912931195e-01,7.930725077185922789e-01
2.148069937732028393e+03,1.848685122888945898e+03,1.226499174735996348e+03,5.578889637340237462e-01,8.171836496560216379e-01,1.448129375388866880e-01
1.297657055072660796e+03,9.812307084125060896e+01,1.471919819551890214e+03,4.056388798906708781e-01,-8.888002957699291384e-01,2.132865053404187361e-01
1.225143879394052874e+03,2.621526870537257764e+03,1.355385894027773247e+03,6.624759274631799588e-01,6.057310463225688002e-01,-4.406989279006310878e-01
2.374864771370504968e+03,1.228422567006647341e+03,2.682237349852044190e+03,-9.795020224892803107e-01,-1.672571727513920414e-01,1.122534012964437888e-01
1.856234716098505714e+03,2.503001821623290198e+03,2.555869238920791304e+03,-8.403754271308055968e-01,-2.461030465378094279e-01,-4.829103767362272759e-01
1.471797393976846479e+03,2.542978814994755794e+03,1.256543058335179467e+03,-1.336373364443554090e-01,-9.908146497821139764e-01,2.067346330940145541e-02
2.360850503808347639e+03,2.533057095278533325e+03,8.711008187994175387e+02,-4.901314485652901176e-01,5.525484634853623511e-01,-6.741374923761884741e-01
1.783935025931300743e+03,3.496413762771646248e+02,1.768229365486232325e+02,5.284172453680464621e-01,7.906214626541356871e-01,-3.093427186605188783e-01
1.729615099602598320e+03,1.738018975238707299e+03,6.917291394220593475e+02,-2.234707207001224161e-03,5.250526482172925835e-01,8.510668144650612721e-01
1.128458599848984932e+03,7.420472979627988934e+02,1.412539462318681672e+03,8.008027557157453291e-01,2.888353459110855614e-01,-5.246799876024355047e-01
1.637721319194536818e+03,2.736885056526983135e+03,3.955841128299775278e+02,7.175302500581894893e-01,-5.806032712674037699e-02,-6.941032622494782700e-01
2.508339698885311464e+03,6.786051136722309138e+02,3.211248519812055520e+02,3.711970511854060240e-01,5.606051508054301635e-01,-7.402260560677933476e-01
6.385878787181010239e+02,2.655739893362554540e+03,1.697045632906049832e+03,9.833028127152557696e-01,1.235013171106640190e-01,1.336525464710562883e-01
2.302581231543579634e+03,2.686345769228355039e+03,9.607926875918514042e+02,2.078181911620640698e-01,5.483536960125429127e-01,8.100122366307260791e-01
2.027164367551819169e+03,1.761265104867125046e+03,1.750141932432455405e+03,-6.848609853643289336e-02,9.831233249175761468e-01,-1.696413343211735925e-01
2.758479675251523076e+03,2.205344238254403081e+03,2.215956361536258100e+03,-3.769219394611318386e-01,-7.164848683474182023e-01,5.870087605666900465e-01
6.196683319214964740e+02,5.525610535840764896e+02,8.925812067602814750e+02,-4.627252819195932787e-01,4.825455028267199298e-01,-7.436633318741356913e-01
2.367147784914436215e+03,2.954249355885750902e+03,1.422686273511317495e+03,8.261504292233777802e-01,-1.062597066960882380e-01,5.533392657555490368e-01
2.657230203915740731e+03,2.568878198138286734e+03,1.043923692872305082e+02,-8.182366981089867278e-03,-5.295492785136185487e-01,8.482397128738390357e-01
6.837167876908400785e+02,2.490738544582703071e+03,1.296431177658098704e+03,4.315210558516942574e-01,-9.007773435685932917e-01,4.888512728987515210e-02
4.776685994257545786e+01,1.447073698634952279e+03,1.040551683956117586e+03,-1.956351037721283936e-01,7.278279482994272076e-01,-6.572620359082934627e-01
2.975305399247296464e+03,1.562669248868294744e+03,1.347187163248593379e+03,7.518818055264631095e-01,-5.180663863635651678e-01,4.077756366416012135e-01
1.929030099237395234e+03,1.492526255659449362e+03,2.653989839765823717e+02,9.333456945395220972e-01,-2.139155644919951416e-01,-2.882810187171680472e-01
2.102294070663787352e+03,7.282312691962899862e+02,3.981580185666145155e+01,7.061790089797974623e-01,5.344107814695744363e-01,4.644527144127699181e-01
2.422984645644411557e+03,2.156911281669457367e+03,2.869030076131990427e+03,6.922336958413610741e-01,-1.536704413551933344e-02,-7.215097811508497383e-01
1.235114074757433173e+03,8.636132248170116554e+02,1.356683047167839050e+03,4.236197177600495301e-01,-8.603517752197713531e-01,2.834451580131225334e-01
1.019785192106386262e+03,6.896125879701143049e+02,1.807295207443484742e+03,-3.137342715541809879e-01,-5.282508604103476335e-01,7.890005293585645729e-01
2.519073945634486790e+03,2.199654510333745293e+03,1.943010277680804620e+03,-2.754860347576573026e-02,6.727059392350854816e-01,-7.393969121955923374e-01
2.220188494975216599e+03,6.336664366819576344e+02,2.548044964240294121e+03,-9.798346114730369094e-02,6.628057063495563783e-01,-7.423529059497648852e-01
4.012194919204941357e+02,2.140496901280456541e+02,6.752436883598487611e+02,-4.215631473982007216e-01,4.726737664375525450e-01,-7.738630520172551375e-01
8.601586760340030651e+02,8.383024320949937191e+02,2.110565707047590422e+03,1.375522909678074945e-01,-2.134451323773083886e-01,9.672231090673655274e-01
1.967406762991423420e+03,1.398970619576474974e+03,1.543140693446875048e+03,-7.098529741179712138e-01,-6.476876964775066803e-01,2.767840366920249484e-01
2.200376900813829707e+03,1.022363925562954364e+03,1.760975108534041510e+03,5.097236101786508655e-01,-1.434625562080898420e-01,-8.482926005764068744e-01
2.156926757293354058e+03,1.385474567243058800e+03,7.220746917669621325e+02,-3.512347149831240301e-01,9.318443741882164177e-01,-9.110563804998528248e-02
2.902332359461635860e+03,1.010283272527792292e+03,1.843803909109924462e+02,-8.891572549183218710e-01,-2.880389897006810362e-01,-3.555740660373380990e-01
1.363014855049703783e+03,8.935546361017420622e+02,2.442092045425926244e+03,-6.251795458664554106e-01,-7.570049269267523639e-01,1.899844099889121118e-01
8.008399699265396521e+02,2.240100910553932678e+00,2.688236092704544717e+03,-7.886190909863605158e-01,8.665786650072217212e-02,-6.087448919747824316e-01
2.228239593136994699e+03,2.488789579009679528e+03,2.707450810428593286e+03,4.127277921505619340e-01,4.961188036547672237e-02,9.095022984650034115e-01
1.229677615396137298e+03,5.547870319367432330e+02,4.779635073625377686e+02,-6.032655579115719924e-01,-7.951393360512462039e-01,-6.183933134844843416e-02
1.413111503564255372e+03,1.147006323793987349e+03,1.349396949895166244e+03,-5.994368388125002056e-01,5.836977861989071231e-02,-7.982909527348669432e-01
2.307575874483805364e+03,2.844664059695941887e+03,2.230505772022869678e+03,-1.264988476754578262e-01,8.884933686044570456e-01,4.411094824220918031e-01
4.640133873339768797e+02,1.183196949503290398e+03,5.006972213001389491e+02,-9.765049541966268620e-01,1.964924731312967243e-01,8.848040705258108929e-02
2.194972977635286043e+03,1.911025556233468478e+03,2.910401158496433709e+02,-5.171135646661996210e-01,5.039088147719352762e-01,-6.918594276537393117e-01
4.013589060196871401e+02,1.577987389681347167e+03,1.506771599647996027e+03,4.759571904908388995e-01,7.792499688744181086e-01,-4.077183327117948064e-01
1.314067130666584490e+03,1.945455740408168367e+03,6.355069531305459805e+02,7.142034603003649673e-01,-6.993371826229480837e-01,-2.899866024461106306e-02
1.738072633706822899e+03,2.617052789278908222e+03,1.818827161046517404e+03,-8.591330225115432206e-01,-1.564634651484801409e-01,-4.872469945560573557e-01
1.180320154327960381e+03,4.672319421060240074e+02,1.333360648627651017e+03,-6.360600542556168469e-01,2.155798997206786749e-01,7.409135673050966098e-01
9.297676006436047373e+02,5.440184603185481365e+02,2.980822619314586973e+03,4.847489210452644581e-01,-4.222265818774175172e-01,7.659916429710996733e-01
9.806389850891284823e+02,1.900563794570875416e+03,8.171788709972048537e+02,-9.012883634240694830e-01,1.886241757662069085e-01,-3.900002644523226092e-01
2.533627922051674432e+03,5.490853295372052116e+02,1.498480186754310125e+03,3.966079588603709238e-01,-8.633758064601647630e-01,-3.119043824441560808e-01
1.743219835850846721e+03,2.363135208831911768e+03,1.373301744488305758e+03,-5.134205031950308529e-01,1.752563966745988855e-01,-8.400503451124801124e-01
1.354380454493333218e+03,2.002891511212888418e+03,2.723299815053817383e+03,6.610802885604427637e-01,-5.477194707999921697e-01,-5.128120838898184708e-01
7.001466167066653270e+02,2.344720354228089491e+03,8.375628640539777052e+02,-6.196580179185586790e-01,-4.240865262429797111e-01,-6.604351285996268306e-01
9.356170225754460716e+02,1.213173719263990506e+03,7.447069524115983086e+02,6.854030636603061222e-01,7.214581743299811611e-01,-9.859382849609299448e-02
3.161864383745208897e+02,2.676592581131415045e+03,9.304680867695257973e+01,4.858026531573382822e-01,-2.603499290575964076e-01,8.343942093668887949e-01
2.750510886857780861e+03,1.536678701137121607e+03,1.109626043273824962e+03,-1.979525092217717178e-02,-6.745175307122128761e-01,7.379933934682796348e-01
1.930515907932354594e+03,2.602684486286523679e+03,1.420856444159621788e+02,-8.544208158431254585e-01,4.733561718583705891e-01,2.142405284197101967e-01
2.670659028324386782e+03,7.586526586911662662e+02,2.484322515184274835e+03,-9.195801325390595693e-01,-3.898445135620814406e-01,4.892479008631390319e-02
1.735430652731535019e+03,1.119203308393518228e+03,5.382383611279049092e+02,-5.964473441586048974e-01,-3.288746638797437200e-03,-8.026454695515901072e-01
2.779447656207478758e+03,3.800581074785436186e+01,2.246958108925194210e+03,-4.345816896008038444e-01,-7.935064516253678701e-02,8.971299962524938998e-01
8.480787686206642775e+02,2.167414978323714422e+03,2.527395646367179324e+03,7.324855448885870812e-01,6.804238704512709512e-01,-2.209712762740290160e-02
2.391886824013606201e+03,1.185380441253443678e+03,2.218046017756845231e+03,-4.585420498441961645e-01,-7.807210068297266714e-01,4.245160751013565825e-01
1.080470687865590889e+03,2.294840733697424184e+03,1.768699746877000052e+03,-2.240150946360474626e-01,7.694447001839769262e-01,-5.981405275802608168e-01
3.736736707961590014e+02,2.268448345180723663e+03,7.715546861449817015e+02,-7.628828491688020019e-01,6.448188853776457563e-01,-4.709950641377735892e-02
4.248167797281111575e+02,2.754983699510413771e+03,8.037583188366379545e+02,6.582582058971497840e-01,-5.592889831239694631e-01,5.038769370840681106e-01
1.888776645487363112e+03,7.997177074372730488e+01,2.765207867242742395e+03,-4.660747859174212970e-01,8.411270978979834556e-01,2.743710974460431551e-01
2.987067123250300483e+03,9.622320660895026094e+02,1.253030064355649301e+03,-5.671670867204332556e-01,6.087942518934706948e-01,-5.546990667042139833e-01
7.418628311318238957e+02,2.212883065640397035e+03,7.575130349103985736e+02,-9.188328259832662104e-01,3.284519398086819808e-01,-2.187819945322713178e-01
8.214126533921585178e+02,2.828772753285066756e+03,1.057738999140564374e+03,5.457481655671128085e-01,7.752573769202898424e-01,-3.180171997090770475e-01
1.147812970974000109e+03,1.282397753729330134e+03,2.392405939023834947e+02,-3.371714343419894844e-01,-3.635227438802687144e-02,9.407411631318058909e-01
1.809419416149067729e+03,1.852012778986836338e+03,2.586594135987517802e+03,2.409826052363066295e-01,9.642716742650286887e-01,1.100341864314937634e-01
1.705042412071363060e+03,1.410049423473840079e+03,1.300474599320605876e+03,-3.975806984066593830e-01,-7.780364185114833075e-01,-4.864040704232409085e-01
4.099262818615978432e+01,7.931432391128367954e+01,8.610505890572624139e+02,8.572736601961289393e-01,1.280541613750917941e-02,5.147017513584711823e-01
1.830079053643160478e+03,6.406350429511959419e+02,1.293045658561525670e+03,-8.525094854731604110e-01,-4.971584753459483141e-01,-1.614342825114276625e-01
1.879094364468291587e+03,3.049868494097279950e+02,1.321973941180583324e+03,9.866620528488839748e-01,-1.523879652475625679e-01,5.723549174886000124e-02
2.978371150026473970e+03,3.710046327987304267e+02,2.731232168125021417e+03,5.602548971527543387e-01,7.691765288976669668e-01,-3.073791105610355623e-01
1.955323501035717300e+02,2.530563570158776201e+03,5.843076151651414420e+02,-5.539596902342994733e-01,6.832413681276801043e-01,4.757203952686230863e-01
1.285190319310913992e+03,1.647038148562271545e+03,7.313031984992911703e+02,7.645437061397079015e-01,5.195338707246446308e-01,-3.815199582879358342e-01
2.133118351197284028e+03,2.117879798739899343e+03,6.845060274339997477e+02,1.705080256853847009e-01,-5.940207184135816165e-01,7.861719908978470617e-01
1.376800511785286290e+03,6.861843481416925670e+02,1.332508395856309335e+03,-1.508265761340403799e-01,9.025564479418258790e-01,-4.032904687818901213e-01
2.047868143390084697e+03,9.892825892178879030e+02,2.348495002425474468e+03,3.041713405698326933e-01,1.024384062684912007e-02,-9.525622600676360019e-01
9.291031677870365684e+02,1.866589297104650313e+03,2.301439651043504455e+03,-6.024740976876323817e-01,-6.895068729774753713e-01,-4.020015344899778853e-01
2.760030248497528646e+03,2.952795296685959784e+03,2.582197594367573856e+03,-2.935226170073267360e-01,9.536341897438415094e-01,-6.653048516865989193e-02
2.901472219073547876e+03,2.258067799689521053e+03,8.113983915792756534e+02,-4.678240722402635665e-01,-1.370917070021551998e-01,-8.731245623069894268e-01
2.848954999496938399e+03,2.788411230171895113e+03,2.076088992067059735e+03,-5.699877857728413710e-01,4.525517608466430031e-01,-6.857921170619974971e-01
2.168603362595464205e+03,1.951655261648519399e+03,2.244922704728072404e+03,-7.301111791834287157e-01,-6.830315854691348942e-01,2.013750935203373685e-02
1.008693520759076421e+02,1.222253233565480059e+03,7.915619752086148537e+02,8.996264357012073720e-01,2.852806069063325567e-01,-3.305862240183277123e-01
2.579204075320601532e+03,7.628575269692590837e+02,4.041856908473546923e+02,-6.704284522863395157e-01,6.885208877681052719e-01,2.765224719113506535e-01
2.438955857342926265e+03,2.631145473439842135e+03,2.764349965772813448e+03,2.146623777055448046e-01,-6.034945957349215906e-01,-7.679286011840851245e-01
1.532751392284013491e+03,1.326215276564507121e+03,1.242800895372231373e+01,5.836549844551909283e-01,6.073678754836455695e-01,-5.389351750916744344e-01
2.591755887246809834e+03,1.811951273634084146e+03,1.949156531963801626e+03,6.543552250219522026e-01,-5.114837104589635697e-01,5.569592924277333434e-01
2.870295420123007716e+03,7.860927968938561889e+02,2.862933345244222892e+03,1.422446861168972787e-01,-9.704070470002267301e-01,1.951322946203555286e-01
2.265038821056175493e+03,2.698775079972709591e+03,1.409533389500764315e+03,3.963475665057600295e-01,2.101806713768226715e-03,9.180981368750837923e-01
5.802749585835689459e+02,2.581503130105539640e+03,6.800559802277103927e+02,4.525488200067527556e-02,7.738041030456066505e-01,-6.318063039926786750e-01
2.420308777347962859e+03,2.548903300802954618e+03,8.354191210867605832e+02,3.817830920296857444e-01,-8.761643914916507070e-01,-2.942407682873293684e-01
7.594991180909441937e+02,2.790648268366408047e+03,2.797646473577325651e+03,3.120601772075293767e-01,-5.875619728194781954e-01,-7.465851417605953166e-01
8.703291525501765591e+01,1.807040852119748934e+03,1.753067018272559608e+03,-8.220498940612730454e-01,-5.620871705005585639e-01,-9.106033402379831720e-02
1.324352996643159258e+03,1.943043084269284009e+03,4.718393525381554809e+02,-9.288851144318811537e-01,2.920054285477561781e-02,3.692150761871153541e-01
7.902381662732393579e+02,1.067204092260520156e+03,9.430363415588290081e+02,-1.602251145308257463e-01,-6.251763590901761036e-01,7.638602180427613852e-01
1.180535424830963166e+03,2.415020469703814342e+03,2.751007266074665495e+03,7.120106326787790929e-02,3.925467110214996280e-01,9.169719124682755851e-01
4.989846094606177189e+02,1.649663276884315565e+03,2.893452620283872420e+03,2.288563010781384244e-01,9.485339404637097571e-01,-2.188793211914272785e-01
1.652769031463873944e+03,2.385420274669047103e+03,2.650124600491295496e+03,6.544756731087829627e-01,2.079185031605825795e-01,-7.269329331872840250e-01
3.244545664416787076e+02,6.441690964333743068e+02,1.722154060508056318e+03,7.784324827672135516e-01,-5.412761957431942994e-01,-3.179039944616093294e-01
1.715038555396792162e+03,1.041492100043543587e+03,2.331120001738466726e+03,-5.019452410869471581e-01,2.986113239219871998e-02,-8.643837618340721729e-01
2.019591970057947037e+03,1.187724450492769620e+03,2.779488980951901794e+03,-2.498811700314388096e-01,7.377672083474218212e-01,6.271036175553217351e-01
2.828764674727794954e+03,2.330761222066082155e+03,3.772450895715076058e+02,3.796163923314999633e-01,9.249623187778269751e-01,1.833312614810478358e-02
2.059419092979645939e+03,1.672794129907358638e+03,9.210231942057331480e+02,4.413825270659255673e-01,2.995556255688642255e-01,8.458415288876184324e-01
2.327107103265386286e+03,2.883153260348673484e+03,1.676273917419292729e+03,-9.242964340829358250e-01,-1.889385642084928096e-01,3.316297949467181816e-01
8.573357922081015658e+01,6.371417778834445471e+02,2.801050939160031703e+03,-8.005811234609978844e-02,4.659505680317291842e-01,8.811814607664463228e-01
8.773809179953628927e+02,2.204931955916900733e+03,1.252659509438428586e+03,5.384023306584606594e-01,-2.200416702319274720e-01,8.134522688536072188e-01
1.383375632371311440e+03,2.846973616841980402e+03,2.196624226169628400e+03,-2.960581290935984655e-01,-9.519718308400095808e-01,-7.809748705764142651e-02
1.496198985735260294e+03,1.462091613675017697e+03,1.378105811530839219e+03,-8.593327131419196130e-01,4.672806648237985416e-01,-2.078366387477826038e-01
6.616456867815822989e+02,1.625756365221539909e+03,1.923226392967417269e+03,6.680566858817151843e-01,1.479925617920859471e-01,-7.292451344389998535e-01
2.965758870598147951e+03,1.556117132850659345e+03,7.530703696521922552e+01,4.499939517218782825e-01,-3.325472356469625912e-01,8.288050310400458809e-01
8.869465657714293911e+02,2.164997122252672852e+03,1.353110477520450104e+03,3.586496016688502375e-01,-3.866089496883710619e-01,8.496493295728713147e-01
1.228567067651454408e+03,2.023127662625985295e+03,9.678793155773589660e+02,-3.307995772301700055e-01,-7.753901375890964731e-01,5.379049862511994240e-01
2.518826728950838515e+03,1.923095543195796608e+03,2.289698108254624458e+03,6.925698744143399255e-01,-5.748917610021155866e-01,-4.357137043812049915e-01
1.575408281045956073e+03,2.143162289768259143e+03,2.938151480252026886e+03,2.578915923477652639e-01,-1.723255892954555502e-01,9.506817647721597098e-01
1.048963213384894289e+03,2.608137128400763913e+02,1.494346901697846079e+03,-9.447456970779859464e-01,2.131938884532488254e-01,2.490058910524293456e-01
2.214267606642788451e+03,2.541317873037556183e+03,6.570953509236393302e+02,5.947753300748677141e-01,3.677145585892404450e-02,8.030505381159689371e-01
5.226537299011366713e+02,8.383071928034008806e+02,1.319059818695592867e+03,5.361467451482977431e-01,2.102576263136820278e-01,8.175196622979916672e-01
1.900529031125728807e+03,1.741807366758028593e+03,2.174115993879660891e+03,7.238100615132929683e-01,2.361704569083518945e-01,-6.483228440644549506e-01
2.057439602581947838e+03,8.104846471535385035e+02,1.732333572475724850e+03,2.217444205822411973e-01,-5.144942034129227348e-01,-8.283267028142629052e-01
2.718027766734062880e+03,1.444429479971570117e+03,2.307108676174969332e+03,6.291257434619340616e-01,-7.743808328456750489e-01,6.734333400350367427e-02
2.201434656387355062e+03,1.097679323831786405e+03,1.420917446197185882e+03,-4.555157602085496693e-01,8.717763391097542724e-01,1.803091976855921985e-01
1.469211706401400534e+03,7.612870119482950031e+02,1.516182726600898832e+03,5.567935335263812791e-01,6.390933670118144061e-01,5.306040230385640211e-01
1.647190208743209041e+03,1.316734828873884453e+03,2.628254627826335309e+03,6.263337931497801048e-01,2.385594023425933463e-01,7.421559075508010750e-01
4.020198053358749917e+02,2.606966483144940412e+03,2.694502899424453062e+03,6.072677138911736217e-01,7.347968660625882054e-01,-3.021580534918546501e-01
7.360933977427775972e+02,8.999349790413002381e+01,2.929177805433157573e+02,-1.758988189907689237e-01,9.740669625373684637e-01,-1.423135902536281083e-01
2.748807159786956163e+03,1.667790093023929103e+03,2.462281171796805211e+03,8.984989162492398873e-02,8.626805021647435678e-01,-4.977040768968798989e-01
7.850356371122227301e+02,5.284868045216118162e+02,8.408597554780600376e+02,8.100251948651848721e-01,2.344647498708480327e-01,5.374806645374510250e-01
8.881345689991367180e+02,1.575558437311782200e+03,2.213042830789594973e+03,6.897161918563009531e-01,6.272827726702179252e-01,-3.616737449724630182e-01
2.569717087844629532e+03,2.898330000021796877e+03,2.535757640650176199e+03,-8.933498184805189757e-01,-3.574790224501717129e-01,2.722771571926179690e-01
1.187103313172659455e+03,8.646012562680299425e+02,1.785204534596400663e+03,9.549405434063962250e-01,2.878231582169176739e-01,-7.243195532868053343e-02
2.331534018073932657e+03,3.103949268779330168e+02,4.116739396178284096e+02,9.911934724725980361e-01,9.322113272548619711e-02,-9.404956427910972361e-02
2.911453542519080656e+03,4.923911653544575984e+02,2.475688016411336889e+01,8.460026216113567532e-01,3.991926131383002341e-01,-3.534470566329941388e-01
2.551232537835880976e+03,2.671603169005890322e+03,1.960494778744301357e+03,-2.675807827668041372e-01,-3.271149987951901261e-01,-9.063091648312551207e-01
1.970057127311920567e+03,1.100814823014178728e+03,1.172800723409591001e+03,2.974747366787496849e-01,-9.291280688004280308e-02,9.501978695806365671e-01
3.188870228564181275e+02,1.866074229122655879e+03,1.658091163154104606e+03,-1.223297630063297919e-01,-8.534849736709906320e-01,5.065558496361914909e-01
1.263381762262102939e+03,2.186284315409487135e+03,1.455051602618011884e+03,1.391434311280823621e-01,-5.010474379968111736e-01,8.541607404058888520e-01
3.233080179823224398e+02,1.893974039694526709e+03,2.049733117789671269e+03,-7.092561862245851945e-01,4.023123132754364284e-01,5.788786270792207755e-01
2.405001616237252165e+03,7.497012159097595259e+02,2.770435381989353573e+03,-5.931691397546958733e-01,-8.047132024368910397e-01,2.422877352317676439e-02
1.624204725241728283e+03,2.523317359540448706e+03,1.839169066171649547e+03,1.992930721939462912e-01,9.186651461943754482e-01,3.410815452984308216e-01
1.989097414643439379e+02,1.451353547832483855e+03,8.116430443059255140e+02,-7.299629355099495065e-01,5.272042521577409158e-01,-4.349825160721919048e-01
3.267944261490844724e+02,2.776790335152040825e+03,7.526131257269087200e+02,9.681339835943426619e-01,-1.325341999477163413e-01,2.124882953340441472e-01
2.128487703373368277e+03,9.287168697689367036e+02,2.408753971495916630e+03,-9.726029603427763792e-01,-2.257157807170738772e-01,5.564052361139105313e-02
4.915918768505284220e+02,2.846033836760397207e+03,2.429528616145049000e+03,-6.069772758718803285e-01,-4.572834732151467296e-01,6.499772393703057149e-01
3.863447288214641162e+02,2.976234205796584774e+03,4.217161776856492850e+00,9.066978474495248630e-01,-2.394545933417412675e-01,-3.472182471557903605e-01
2.382906300185919008e+03,1.494276291240270439e+03,9.227766767185647723e+02,9.544379157771565314e-01,-2.560461758000366905e-01,-1.532599777669772234e-01
2.458272845258705388e+02,1.517167411411010335e+03,1.957759123964133778e+03,-4.202480742492667454e-01,-4.189380817206096452e-01,-8.049114484053749852e-01
1.447578602088913158e+03,1.849462190473301007e+03,2.415443172565680015e+03,3.270915103004906066e-01,-9.244742842710835795e-01,-1.958531123337379221e-01
2.640220658907521667e+01,3.289177052036898772e+02,7.198861608273138017e+02,-1.461679421451106686e-01,-8.261348912570252168e-01,5.441838605993443156e-01
1.603626713888634413e+03,2.855951075040311480e+03,2.729993591324575277e+02,-4.030379525845298461e-01,-9.711716604765756322e-02,-9.100157497732344059e-01
6.996494236925974519e+02,6.595485347383366843e+02,6.470624168457206906e+02,-4.689162116913246359e-01,-8.081799485479934653e-01,-3.563183368534652562e-01
1.470366160522059772e+03,2.470638715357571073e+03,2.065606677814594150e+03,8.424193792437763006e-01,-2.822155181738436949e-02,5.380828314372699817e-01
1.551710340575791633e+03,9.692424928111170175e+02,1.257398825557856526e+03,7.040348499447364183e-01,-6.412108907779556777e-01,-3.052597641534717798e-01
2.428570498126674465e+03,1.485234514802196600e+03,1.337412728806979658e+03,1.799563353264044263e-01,-9.349926351018422732e-01,3.056214810532858484e-01
3.203327737448556718e+02,1.795031577722604652e+03,2.170814737710782083e+03,6.797123187699914970e-01,-1.000251222506670368e-01,7.266265468802118876e-01
1.942763952037176068e+03,1.629932726417049480e+02,1.984411419449256073e+03,-3.902080981027517548e-01,-3.431552535602834797e-01,-8.543899063829176743e-01
2.919516432753554454e+03,3.709674672438824246e+02,2.303605901497280684e+03,5.460111169822527005e-02,2.874787715530796595e-02,9.980943232783068275e-01
2.348539151459782715e+03,2.278168015443940021e+03,1.934634257120422490e+03,-1.386463157682573388e-01,-4.341150549016434268e-01,8.901243274013084239e-01
1.092134307882162148e+02,1.919731570791559079e+03,1.678522643089005442e+02,2.510075710560575324e-01,-7.769438532063239755e-01,5.773676889447906246e-01
2.451217638728349812e+03,1.156885288801741581e+03,3.682831200153397049e+02,-6.141604680220179580e-01,3.338421224829843381e-01,7.150918519847867527e-01
4.433769765618338283e+02,1.236287983391605621e+03,2.508964749663412931e+03,2.515914315082153681e-03,-5.163207496634908411e-01,-8.563915889603832543e-01
5.154154122606482815e+02,2.845030587632709285e+03,4.359546368155584446e+02,-5.846725368290790481e-01,2.621164027485634596e-01,7.677584360252918128e-01
6.935583404966864691e+02,7.615036735379998163e+02,2.641897312573062209e+03,5.933401165301143143e-01,7.752991434365260615e-01,2.164688067658235848e-01
1.790396896254165995e+03,1.699035457298416077e+03,2.913711569991351666e+02,7.579979919591673942e-01,1.452420078462851871e-01,6.358803372826129507e-01
1.300604146863931646e+03,2.272052359186342073e+03,1.393700104578823357e+03,-9.874300550385608499e-01,-2.873959318952346367e-02,1.554217558446866487e-01
2.695259259448751891e+03,2.994379754489993957e+03,1.159592599169756113e+03,-3.707298348402731647e-01,-8.819071478447726431e-01,-2.912029741256125792e-01
5.180069414727498724e+02,5.325991314125279814e+02,8.587026545420828825e+02,1.302287025989173064e-01,9.786140032680623602e-01,1.592329037198647601e-01
2.412807792936172973e+03,1.369530930561365494e+03,9.797085391997786701e+02,4.337463711645875991e-02,-9.952838830174386420e-01,-8.676769595157597659e-02
1.933781848795203359e+03,1.957170677540621568e+02,1.728822233160864471e+03,9.155049121728704442e-01,3.757246577711674251e-01,-1.438114645293755434e-01
1.670516385012212595e+03,1.266366490622637230e+03,8.400604651673201033e+02,-1.200406133651895912e-01,-8.842827635082642912e-01,4.512585127231356630e-01
1.073175129952817315e+03,8.400370474330071602e+02,1.686894357284652870e+03,1.545514992784029207e-01,-9.873202792640169978e-01,3.622844496830458089e-02
3.553832282542036296e+02,2.097253963288142131e+03,1.718583831115754037e+03,-1.134940408942105849e-01,8.832189700030370627e-01,-4.550201684631987042e-01
9.548494253875464892e+02,2.088280579438034692e+03,2.531037143226812987e+03,-5.916937320395655037e-02,-7.805644715900839081e-01,6.222685039160700260e-01
2.818420674831301767e+03,3.822215984253674037e+02,1.999189157029430589e+03,1.431589060440730254e-01,-6.223956421973816378e-01,-7.694993126663423055e-01
2.537840812907858776e+02,3.929476460036671597e+02,9.740166134583617463e+00,-4.888847911016382386e-01,3.556372231480635082e-01,7.965637617548528837e-01
9.613438529554599654e+02,1.947549646006497142e+03,2.257519558935480291e+03,-9.891561906586519015e-01,-5.768184893598404112e-02,-1.350660386070123842e-01
6.442425660473155631e+02,2.612158991530352523e+03,2.721472660899291895e+03,9.871021525028678134e-01,9.572967546118982263e-02,-1.283166776389588204e-01
1.994724330935111766e+03,1.190648155615060659e+03,1.533086129406380451e+03,-2.643347059840931434e-01,9.629210053888457299e-01,5.394720190369151069e-02
2.293614590458773819e+03,6.953340019858255801e+02,1.266203270477688875e+03,8.477998095437285775e-01,-4.326900231071920677e-01,-3.066183732934400497e-01
1.533630927386620044e+02,7.218623479414104622e+02,2.870813319945808644e+02,-2.258320084003052064e-01,6.430055367494628971e-03,9.741450396988404759e-01
1.502132905846052836e+03,2.799021688689105304e+03,9.033950348199293501e+01,-2.593538285668470778e-01,-9.109988933700732261e-01,-3.206502890786480653e-01
1.386346483949165076e+03,2.649002541113591633e+03,2.675225216704590821e+03,-8.637119487268960505e-01,2.272237894911725564e-01,4.498566650786215981e-01
1.742177311589591227e+03,1.493316653511813229e+03,1.913132362457944282e+03,-7.111412154675713637e-01,6.297042245447969089e-01,-3.126511814366634834e-01
2.773991769875259706e+03,7.075877799371970696e+02,3.509238239140289011e+02,6.736720009715639890e-01,6.190814775517410329e-01,-4.036138739678336584e-01
7.310506487871507488e+02,1.537706176192773682e+03,2.789396322318670173e+03,-4.410629688498000078e-01,-7.586743054437636857e-01,4.794546441206124499e-01
1.174943373680853711e+03,3.519688223143886603e+02,1.820130595002178353e+01,-4.441596427332735186e-01,-8.634459624999609728e-01,2.391302607566989924e-01
1.820054392793687839e+03,4.758133822822981642e+02,8.107049225357636715e+02,9.003939503794071708e-01,-3.416868099128778091e-01,2.693341011675396413e-01
1.855308343548500716e+03,1.898408625932904670e+03,8.776789855954684754e+02,8.254244531354210102e-01,-5.535604406036634950e-01,1.106585322727948739e-01
3.882694730190518158e+02,1.286950588090817291e+02,2.153485597062503984e+03,-5.964455271542029591e-01,3.443630751675562651e-01,-7.250288308742549592e-01
1.850179006348052781e+03,2.104280973168791661e+03,2.473913363028896697e+02,-8.246517506496982008e-01,2.679326970339586111e-01,4.981581676641435585e-01
1.174772826202744909e+03,1.019006269044114816e+02,1.560556850790410863e+03,-1.564629053234810052e-01,6.801690069899319901e-01,7.161630269624823519e-01
1.435791893838778378e+03,4.408930173527749616e+02,2.342815239756307335e+02,3.854391635721657883e-01,8.103801191753410293e-01,4.412717004637272677e-01
2.013494387177232738e+03,1.943841272238958936e+03,1.271892636336664964e+03,-4.768853307568042543e-02,-4.745935475518298086e-01,-8.789122643559246217e-01
1.868134386606893258e+03,2.269846758975822922e+03,3.060397140438304859e+02,-2.132175098252707401e-02,-7.230433936839437692e-01,6.904734852150693492e-01
6.123476322347376311e+01,1.407197901969670113e+02,2.357886632794440175e+03,-9.474985991525785023e-01,-2.431929099424536000e-01,2.076140967218343125e-01
5.304982001964386740e+01,2.039986268465082730e+02,1.883484748891409026e+03,-9.994759388134808464e-01,3.111796147631236409e-02,8.917410300634198705e-03
2.995652829865017793e+03,1.697994569292659435e+03,2.269385037232634090e+02,2.518271400816451400e-01,3.150662359176172878e-01,-9.150499213174130286e-01
7.527053922894789366e+02,2.032445382101964924e+03,2.578117621636781223e+03,-6.601731879063200692e-01,-6.968920430984998360e-01,2.802014315373948516e-01
4.652973653921008577e+02,6.736964727072391668e+01,1.860065298136091315e+03,4.508892653566167197e-01,8.706505237971726707e-01,-1.966380832846972571e-01
2.441893055762312088e+03,2.924051131628185431e+03,1.763462208328393217e+03,-1.194443333206993696e-01,-2.635536083555176656e-01,9.572212632199308402e-01
8.876067691004433300e+02,1.665672904210980960e+03,2.082454526728916335e+03,3.441299537060142910e-01,-7.616602641503211757e-02,9.358276077261458159e-01
7.251539014142776978e+02,2.532309360397579781e+02,1.965998639631795868e+03,-9.439002962079130754e-02,8.548083667663816110e-01,-5.102873488676528124e-01
5.240543920302160359e+02,1.819004231033609585e+03,1.487864116736466485e+03,-4.319016990877708739e-01,8.446546836868089603e-01,3.162584190990544997e-01
2.653300561009836656e+03,2.190382659414760269e+02,1.333070708888544686e+03,6.766513961095903529e-01,-4.874630434165799220e-01,5.518357268662366089e-01
1.445495443768211089e+03,2.373301287500185936e+03,9.865882922526869834e+02,-3.678361271842344737e-01,-8.671125868741336173e-01,3.358754906547243846e-01
2.869551194707246850e+03,1.788800225715417866e+02,1.334087073286156283e+03,-4.629468998964329507e-01,5.626078577011113246e-01,-6.849471266669042713e-01
2.076147221016897674e+03,4.281026035911601184e+02,2.853021322394346953e+03,8.351893493800856272e-02,9.354819598059102015e-01,-3.433629135252000975e-01
2.823428839785040054e+03,8.622008117307628936e+02,1.023958032793380312e+03,-4.542957061441746935e-01,8.883426102545359804e-01,6.680432759277989130e-02
2.189164139749033893e+03,5.966356664776228627e+02,2.173110239242359057e+03,1.790295874334863202e-01,7.045001491305175056e-01,6.867517358539942940e-01
8.329175124519711062e+02,1.612095139096170016e+01,3.040131360104598457e+02,-2.373262504650039059e-02,-8.228402319843582946e-01,-5.677769941943136001e-01
1.312454965318587256e+03,2.821888392491050581e+03,1.421580646054163935e+03,1.166051520034419760e-02,-2.600972589084349015e-02,9.995936807244960587e-01
2.425692401382349090e+03,1.825951330119366048e+03,8.718714690746876386e+02,2.559592386873572600e-01,2.774387201384291846e-01,-9.260197755439885103e-01
1.813942917164258404e+02,1.963398592947918075e-01,7.924842926257706495e+02,-5.390156586614586187e-01,-8.388576630937187861e-01,7.602592180762514362e-02
5.562750835465382124e+02,6.350226811192044352e+02,1.569794412143831096e+03,9.707156062572763755e-01,2.355295790066808115e-01,-4.729724285308956055e-02
4.483289527160055741e+02,1.169795210457141138e+03,2.791105350330079091e+03,8.453555631286969740e-01,-5.336408160454227945e-01,2.452450484186829982e-02
1.693955385235131416e+03,2.635808418914881258e+03,8.016807254767751374e+02,-6.845331134182138788e-01,-4.346275689521695296e-01,-5.852463523514639387e-01
4.948573807721429034e+02,1.972253874045248267e+03,1.502311405048321149e+03,4.400075550229893828e-01,5.615904813197952761e-01,-7.007206881587639824e-01
7.930124125692593680e+02,8.583443744998953662e+01,6.374763335230055645e+02,3.922074766114816979e-01,5.611711348072583316e-01,-7.288760201496464752e-01
1.948072599556312980e+03,2.340556643653928859e+03,8.926316570489874493e+02,-9.851882496038755210e-01,-1.714549972060637195e-01,2.701254434635647073e-03
2.103585722972941596e+02,2.302760066199231460e+03,5.572294258347648110e+02,9.722445239139175799e-01,2.298248809563632755e-01,4.383046671886315498e-02
9.665809849844459904e+02,1.032680563321359159e+03,2.937919528057867865e+03,9.710281801351281494e-01,1.743306417775185857e-01,1.634414290224475153e-01
2.326645420645570084e+03,1.315977861830413758e+03,5.366925752323544430e+02,-6.936553800066779241e-01,-5.906303563652512967e-01,4.123081322599002618e-01
2.689139200984042418e+03,5.770242147201321359e+01,4.357467029272305012e+02,2.640215143179616697e-01,6.820094384241761620e-01,6.820232883689459902e-01
1.858711014724522329e+03,2.305191665179549545e+03,2.773530649572080165e+03,-7.647603473327606594e-01,4.916835842841434379e-01,-4.163998848378478446e-01
1.555304647223434358e+03,1.293200693078004178e+03,1.946401888849042734e+03,4.633257922623772451e-01,1.282484898805322758e-02,8.860952169337525941e-01
2.642582386012049028e+03,2.183982751307597482e+03,1.285813176874958344e+03,-4.810695701663481039e-01,-8.305486044264439593e-01,2.806440527523281769e-01
1.193867256758222766e+03,1.967091618077644398e+03,2.304190830944816753e+03,-4.437530373377392423e-01,-2.500156772488987614e-02,8.958002921772401095e-01
2.423323178248434488e+03,7.337266439692336917e+02,1.736528805886689270e+03,6.620006930931670031e-01,6.591246393228975542e-01,-3.568049777982738036e-01
2.566741396959207123e+03,1.590698923242125147e+03,1.140523967239539616e+03,-4.594581692717750743e-01,-6.203961358960476957e-01,6.356153123192375132e-01
5.397024452052587549e+02,4.155726004129006697e+02,5.298426635959230424e+01,-4.137850259021159660e-01,6.636477004843726046e-01,-6.231802965282117190e-01
1.293387718959825861e+03,5.048434474660206206e+02,2.793712878831493072e+03,7.847095858518829958e-01,5.272374503873480944e-02,-6.176172541155702245e-01
1.095896242313841640e+03,1.314153864091156493e+03,2.399096051703175362e+03,-6.435803068050669484e-01,1.284167570370003675e-01,7.545286775231250243e-01
3.239729423075976911e+01,2.741981678250022469e+03,1.444311322409840614e+03,-5.278015162808324945e-01,-4.489548787014414066e-01,-7.210166962711945793e-01
8.609425565037087154e+02,9.659977983505488055e+02,6.858785267508621928e+02,3.606980134292505080e-01,-8.222827616246340954e-01,4.401681531450878371e-01
2.764912018309526502e+03,2.545735879648447280e+03,2.466602898002618986e+03,-9.928909829275592847e-01,-1.157178959035389254e-01,2.787229069888308777e-02
2.977522051088858461e+03,7.669541088068078807e+02,1.807863212596683070e+03,-3.383476663075578594e-01,-8.243169984221000446e-01,4.538968416023723140e-01
1.693255551214962793e+02,2.345086834820968704e+02,2.287668302710642365e+03,1.215729719427168926e-01,-7.874737051350764183e-01,-6.042393368640031071e-01
2.502606990841766674e+03,4.420955376701629689e+02,1.103782815107556189e+03,-4.496510524150132415e-01,-8.844715868252592816e-01,1.245951169222891952e-01
4.961701798199673590e+02,2.180168706829175790e+03,1.571414506978967211e+03,-4.567364109280642182e-01,5.454067094227177392e-01,-7.027968214564104255e-01
2.414336604065722895e+03,9.782354708295437717e+01,1.542482754222605536e+03,-4.596953056498983559e-01,4.433817690617634644e-01,7.694756869629524321e-01
3.915996501670159091e+02,2.178505313289804690e+03,3.343331829250525402e+02,-7.333070262578310627e-01,-5.400375836992507006e-01,4.130619970817595021e-01
2.786485556582192658e+03,1.039552757006720412e+03,1.056745834441462193e+03,9.854194569143664983e-02,8.505239087349389937e-01,5.166222658863892647e-01
2.750222946413634418e+03,1.057387548920400832e+03,1.250156956217949300e+03,5.377284851057502202e-01,2.685764148355784253e-01,7.991963373914713342e-01
2.795048366306204571e+03,1.324154845525121118e+03,2.167492569214492960e+03,2.313108785406714496e-01,-9.161363775264694809e-01,3.273979462999441203e-01
2.367778520321914129e+03,2.411581922798127380e+03,1.855218558598314303e+03,-7.842094025925161471e-01,-4.810334704040801213e-01,3.919469520694043307e-01
2.710368762317833898e+03,1.795915424978300962e+03,4.407442831944125032e+02,-3.002801268820767810e-01,-6.152409368691418301e-01,7.289104437446787266e-01
2.985408499039186268e+02,2.257670148691351187e+03,4.435695112450533770e+02,7.062953682006761769e-01,5.342840234641926811e-01,4.644216135465547013e-01
5.087987468422210213e+02,2.759081488580630321e+03,3.069959547114536917e+02,-9.928106051377622032e-01,-9.822937651429614059e-02,6.839657824484435267e-02
6.171984523548519519e+02,2.725707090165466525e+03,8.876985102021930061e+02,-7.768340258920031216e-01,-1.582563483662480577e-02,6.295065094964790164e-01
2.299663165369558726e+01,6.535938116113501337e+02,2.337333569187688227e+03,4.874724439416747157e-01,1.059584467467350188e-01,-8.666853084946981589e-01
