x,y,z,nx,ny,nz
1.215937496799099335e+03,2.275451223382817261e+03,7.473144535060383475e+01,4.795594971964948217e-01,-4.124651909690875140e-01,7.745289890555933088e-01
2.672621748683333863e+03,6.057990271401298514e+02,3.484105582352017336e+02,1.959342668751664629e-01,-2.754410080855930198e-01,9.411386795413752004e-01
2.706905886562352407e+03,2.970528837104300237e+02,2.285404482187440863e+03,-7.133141654952356303e-01,2.319679284896977722e-01,-6.613424086326493700e-01
1.677909382603135100e+03,9.942442224068861378e+02,2.182795059025974297e+03,5.118064513124270798e-01,-4.098524574000156351e-01,-7.550331910307974681e-01
6.518476860971464930e+02,2.537436175404032838e+03,2.475177322584886952e+03,-7.613958691406060020e-02,9.875215345947565559e-01,-1.378549310549803952e-01
2.883829458824260996e+02,2.457244588410473170e+03,2.206871474955829271e+01,-9.193790418780921625e-01,-9.849908609577801011e-02,3.808413152398486545e-01
2.845556116426801623e+02,8.843881253139101091e+02,5.735383943729577823e+02,1.836288913577151238e-01,-9.492262335936146878e-01,-2.554407714450004918e-01
1.807284796978267991e+02,5.433367773129931493e+02,6.712854788226903793e+02,-9.573168837958747623e-01,-2.583487234194912219e-01,1.296160526589007489e-01
2.905453839530030109e+03,2.665487416743000267e+03,8.840126550524918230e+02,3.902690999675487160e-01,-8.136549978270122274e-01,-4.308776788389534484e-01
9.151707189550084820e+01,1.386804729721832246e+03,2.263348654664226615e+03,1.477380873534045180e-01,-6.166471961869920415e-01,7.732526708520826020e-01
1.188682068606420444e+03,2.115789731494659918e+03,1.638776603693718016e+03,-2.219836911968692816e-01,-5.510549767285931599e-01,-8.044014255738627384e-01
2.469169175265643389e+03,1.099688769284643740e+03,8.972429066736001460e+02,-7.014578538978757383e-01,3.937387176420350521e-01,-5.940763431029654207e-01
2.211770111465012633e+03,2.887524120569042225e+03,7.597891503933784918e+01,5.437464533558229035e-02,3.166571275084585357e-01,9.469802857202052060e-01
1.974540921221324197e+03,5.332143671839088483e+02,1.388403776295064972e+03,6.326592104604894518e-01,-7.705367552068411729e-01,7.755921798743670159e-02
2.432222889737092828e+03,9.485193095864609631e+02,2.490343148563843897e+03,5.447907343459149621e-01,3.860052870018001320e-02,-8.376831471116661376e-01
2.927977949247738252e+03,2.295127270070400300e+03,2.553866968461873057e+03,3.004364014920309911e-01,-9.447849027136518973e-01,-1.308413400377512747e-01
1.598433802026663898e+03,1.790190434507039981e+03,1.391687923327607905e+03,4.499382677980887091e-01,7.271145536595297054e-01,-5.185170981051234751e-01
1.451870230859174626e+03,9.681217984829772831e+02,2.570906624813365397e+03,-9.905164207169464552e-01,-9.463244156076386360e-02,-9.960884144661874551e-02
1.597638657103887454e+03,2.916930545362058638e+03,1.253036193519869670e+02,5.780207105559589387e-01,-5.441149370208320235e-01,-6.081373146578001876e-01
2.928942623945998093e+03,1.389141895367499501e+03,1.795942182021393592e+03,4.393661064226968560e-01,-2.439707977162883790e-01,8.645436220276205841e-01
2.956882996823992471e+03,2.498785472320573717e+02,3.771542269187108332e+02,5.788564286703059558e-01,-5.888795258780543662e-01,5.640444477066473006e-01
2.166314778997555095e+03,1.809190239952071806e+03,6.329945972204361624e+02,2.819998992077320521e-01,4.679708862472447550e-01,-8.375436146683927774e-01
1.458452027190900026e+03,1.379481764007608490e+03,2.675100274645909394e+03,8.159015148365745818e-01,-8.226506179517430184e-02,-5.723086384943172344e-01
2.505301897086089866e+03,2.526882596083057706e+03,1.527958509022039607e+03,-7.692198411877895423e-03,8.825906843746978980e-01,-4.700792634637214196e-01
2.143677490386108275e+03,1.029429213395949546e+03,1.362601081170798807e+03,-9.666756093755388690e-01,2.423422866575924706e-01,-8.251352819992653631e-02
1.844602326473584753e+03,9.323272684726656934e+00,2.468232067530177119e+03,7.154438165727354804e-01,-6.985810200108582002e-01,-1.116708594160176378e-02
1.955228474910030627e+03,1.669728630767046070e+03,1.749368136117232552e+03,6.856345677695117047e-01,4.497287600427683496e-01,-5.724065704286673828e-01
6.276806130558937866e+02,2.197820320100969184e+03,3.042136395984351793e+02,6.768548936377370984e-01,-3.272644191498826349e-01,6.593674642542940445e-01
1.282124051257524968e+02,7.528092777708026233e+02,2.437916514125838603e+03,8.246106294795907399e-01,-5.646120633928026766e-01,3.507887712848024170e-02
4.105462099958631939e+02,2.101389418021314270e+02,2.721204437405108365e+02,4.975987062269185968e-01,2.123266792095261646e-01,-8.410189705691256679e-01
2.253221177186613886e+02,2.200865136346138115e+03,2.602206139835031422e+02,1.818174527913782312e-01,8.725522488546721966e-01,-4.534258339344034994e-01
3.196847681555307190e+02,1.403953355027193993e+03,2.345258003119610748e+03,-6.286734372431475038e-01,7.063923479405995742e-01,-3.252376978086231052e-01
2.852207400395779132e+03,2.495899607610496673e+01,5.742253357545030212e+02,-4.360867846420631855e-01,-5.243482060755106922e-01,-7.313598806647385597e-01
4.753984656293241073e+02,2.987058148722243914e+03,1.666904186590672680e+03,2.960092072840640465e-01,1.657177284460418232e-01,-9.406998371859878194e-01
2.661299058121813232e+03,6.490819766446493304e+02,2.838246869631057052e+03,-8.820511438663561909e-01,3.844971196214569398e-01,2.723008347524034090e-01
2.252130886941572044e+03,2.736627929410928573e+03,1.040363689944972975e+03,-4.928843896145143066e-01,-8.616145692219362440e-01,1.211829714886745180e-01
2.744150597220378131e+03,2.666557798519605967e+03,7.209161155547452609e+02,6.900235311899978186e-01,3.480866538473552652e-01,-6.345890070096058544e-01
2.297634270490939059e+02,1.098920370003017524e+03,2.832752960452470688e+03,5.873431096029733123e-01,6.942362599010540869e-01,-4.160097198870549851e-01
1.422850655623370130e+03,1.590578656044400759e+03,3.722400287505648180e+02,-6.387106875351681312e-01,7.618366781256267206e-01,1.079515330639788800e-01
2.695141567681690503e+03,2.687155370726713954e+03,3.827893013032932572e+02,7.956041810029747252e-02,9.967445864636822472e-01,-1.305255634153912499e-02
1.735382099679420662e+03,1.786924701082321917e+03,1.903030140077479018e+03,-7.806155036206929854e-01,-5.169281616441447902e-01,-3.513185323979035601e-01
1.524592709767757697e+03,2.933831453830359806e+03,1.287490085689168836e+03,-4.543670135492407854e-05,-9.993859894641337061e-01,3.503772250447445558e-02
4.334763196921906001e+02,2.892342953283658971e+03,2.408475242251012787e+03,-8.491763144219354187e-01,-5.276538091337982239e-01,-2.193273196324230234e-02
2.067955886903514056e+03,6.690499323383139654e+02,6.854596897140999090e+02,-2.078329594079455500e-01,-7.949881272195805648e-01,5.699116936540602474e-01
1.667328575363684877e+03,1.157626311554887252e+03,1.934228708958124344e+03,-6.733098183467380871e-01,-5.302525200004430950e-01,5.152534847539240737e-01
2.480989709957544619e+03,3.877074701764207134e+02,5.917672161262283907e+02,-6.848050832545461014e-03,9.041407928158740059e-01,4.271797408188708900e-01
7.670088560436881835e+02,2.061106440565554294e+03,6.083729954221687422e+02,-4.709467420977756502e-01,8.799763849039156094e-01,-6.205423530208897809e-02
2.630408721214134857e+03,2.522810149304082188e+03,2.302952860810354650e+03,4.206217823076671691e-01,8.270785517798404651e-01,3.728516936183652319e-01
2.710417339218667166e+03,1.142788318741137118e+03,2.825438210533938673e+03,6.008775043341048061e-01,7.826113614086863679e-01,1.626827642353678716e-01
1.856809454408579086e+03,2.831793080399169867e+03,1.864704580570041117e+03,-9.621138064957254210e-01,-2.711150036983045464e-01,2.887348472170070748e-02
1.548119703078129078e+03,1.116487596208241484e+03,2.161032423080285753e+03,4.265171865175630406e-01,-7.635623593183755720e-01,4.848253428166666712e-01
1.321930819394238370e+03,1.656717331626578925e+03,1.371212454994731161e+03,4.127555619986514324e-01,-1.913634938141910435e-01,8.905126946172094993e-01
2.045788148562756987e+03,5.656775296288855088e+02,4.548912040293629957e+02,-9.024298717053409469e-01,-2.847378001995146679e-01,3.233337467562320544e-01
1.194679105013293110e+03,1.265498404659337893e+03,2.025346093914792164e+03,7.292752585053509096e-01,5.536689856922460962e-01,-4.020052880429223485e-01
1.244709334344305034e+03,2.906067703401143262e+03,2.123569146091193943e+03,1.595816523619130178e-01,-6.338205254031553659e-01,-7.568389774629142863e-01
2.526432597887011980e+03,2.746656449044969577e+03,2.780561973249420134e+03,-4.767679456547396777e-01,-7.668081617429304275e-01,-4.297645507491132943e-01
1.574726058619563219e+03,2.280596848603054241e+03,2.915521590372276478e+03,-1.586553319229358217e-01,3.273313336527294837e-01,9.314948650752448156e-01
2.827817157945158215e+03,8.958032425817764022e+01,7.921066957628808041e+02,4.432297507916748147e-01,8.721611049049274866e-01,2.070806487921215411e-01
1.167165761189301975e+03,1.749861549179210442e+03,1.311960915607814741e+03,-3.485430382779066694e-01,7.688508689174086141e-01,-5.360840343014809939e-01
1.781150303250126399e+02,1.145181534203152523e+03,1.875593551774821208e+03,-6.390923238563150921e-02,-8.005429734297502264e-01,-5.958578334704793811e-01
2.282226198017688432e+02,1.629213857956016909e+03,2.396237266436727623e+03,7.839048203440810436e-01,-6.195248187696859032e-01,4.101501639280492190e-02
6.598644197813855499e+02,1.623858702567056071e+03,3.535895778449370255e+02,4.336999289590281470e-01,4.416458085596714454e-03,-9.010465395965472357e-01
2.967047727165308061e+03,2.324313061817039852e+03,1.995956314088331510e+03,-6.339906609689647254e-01,-7.369368636768612868e-01,2.344779323481134270e-01
2.156288778018536050e+03,4.784885450361447852e+02,2.576684848434551441e+03,2.885346814524291092e-01,8.011444147943654892e-01,-5.243237208470916677e-01
1.448329248822945374e+03,8.128239087867284525e+02,8.010786348030867430e+02,-9.959798686087621977e-01,5.218195868214311334e-02,-7.280895902406392395e-02
2.338883072200725906e+02,7.728651029008970852e+01,1.758013765134701998e+03,7.504295863019571078e-01,5.842635308272864370e-01,3.090170910288072559e-01
2.587528465113197399e+03,1.235750403684898401e+03,1.491011894334616954e+03,-9.496317408487419121e-01,2.060114486952146218e-01,-2.361330975934692600e-01
1.399300903311605907e+03,2.658005635645938128e+03,1.022525553326345175e+03,-8.170347589445804415e-01,-4.798107277150410743e-01,-3.197434412868138676e-01
1.961017160981966072e+03,1.145403233831885245e+03,6.163808833789626078e+02,-1.616976303690771111e-01,7.373959628424363588e-01,-6.558209132962302679e-01
2.058986620270432923e+03,2.897033326984288578e+03,2.995900294056687926e+03,8.843839255683497713e-01,1.400934761329900857e-01,-4.452402611414323363e-01
1.121857165261985756e+02,2.453270732867557854e+03,5.025968618873718583e+02,-4.754603171031440145e-01,-7.783230772751064119e-01,-4.100617931985208742e-01
2.120076701573284936e+03,8.197599101067814900e+02,6.235178191318203744e+02,7.156085787518716712e-01,-6.796862518533488551e-01,1.610309319921876814e-01
8.987940324934227192e+02,2.249524638130024414e+03,2.175692989163517723e+03,-9.071709806285347399e-01,-1.511717914108177685e-01,-3.926676729590898862e-01
2.301307714242635029e+03,2.332627079086369122e+03,1.232906105445071262e+03,-9.147271624872544971e-01,-1.061642553514606929e-01,-3.898760945399009081e-01
6.483166720783510755e+02,5.784948199163894742e+02,4.047822765088243955e+02,6.048964497751140312e-01,-7.248623323334242308e-01,-3.296587390220551139e-01
1.961809120948699501e+03,2.756002732952323186e+03,1.789976205843666776e+03,-1.054166883815699923e-01,-9.380705649730574081e-01,-3.300165707078841493e-01
2.943252943082769434e+03,1.149587193211388012e+03,2.195882149928360377e+03,-7.681515431746763767e-01,6.254533432460517295e-01,1.369354670664248985e-01
1.153871035395380432e+03,2.832689041809207083e+03,1.927836980536093506e+03,-2.685340147065724548e-01,9.632687119173115597e-01,1.694575679543897095e-03
1.535778311331285749e+03,1.193503385357717889e+03,1.407552753386588165e+03,2.594395109646453479e-01,1.021889773536964613e-01,-9.603377286443719463e-01
1.401200506171263214e+03,4.534963240548357817e+02,1.909824655698395418e+03,5.249049802149924338e-01,-1.530408729937864521e-03,-8.511594560331323667e-01
1.656132815599950618e+03,1.117590200005448651e+03,2.197457815399030551e+03,-3.928311612273747977e-02,9.991355791885706550e-01,1.359894066488021198e-02
1.733989000593005585e+03,1.852496834147590562e+03,2.961055452803354001e+03,-2.991014390035927062e-01,8.972607122891607112e-01,-3.247484308943278108e-01
1.266968323426900497e+03,1.870990729475737226e+03,1.872691402445796257e+03,-5.643588881101553323e-01,-6.940716935689458245e-01,4.469491353581573900e-01
1.059938028511775343e+01,1.467361782454677268e+03,1.136941511826728174e+03,-7.245458467708461026e-01,-3.153470632609606805e-01,-6.128536086373361780e-01
1.833763885989390246e+03,2.091685729497937245e+03,4.010796200393457411e+02,-8.459432647465374433e-02,-4.537594942417517152e-01,-8.870998372865195325e-01
2.745047202784835463e+03,1.923731261225026628e+03,3.033338432027135241e+02,-2.141699426399380768e-02,8.919534914622541111e-01,4.516196202834757423e-01
3.079566774702291241e+02,2.165974258400537110e+03,2.997188250964624785e+03,2.382160130468804204e-01,8.523583652718655368e-02,-9.674647194081855694e-01
1.239531582631665742e+03,5.756472354895836361e+02,1.198343948655702889e+03,5.303319076879636773e-01,4.151221688766651985e-01,7.392033905463222254e-01
3.584337154444654630e+02,5.462495156477964429e+02,3.274704029856911802e+02,-9.837026168908719059e-01,-1.560371500650327425e-01,8.933962906590096897e-02
1.287005962612785879e+03,1.392725875914211429e+03,1.864218577449627901e+03,-9.186127747069345872e-01,3.874409590641012535e-01,-7.771790903463715594e-02
1.635586623018428554e+03,2.773276934981897739e+02,1.697811974668941957e+03,-1.468749134435941572e-01,8.992473905539399848e-01,-4.120459809085226799e-01
1.588158093099718599e+03,1.018020780831535717e+03,1.103594891292975035e+03,-1.310382355921358224e-02,9.416151017012864832e-01,3.364361604468298350e-01
8.079064242549666233e+02,1.393227597960528328e+03,1.260319362419053277e+03,-8.038551151464616851e-01,-5.542687056629636011e-01,-2.158776407495042460e-01
2.005730344026824923e+03,1.607222426999331219e+03,2.528566653955612765e+03,-3.147692598572054967e-02,1.512948452637440933e-01,9.879873850040339356e-01
9.886122541716091519e+02,1.776324319152540966e+03,1.389835035974972698e+03,-3.916989208902240116e-01,-3.227616802594491796e-01,8.616245430171607378e-01
2.029659099457711591e+03,2.182025160924166869e+02,1.450347275962075855e+03,6.672563733275723719e-01,-4.524201203002352623e-01,-5.916797841748997477e-01
2.605450780683038829e+03,1.947039364257819443e+03,1.889740858287645324e+03,5.396357920598807700e-01,-1.044982094446157833e-01,-8.353881350311209708e-01
2.498139312257068241e+02,2.747421561670246319e+03,1.757516442122194803e+03,-9.463861008829034249e-01,-1.516773184302565858e-01,-2.852145492948450767e-01
1.565897438124185555e+03,2.971273703891534296e+03,1.693387800992380335e+03,4.342735758689051928e-01,7.412493892821209185e-01,-5.118161820330783263e-01
1.323343927830435973e+02,2.505050542226332254e+03,5.256161492365514505e+02,-2.698059191271732216e-01,3.614663803926089769e-01,-8.924947181075117975e-01
5.362493256183227004e+02,2.694789579033482028e+02,1.814807352953133659e+03,-7.203334824210194665e-01,1.983385136507118673e-01,6.646664638042401041e-01
1.227107644050516001e+03,6.626012703494200196e+01,5.102531597338166875e+02,-1.684004046658279796e-01,3.475985694616021832e-02,9.851056065485912505e-01
5.239809831397647031e+02,2.409224350365333976e+03,1.708981600438230544e+03,-8.485042703332337233e-01,-2.392400397323285813e-02,5.286474678461589027e-01
1.320080680415645929e+03,2.004293372336743232e+03,7.189986158090841855e+02,1.567795663559576336e-01,-7.664956361680406172e-01,-6.228198835205798201e-01
8.341964251174476885e+02,1.976817533744055481e+03,7.611037087768233960e+02,2.503186144534508828e-01,-9.865369620937440576e-02,-9.631241038839870594e-01
3.347670169710700065e+02,2.276631227614576801e+03,2.737352032654722279e+03,8.877408275259736081e-01,3.728391654515370024e-01,2.700132956891219682e-01
2.514885512753994590e+03,2.841784256221806572e+03,2.964175762810379638e+03,9.901582946806145591e-01,8.268382446344779702e-02,1.129156173754331111e-01
1.677342376773050773e+03,5.168819275857632647e+02,6.922081563589416646e+02,5.751544316205555729e-01,8.105249011612867260e-01,-1.106651001206897661e-01
1.683670462942347058e+03,2.953404207923048034e+03,3.030016444528624788e+02,-4.808499644858045263e-01,-6.332509871635272347e-01,-6.064457922274824053e-01
1.781410231930587770e+03,4.173422523518029834e+02,7.839238682564964620e+02,8.731323357038609512e-01,-3.879230022850715248e-02,4.859373229042010522e-01
2.462615772773548997e+03,2.635708631955931196e+03,4.419286689942592261e+01,7.655917708341294370e-01,9.197615485765142651e-03,6.432609457292103317e-01
9.220482141641201679e+02,6.190784837722939074e+02,2.669445981000780193e+03,5.704915269326471527e-01,7.771209674503899711e-02,-8.176186444287742994e-01
2.131500495364134167e+03,2.792729291067869781e+03,2.330890046104645080e+03,-3.593895029459220347e-01,-3.648137905106300094e-01,8.589237937241867016e-01
4.295520751815698759e+02,2.026784350180247884e+03,2.787622914795345423e+03,9.724314858593828825e-01,-2.331320775286037095e-01,5.141958431382764871e-03
2.353842724892284423e+03,8.853987073922535274e+02,1.673597273043320001e+03,-1.547665667557408808e-01,-8.451713793618266246e-01,-5.115981326414984487e-01
2.324239537481979369e+03,2.317601294182184574e+03,2.180557578001663387e+03,5.043897622572367234e-02,6.589418449411773571e-01,7.505008691952451683e-01
2.840773864865904670e+03,2.412208369712088825e+03,2.462756263485443924e+03,-9.069494591064145572e-01,2.904906004352446613e-01,-3.050539127520793259e-01
4.730279423655392179e+01,2.605557693817448126e+03,2.039806697591501234e+03,5.021470257015122618e-01,-8.536301638532695080e-02,8.605588416910974203e-01
1.126912527212135728e+03,5.463915578768298928e+02,1.031273027445279695e+03,-8.657226076847774898e-01,2.471007234119745044e-01,4.352764627598737501e-01
2.078663629344935089e+03,1.785998452331974022e+03,1.530543755061781667e+03,-7.696848131274754978e-01,-2.795129612169604261e-02,6.378118950647129193e-01
1.654287319257468880e+03,2.602759668277672517e+03,1.846283132801706188e+03,-9.766774003245615177e-01,-2.146646536315882925e-01,-4.510230203288890551e-03
1.173885156764289150e+03,2.815437066742166280e+03,2.857767215542280610e+03,-5.833590129260201040e-01,7.051896410164614215e-01,-4.029886254487262676e-01
2.351946793781692577e+03,2.691838678793343433e+02,1.864930087521444648e+03,-9.475497122674361172e-01,2.434878078398219348e-01,-2.070343696473049278e-01
1.580548818340505250e+03,2.875187669400927462e+03,2.409655121825788683e+03,8.820127580101752018e-01,2.747597417477989912e-01,-3.828323118833714123e-01
2.884933874502889012e+03,2.223246459995399164e+03,2.213314690545365011e+03,-9.048155377389193177e-01,-3.163927120005501914e-01,-2.849640230961922871e-01
4.184959218581353184e+02,2.172546316631814989e+03,7.574873735119217599e+02,5.255701545672875064e-01,-3.896470707971000369e-01,-7.562745353688415939e-01
5.796897344616647274e+01,1.631955881044894568e+03,2.773858618186838612e+03,-7.778491662951472208e-01,5.686485357769468507e-01,2.675621745551471364e-01
8.270734219871502546e+02,2.984910157022558906e+03,1.496979370479991985e+03,1.303338852812788162e-01,-7.992878680156734195e-01,5.866446815496122458e-01
9.151314394075261589e+02,2.844546900664789518e+03,2.358283028887026830e+03,9.317505641478681655e-01,3.366524696417081963e-01,1.360367630248100479e-01
2.332847475103302713e+03,4.984443718220683763e+02,1.840420095262993755e+03,-9.199096791270163775e-01,-2.536136675059742496e-01,-2.990757260337237877e-01
2.176151816733995929e+03,2.235494003856729705e+03,3.265278096626840352e+02,6.443398712778803938e-01,-6.687975915494206447e-01,-3.708583446806863471e-01
2.202442332122112020e+03,1.041144333159134021e+03,3.397846778810519481e+02,-2.004525695536757135e-01,4.752725364794210261e-01,8.566999378007134069e-01
2.282070435665445416e+02,1.223575205546491816e+03,3.281417862715564411e+02,-8.261352770170899973e-01,-4.461359379655210899e-01,3.441848760819117836e-01
2.253990819842054862e+03,4.687570656632435089e+02,2.392042945825449351e+03,-3.762219753680169365e-01,-5.261437546294274181e-01,-7.626465594983276031e-01
5.087783193261570318e+02,6.805809717546492266e+02,2.369104934560401944e+03,-2.852750605849178056e-01,-6.989822699786745197e-01,6.557758199748836558e-01
1.832952917485614080e+03,2.971250803747731879e+03,2.028695966523135894e+03,4.715983136861985892e-01,-3.593907945201688658e-01,-8.052535546910026820e-01
3.405461590642630085e+02,2.750234096832205523e+03,2.082574762676999853e+03,2.396256186532553373e-02,4.079822718594652148e-02,9.988800229693926003e-01
2.279488567277952882e+02,2.262191549492931131e+02,2.988809834057896296e+03,4.249810024599413594e-01,8.462345116916373255e-01,3.213694116902846010e-01
1.759310469437276424e+03,1.102118344782862323e+03,2.198228254935996517e+02,-1.758663575757538899e-01,-9.262060216056258177e-01,-3.334867760714301799e-01
2.344365272740963974e+03,2.373553592222614498e+03,6.621051485234019651e+01,1.701614722712885830e-01,-9.835987840597194554e-01,-5.982060974872349668e-02
1.782759480537473564e+03,2.996862601164437365e+03,1.127637897811247285e+03,-1.139281664882533657e-01,1.502186378242831299e-01,-9.820665627801619113e-01
2.763228244611650098e+03,1.550569810663930184e+03,1.693497539495449246e+03,-8.977432579191515494e-01,-2.429071886852789686e-01,3.674957694256111296e-01
1.820574697906563188e+03,3.472249798584628024e+02,6.712791021829884812e+02,-4.110005908598231006e-01,-3.658472113934367886e-01,-8.350055881420928028e-01
1.285371426631292252e+03,6.624057752771774403e+02,2.182805068920030408e+03,-7.558380983108382578e-01,4.582965593862570741e-01,-4.676248847062938752e-01
2.985573091469992050e+03,1.222278294768536853e+03,8.756143911829551598e+02,6.587234984653994596e-01,-7.310857153694073629e-01,1.777555325504855954e-01
2.361425456845576718e+03,1.894997510085851900e+03,1.648030059413099934e+03,-3.573155210160509632e-01,2.295979503456005155e-01,-9.053233674428862177e-01
1.830450322628278400e+03,6.586118629701699092e+02,2.512438311386821169e+03,4.776853840453088584e-01,-8.189608467068084652e-01,3.179934046969422057e-01
2.199701981126265764e+03,1.313796142124932885e+03,1.861157389021913559e+03,1.794946163682892282e-01,7.525247091767068852e-01,-6.336310004831782194e-01
7.700694921034884146e+02,1.533632386196228708e+03,5.647028993295068631e+02,4.655502249266020853e-01,8.544008972121392986e-01,-2.307858204350552445e-01
4.282060625532092786e+02,2.345738884005600084e+03,2.290064930102159053e+02,3.062864535381842335e-01,-4.036601805862182757e-01,-8.621177802296524639e-01
1.839899422162832707e+03,2.568467868549576906e+03,1.351658981450990041e+03,-5.239945452108315527e-01,6.181694138771457459e-01,-5.859149190250063644e-01
1.739327228961838500e+03,1.673011204604616069e+03,7.889537567681243218e+02,2.525247543945461914e-01,3.576134924296398565e-01,8.990794394547403368e-01
1.455915388891796965e+03,1.912843035079292349e+03,1.579030147681498420e+03,6.985264639884759541e-01,-5.453162031287477340e-01,4.633476208129299057e-01
3.697910969015391061e+02,2.631515437209647189e+03,1.806699875738275523e+03,-9.326489140479884421e-01,-3.605672438994141915e-01,-1.254056425717275935e-02
2.250454694524282786e+03,1.184864309907547749e+03,2.817811296111884189e+02,9.838975803334669423e-02,-8.373525869828042367e-01,-5.377360882322710367e-01
4.354190172364416185e+02,2.819475809908261454e+03,2.067113060379599574e+03,9.883595667639635263e-01,-6.817913149758329794e-02,1.360035764764500055e-01
2.456620744207813914e+03,1.630175236289286886e+03,9.313594692487571365e+02,-3.263265072757243757e-01,-2.464708409425156732e-01,-9.125585653613228487e-01
2.450941749388141488e+03,8.369653292125054804e+02,9.729614077128517238e+02,9.578267461384746273e-01,1.710803126742918845e-01,2.308667386113658904e-01
2.719294993909579262e+03,1.064569468799045922e+02,2.851442267341755723e+03,4.953822565792041499e-01,-2.028044289330825090e-01,-8.446696297793723218e-01
4.376542782532291085e+02,2.098307550553970032e+03,1.422664081557710688e+03,-7.332554736580623178e-01,5.210743370455954704e-01,-4.368271347146190919e-01
2.946421824513127376e+03,1.052783028263396545e+02,2.356571782135859394e+03,7.457008666654560969e-01,-6.469822991344171825e-01,1.591983732992627854e-01
7.864823192015712721e+02,2.762295124256487725e+03,7.333101122272280463e+02,6.113497226174911120e-02,-6.317753404629428138e-01,7.727369761759093070e-01
2.098070501910030089e+03,2.453216115339198495e+03,2.375931438989262915e+03,9.151976934786355544e-01,1.254807273524016220e-01,-3.829722821752220008e-01
4.756230232102495279e+02,1.587507959526083141e+02,7.198358231249850405e+02,-2.250461472951715558e-01,-2.756278970271834328e-01,9.345498884318441668e-01
1.258840966436507415e+03,1.628397334044858781e+03,2.361536787319156701e+03,2.046746808923172525e-02,8.237547422032079902e-01,5.665767445348799392e-01
1.713107584822859053e+03,1.816275587015275278e+03,1.509454049327750454e+03,5.947897375784674256e-01,5.160492665294458270e-01,6.163751476055461254e-01
1.094601236325187983e+03,8.483058755982051480e+02,1.034846826319113511e+01,-8.288742040205263617e-01,-4.789056104635235345e-01,2.891659906972094962e-01
6.079728422334117113e+02,1.327975224229622427e+03,2.109214269830473313e+03,7.670403004597924346e-01,-6.319579167531884645e-01,1.108078017267808413e-01
1.849162791351737724e+03,1.564627507048662437e+03,2.554929551912545321e+03,4.787849975976534722e-01,-1.093491541594070471e-01,8.710956827811955350e-01
2.536641114480411488e+03,4.576676089183300178e+02,2.097894135061444558e+03,4.225072546407354634e-02,9.867457683142990543e-01,1.566769444161555391e-01
2.471331192684569942e+03,1.823514142161431209e+03,2.739157226656272996e+03,-1.767611187751198798e-01,-6.709583412743346242e-01,-7.201183313621182247e-01
1.364327968640967129e+03,1.577894629150917353e+03,1.584596151988634574e+03,-7.871015412787703280e-02,-8.496395158964714645e-01,-5.214570017406761071e-01
2.389538607990422406e+03,1.586695702280728028e+03,1.838080884056507330e+03,-5.409936286259756644e-01,-7.933993997196150394e-01,2.790040973008360847e-01
1.585365573976111591e+03,1.226710291684846425e+03,1.976672112337825638e+03,-8.508455017272726906e-01,6.907010024757238680e-03,-5.253705600840072876e-01
1.823908191607011986e+03,1.871910574334047169e+03,1.361502059024610389e+03,-8.359272555682928374e-02,5.058828718834205151e-01,-8.585422390127135372e-01
1.057088960648160537e+03,2.040249048329346579e+03,2.430176392720376498e+03,-1.623024051900208986e-01,3.868364585413057444e-02,9.859825073564776332e-01
7.691921649534863263e+02,5.293199420105248691e+02,6.366168912451014421e+02,-2.771903942783913166e-01,-9.593970766063665279e-01,-5.217983057607167297e-02
1.786321114447717946e+03,2.367372329991313563e+03,2.259000753843515213e+03,-7.870839197751989813e-01,9.434097284547926510e-02,-6.095889468107806852e-01
1.479744300109243568e+03,1.397945551457985857e+03,1.685587034119292184e+03,-8.713555002782494840e-01,3.071905045222644848e-01,-3.825880108761881004e-01
2.539084227521470893e+01,2.819835156781624846e+03,1.099998201021525972e+02,9.723304396906279345e-01,-1.948093009188993918e-01,1.289296409927516152e-01
1.391647263657627263e+03,2.137874293883260634e+03,1.799068072794121917e+03,-2.182347948556699266e-02,9.777511055421557185e-01,-2.086300825725648789e-01
1.198310086874381113e+03,2.880054613386577785e+03,7.739838900060434526e+02,6.146979379993458004e-01,-7.887495426969083345e-01,4.539153530166428752e-03
4.816387761737674964e+02,2.122542293985461129e+03,1.172321057411184938e+03,-3.599192911446575383e-01,-6.416312852121628385e-01,-6.773237023011342561e-01
2.998382085544196798e+02,2.947180091728513617e+03,2.033122031764336043e+03,-7.369613424817527125e-01,2.898525035173620257e-01,6.106336920709587446e-01
2.035969858190344667e+03,1.609979029145737741e+03,2.747565600192062448e+03,-5.804290125337254747e-01,3.272059414975211356e-01,-7.456798463535441179e-01
2.814835722839947607e+02,1.139517587822204405e+03,6.560266709887638399e+02,9.424511093669050155e-01,6.435360616632150935e-03,-3.342820554364594465e-01
2.560656983600191779e+03,2.135687941149412381e+03,8.783778479891974484e+02,8.795796404347445696e-01,4.544194677001370253e-01,-1.408637764217959554e-01
4.029007097287610009e+02,2.923919581073685094e+03,4.125834620598861875e+02,-8.968845987215918747e-01,4.390636273118629918e-01,-5.311447776038757951e-02
2.612887879162940408e+03,1.089480251127181873e+03,8.192259319017249481e+02,2.720214921574653499e-01,2.131310209430064828e-01,-9.383919627299766031e-01
1.249235499718222400e+03,7.005108384160184869e+02,2.215517995998080778e+02,2.865402484097421820e-01,8.938220746158758168e-01,3.449301160679578704e-01
2.505097451115119839e+03,1.700753638780725623e+03,2.475002182014095069e+03,-8.243883456341691840e-01,5.159489733619144758e-01,-2.327670777179287331e-01
1.593303859815382111e+03,2.650114636674381018e+03,1.611899567687370336e+03,-1.574581798917799869e-01,-9.859795992113858931e-01,-5.523722951165033201e-02
4.711678950700335236e+02,2.854683326137597760e+03,4.776877944265264091e+02,-6.325487227437792681e-02,-3.379906943628786520e-01,-9.390213584672348901e-01
2.592262756978217112e+03,1.628198373699988906e+03,3.997138954801694695e+02,4.194171807478430103e-01,7.356045757018634390e-01,5.319540738635362143e-01
2.012488963923105530e+03,1.480582952933935985e+03,8.192735731471276495e+02,-8.835622568341383598e-02,-8.667290523265031021e-01,4.908909524896374332e-01
2.825823347773937826e+02,6.849347514775583932e+02,1.660758177045110415e+03,1.509584492605828832e-01,9.858683093105796713e-01,-7.263073243427566050e-02
1.664120595388013498e+03,1.199925628435630870e+03,6.846776727800310027e+02,2.915938531520136379e-01,3.328802386605810848e-01,-8.967517892445135974e-01
1.102756603924952060e+03,2.048572446291506822e+03,2.517756731253702583e+03,6.529045949405043459e-02,6.426636794018083521e-01,7.633613502639398085e-01
2.930738973439766596e+03,1.399734257738936321e+03,4.010041050212520304e+02,3.910845082998237743e-02,8.836745986531963082e-01,-4.664651463601448000e-01
9.066818417709753248e+02,2.343775886875792366e+03,7.803408879862331560e+02,-9.839464889613999121e-01,-5.457988665743881279e-02,-1.699127506486632910e-01
2.571619610076807476e+03,2.742617547982762005e+01,1.539733356846311381e+03,7.273214458429664298e-01,-4.265592557043163535e-01,-5.376343699856592773e-01
4.179916567057454699e+02,6.768237188039230432e+02,2.433632319967794047e+03,4.902929556939340516e-01,6.045623262083840155e-01,6.277875527010819967e-01
2.581305900131535509e+03,2.252420630034067926e+03,2.766858947336947494e+03,-4.512897070502039365e-01,8.332455893710700723e-01,-3.194360469705934680e-01
2.643305394331168827e+02,1.044469068213859089e+02,5.177044457571727207e+02,-9.987427085155200501e-01,-9.523759758549965159e-04,5.012080573059041200e-02
2.209057814188947305e+03,2.868723425401161876e+03,2.729805749662307335e+03,-8.000085051863310426e-01,1.814276549209450917e-01,-5.719006886334538908e-01
1.856067157941153937e+03,1.325843710076938351e+03,2.025823104071012722e+03,-9.788332162785778889e-01,1.036730433910575122e-01,-1.764580255578385160e-01
2.642810361836613538e+03,2.206710143444459391e+03,2.479380686947061804e+03,3.480313048292185130e-01,-5.243166602133175758e-01,-7.771526559702566228e-01
8.926937822751896192e+02,2.048093177179447594e+03,4.958268094416433769e+02,6.333282843469845158e-01,-2.575766344003978525e-01,-7.297599342640488373e-01
2.498417849596424730e+03,2.096517613234974306e+03,1.763066081472026667e+02,-4.430471414470007474e-01,-8.954691936553188514e-01,4.294361035048744474e-02
1.321745342356943411e+03,2.417784462345580778e+03,8.179254539213545740e+02,-9.013347471501733654e-01,3.257294300069167869e-01,-2.854750637220389020e-01
1.206672685805869833e+03,1.588363356162176956e+02,3.967019685292844997e+02,2.296519952207596305e-01,9.441210387499366918e-01,-2.364221336526357575e-01
7.363917680519090254e+02,6.187611231715928852e+02,1.355429818789422598e+03,9.464196231970083417e-01,-1.845624944117575661e-01,2.650029858023166818e-01
2.251042140269869378e+03,1.721778108032004411e+03,9.327831366959177331e+02,5.497126816759142498e-01,5.914202356866129495e-01,-5.899475166699715833e-01
4.597770652846680832e+02,2.116107564766906762e+03,1.354878974029816618e+03,-5.217788093144984894e-03,9.395784524073127475e-01,-3.422938890183322425e-01
2.396106328007542743e+03,1.209597442181718861e+03,2.883523479013954784e+03,-4.904452744858770474e-01,-3.778173244358665889e-02,8.706526135193266569e-01
1.069272504255911826e+03,7.342116556818624531e+02,1.124048340712329946e+03,-5.296235403222167015e-01,-8.401778968391429014e-01,-1.166190687645725227e-01
4.333360685438871656e+02,1.475044373651650631e+03,2.374052587157408652e+03,8.113588944032311678e-01,3.752335608189200089e-01,-4.482148137979380387e-01
2.613504409770384029e+01,4.279761396470347563e+02,3.000160031533337701e+02,-9.206052322340966265e-01,-3.731141552871142242e-01,-1.152034439918718789e-01
2.855410545097606246e+03,8.934820522890008476e+01,9.504878769230529088e+02,8.631666957666223050e-01,-4.330712728312455240e-01,-2.596007087194798224e-01
2.986115934685718912e+03,1.819762428159581987e+03,1.782583913130313249e+03,2.306213549279790553e-01,8.558050806653997311e-01,-4.630458449856469372e-01
1.108913933687776307e+03,2.983862611812787691e+02,1.298196367512816778e+03,-5.764299968685867581e-01,-4.199800093722474981e-01,7.009602345623952013e-01
9.645222479531937552e+02,6.690375533896009586e+01,2.053062580807070390e+03,5.052670779269476942e-01,-8.030466694680590267e-01,3.159449740372868853e-01
2.626548818901404957e+03,3.217139975694383907e+02,2.934528135419141108e+03,-8.309262476779218920e-01,-3.081765733270973029e-01,4.632372724341782266e-01
1.373923692096625473e+03,3.376038675181432041e+02,2.210891073742740446e+03,6.083370460605157515e-01,7.933847009561766361e-01,2.160450598935925726e-02
2.113579748827071853e+03,2.198032344107541121e+03,5.990370519662144488e+02,5.715635393334654868e-01,1.028008350598334647e-01,-8.140928133914480114e-01
1.417835774946916672e+03,2.757789669942741966e+03,8.425335911535954665e+02,-5.764700052640301386e-01,-2.046131549422566531e-01,7.910851975959765081e-01
2.396865988877491418e+03,2.766060359190777945e+03,1.489152698396303322e+03,6.920735560423419974e-01,3.487546886046840044e-01,-6.319844619950376607e-01
7.859477142821906455e+02,9.518079434916552373e+02,8.569375437473051988e+02,-4.933130486945881410e-01,-8.387546348714866040e-01,2.305057449810092862e-01
3.754976294963555574e+02,2.552735829806451662e+01,4.679339117366578762e+02,-8.030775371418504838e-01,-1.586285491667123182e-01,5.743722248920501983e-01
2.246545874932614879e+03,2.538017122579992702e+03,3.753353740100471327e+02,6.669808143153889146e-01,4.719007899978394094e-01,-5.765815100526514581e-01
7.137022724219879137e+02,3.928129806500006111e+02,8.813707730202661423e+02,-4.060057747043339660e-01,-2.869197334269882327e-01,-8.676614417368790910e-01
1.632321940739767797e+03,2.158260736424738752e+03,1.505994406057761580e+03,5.336253161875935680e-01,-7.834170872395083141e-01,3.185932977086232687e-01
2.260865104393148158e+03,1.419357709475482579e+03,5.108498287232938537e+02,3.275490693122989350e-01,-3.424905306767783708e-01,-8.805747234558720660e-01
1.924654943567488544e+03,1.592312184560674496e+03,1.561333607012062998e+02,-9.786689568654656224e-01,-2.021413542874974378e-01,3.668713336686035831e-02
1.614534739708060670e+03,8.734777128001877600e+02,1.161556664817899900e+03,-2.002689917305110201e-01,-9.683267005237842229e-01,1.491165048006628524e-01
1.278256643931015788e+03,1.892792692860223042e+03,1.798276344120365593e+03,-2.527171123004129383e-01,7.782971391888272583e-01,-5.747935492688031056e-01
2.602559548455185904e+03,2.874836783975947128e+03,2.937606972389382918e+03,6.161516830142262924e-01,-1.681614310511266863e-01,-7.694665922738775921e-01
1.894248660124667822e+03,1.803215168736057421e+03,8.332941927799939776e+02,4.328769280453347301e-01,-2.875206639603198888e-01,-8.543707818984981328e-01
1.057496151006896298e+03,1.839668252746003645e+03,2.508937339711103050e+03,-8.624093725805566102e-01,4.300649169083546886e-01,2.670098150439806362e-01
2.060670319924020987e+03,8.357699294817251712e+02,7.867646511651963692e+02,-6.738382507551589073e-01,-1.408692117149503709e-01,-7.253260487601669304e-01
8.569699605040788128e+02,1.569030756897538822e+03,1.915427505958085021e+03,-2.630265851997983240e-01,-3.066258389368191062e-01,-9.147664239435251421e-01
5.355076589794675783e+02,1.901471131394434451e+03,2.586209358380050617e+03,9.170896736329388066e-01,-3.983004808005952690e-01,-1.741429039164188453e-02
2.591161603289308005e+03,2.348973743999889393e+03,9.081556903689079263e+02,-6.682603454895018613e-01,-6.937175704403171217e-01,-2.686708825098755860e-01
1.383041375049089083e+03,2.911480308517102003e+03,2.674453497454034732e+03,1.660083044778373484e-01,-5.423896562545487722e-03,-9.861094382422634919e-01
2.509114696455602370e+03,6.017554043777330435e+02,1.352218978089398661e+03,-9.774796929970419601e-01,-1.938013249545910699e-01,8.351344936148752396e-02
2.535540023277446835e+03,2.986623061656597656e+03,1.982097287961794564e+03,9.637188181578498769e-01,-7.320161697579656568e-02,-2.566857276915992525e-01
1.616413657053583165e+03,8.437299486276845073e+02,1.700844431272493011e+03,-5.737018106753773335e-03,-5.340976424439937142e-01,8.454033327110856977e-01
8.251703898310149725e+02,1.884586870278208380e+03,2.940382736138446489e+03,4.505674048455859948e-01,7.567857145534808705e-01,-4.735656194641786332e-01
1.190502455319757701e+03,7.381768039894119511e+02,2.942359261812760906e+03,2.236728342310606923e-02,-4.279106682204512624e-01,-9.035442239621684912e-01
2.751556368709289018e+03,2.691342585750547187e+03,9.900380250874395927e+01,-2.058576072403783541e-01,7.069103331220114583e-01,6.766834019440648440e-01
1.839261446554306303e+03,1.396855418103960460e+02,2.649434632200160650e+03,-2.470321543822000809e-01,8.591692484951747311e-01,4.481108313146711097e-01
2.715436602965530710e+03,4.823282808199947169e+01,1.942125542837357443e+03,-7.655681437514656462e-01,5.120965772681032036e-01,-3.894387151057648322e-01
3.155503899638754319e+02,2.671312184815233650e+03,7.050558690994533890e+02,-7.315491863775812620e-01,-8.991254405023678398e-03,-6.817293783126285867e-01
1.235896336987861105e+03,1.202111149654965857e+03,2.612133559371999581e+03,9.334217409719116620e-01,2.708635588238979541e-01,-2.352802286258204589e-01
1.370045995783031685e+03,2.371119493859951490e+03,2.014376302252097275e+03,4.041135294817106982e-01,8.820098291748127428e-01,2.423858835181049998e-01
1.577774968841498833e+02,2.108931241614789997e+03,6.660382454045262648e+02,8.997887307888854380e-01,4.004460628751058682e-01,1.732720135311913712e-01
2.308836979416044414e+03,2.963162088431510711e+03,1.326253569607604959e+03,3.601510308440158958e-01,-1.596854391272864160e-01,9.191255602542660608e-01
2.845485664315190661e+03,4.548427284388972680e+02,1.611742929278161682e+03,-6.516908123470825931e-01,7.482713465119716911e-01,1.240527190010791841e-01
5.876687755117405914e+02,2.693250152156534114e+03,1.916165083974853360e+03,-6.057503410187128345e-01,7.941061118643439887e-01,-4.961862004738960136e-02
2.833499079943592733e+03,2.103024663041455824e+03,2.818191807756934395e+03,6.675334077850747505e-01,5.793112978198862173e-01,4.677580247404467539e-01
2.906678487975705707e+02,2.289326335977635154e+03,1.779863434046372731e+03,8.778406928319126834e-01,4.294034669999643450e-01,-2.121517865510403056e-01
2.065994512156252767e+03,1.316986442165443577e+03,1.999044889590417142e+03,1.665872524556001044e-01,-9.301696999021012990e-01,-3.271590082869932914e-01
5.611025311917010185e+02,2.993234601774472594e+03,1.363964020022249770e+03,5.117126746400125770e-01,-7.552331648536271258e-01,4.096010318809497619e-01
2.020993960991772838e+03,2.879841201826763154e+03,1.655499607186246067e+03,6.948643555269705396e-02,-9.544066998079131503e-01,2.903092947804957191e-01
2.746850840418000644e+03,2.002289418442163424e+03,9.661162188399319461e+01,8.144767861243834561e-01,2.505277066921515194e-01,5.233196279942751161e-01
7.943444774578232455e+02,2.011256204960377772e+03,1.466120708945742535e+03,5.453764915787474854e-02,-9.768436487347118558e-01,-2.068867582785023362e-01
1.579936424035250411e+03,3.797834729740143871e+02,2.996146164157293697e+03,-9.378520508821380774e-01,-8.595232986725066804e-02,-3.362227351720268320e-01
7.423508782683668414e+02,2.575316965772767617e+03,1.315315077588182930e+03,2.484833942885055214e-01,-3.922273603804470321e-01,8.856713275994938517e-01
2.161470807780919586e+03,1.197742962504517209e+03,2.770421564323206894e+03,-2.983988938123693924e-01,5.272694306504833728e-01,7.955784359025006580e-01
1.443053659202059293e+02,9.269916891274144177e+01,8.485468822117891818e+01,-6.439292369511701031e-01,-6.892470101674737226e-02,7.619740962718062338e-01
6.310765965560053701e+02,7.692802452876595680e+02,2.616498572325553141e+03,1.645611580143308827e-01,4.564768701756576341e-01,-8.743846363401053257e-01
2.856197169703123564e+03,8.635509196202344810e+02,7.392614984061297037e+02,-5.325852848312757626e-01,7.721764052413438995e-01,3.465494388535996784e-01
3.797611987034157437e+02,1.412264849674532115e+03,1.830950838082541622e+03,-9.410689557804234884e-01,2.635804057735490202e-01,2.119306258156063993e-01
1.701722514727256566e+03,6.489938323179280815e+02,1.373842381093609220e+03,8.263226655121469477e-02,-6.884592914717517775e-01,-7.205523662516295502e-01
2.898349693298146576e+03,1.589268685248215434e+03,2.214740960645247014e+03,2.503223830416856921e-01,4.640872968535096343e-01,8.496832853761064897e-01
2.977304130593676291e+03,8.128321318301892688e+02,1.139381872438914570e+03,-1.567266928952965876e-01,-9.029228683967515101e-01,4.002087423586420112e-01
1.653871447964853814e+03,2.040036735485255576e+03,2.414594254964445554e+03,5.180712355228399568e-01,-3.268054043351021343e-01,7.904431811466328117e-01
2.026105301271079497e+03,1.567331067010837160e+03,2.369772867712785228e+03,9.319533834958997343e-01,-3.509478867714928008e-01,-9.109594810510479590e-02
2.162578885499488479e+03,5.568019899584543282e+02,4.710296801597103808e+02,9.551871612475381079e-01,-1.296200107950745140e-01,-2.661130207061548347e-01
2.643448848906890362e+03,1.884971896446976871e+03,4.932189437848883813e+02,-6.600665778712875298e-01,5.774848792286504384e-01,-4.804407632992422350e-01
2.372056474368158888e+03,2.981233275489111747e+03,2.825025819798459452e+03,8.831565861668749795e-01,-8.080368579976345000e-02,4.620662384022927172e-01
1.489633751501397910e+03,1.675743738981517026e+03,2.894419784752914438e+03,-6.910675163374332408e-01,-2.753362857830968791e-01,6.682930626561826015e-01
1.498478166335595688e+03,5.858999753333040417e+02,5.984218218194208703e+02,-6.416733113043405767e-01,-4.292473892256526424e-01,-6.356115483553488321e-01
2.905974014051694667e+03,2.916906489769866084e+02,7.130206912917094542e+02,-3.680040591342446932e-02,-7.883758523339833291e-01,6.140922126043226736e-01
1.183353993706774872e+03,2.447983345291120258e+03,2.042581158645532014e+03,7.214258010413812094e-01,4.116698706712424993e-01,5.568417469742403814e-01
4.230307309339512472e+02,1.002332032531002596e+03,8.226453829450073272e+02,8.453164809906089650e-01,4.891030849232839706e-01,2.149842303151101586e-01
2.281728978046028715e+03,2.140514326322823308e+03,2.505198954224192676e+03,4.963874300966407693e-01,5.888253008509739539e-01,-6.378748186907934326e-01
1.478899799305542501e+03,1.030610418179957833e+03,6.478225903886836079e+01,6.499529943950975719e-01,-4.395910100263974440e-01,6.199361652467276773e-01
2.483088625806803122e+02,2.198948165911990600e+03,1.370735701735116436e+03,4.455457908073687801e-01,-8.854811477763766536e-01,1.319548605640086247e-01
1.378247738443506250e+03,1.537061155302152997e+02,1.468545925225753535e+03,-7.387506588343857317e-01,-6.484262259844334464e-01,-1.838229950994854089e-01
2.854431376601806733e+03,2.713988023559867884e+02,2.545231867047967171e+03,2.884727894044367136e-01,-8.639787803432203983e-01,-4.127034248584142695e-01
2.846097045148170309e+03,1.604211333393141672e+02,1.172983708853022620e+02,-6.916767737669474725e-01,7.068018680616087179e-01,1.483723691795999777e-01
2.748418852705128756e+03,1.533506064805689675e+03,1.108247768884644302e+03,-8.231364893539139249e-01,5.291252823458979515e-01,-2.060891930123651683e-01
1.868078639133176466e+03,8.764963819888130274e+02,1.274057549518461883e+03,6.021719986636335786e-01,-7.923462510527423674e-01,9.785858402873759410e-02
2.537748561795702699e+03,4.764559168636405388e+02,1.728899065796492778e+03,-6.018652653295065713e-01,6.861435124199443125e-01,-4.086138553131359874e-01
1.478178318244179991e+03,1.548772887884265174e+03,1.907892676065236401e+03,-2.439501187218147682e-01,9.610579981425447782e-01,1.298301343365895200e-01
1.693517077396397781e+03,1.776084561819037901e+02,1.553927272716362268e+03,6.275932311486230875e-01,7.555991360954719127e-01,1.876077870137795867e-01
2.367038082474695784e+03,2.005085919937157087e+03,2.971543214003334015e+03,-4.479589611451949005e-01,-8.516193242906482386e-01,2.721714452775263471e-01
1.390062719484629042e+03,1.369558912968747791e+03,5.813090885716065941e+02,-3.400859513984744731e-01,3.149933974497890476e-01,8.860703726140681802e-01
4.965208497153668077e+02,4.679805349457639636e+02,2.621095535358484085e+03,-2.755867749889105989e-01,1.996599428722973801e-01,-9.403126270892263605e-01
1.865843851570900597e+03,1.145931247038637594e+03,1.314034512507403178e+03,8.322049579916146467e-01,-3.368569313495131667e-01,-4.404115299307731490e-01
8.091084502195002415e+02,2.941317827047333594e+03,2.834906331484259226e+03,9.220426352042757623e-01,3.858258477357329741e-01,3.123770293343985927e-02
8.457477957806740960e+02,2.717947686231084845e+03,2.104910385600191603e+03,7.212074984617976581e-01,-3.567813835531772892e-01,-5.937733477618855060e-01
1.506718430446557250e+03,2.441249454191804034e+03,2.782426097852564908e+03,7.942005663592354159e-01,3.177734517270150993e-01,-5.179435237283774862e-01
2.193474836314030085e+02,2.251933190742789975e+03,1.326619448919417437e+03,-6.877027144425530425e-01,6.022368612548601591e-02,7.234902101464837365e-01
1.540570222004431116e+03,2.328014674852347525e+03,1.613484788725684666e+03,-6.332929782941228991e-01,-3.116980596210649490e-01,7.083673646292738546e-01
5.175056782669156519e+02,2.852348209559337192e+03,2.850215573074281565e+03,7.712533434337661697e-01,6.255243220225966683e-01,-1.178456736601223298e-01
9.765468967258793782e+02,2.036939913399973648e+03,1.486363558869534927e+03,-3.353577994234449577e-01,-7.835250992571005657e-01,-5.230903986884247736e-01
1.205200788306384084e+03,8.426310028413486179e+02,1.186996534056223936e+03,-5.765351108239891165e-01,-2.104314776134214304e-01,-7.895098854457763826e-01
1.592587245000944222e+03,2.159672836717872542e+03,2.820271899177911564e+03,5.768769453993669583e-01,4.873634939112601039e-01,-6.555072956644381055e-01
2.803988682361673909e+03,2.503301155676752387e+03,2.025434312899466477e+03,-7.560927224606119879e-01,-4.540770481428257344e-01,-4.713150001771618247e-01
1.673425881658704384e+02,1.095477703172583233e+03,2.793916215798113171e+03,3.580262148396436972e-01,8.106499207656350237e-01,-4.633183953290296309e-01
2.915707302311478543e+03,2.397678661552193262e+03,4.489682245932443720e+02,-6.328476861375600393e-01,1.821164766208968611e-01,-7.525539150742135419e-01
1.109581778183640154e+03,2.779616966680857331e+03,3.123995612134874591e+02,-4.168121955068758711e-01,8.344897689987366141e-01,-3.604086834597259870e-01
2.742437756206960785e+03,9.062789930216629273e+02,2.434130572914158165e+03,-1.782494201678919490e-02,-9.907964857814504089e-01,-1.341812028759110653e-01
1.844012128519682108e+02,2.619420969900536875e+03,2.638299249979068463e+03,9.079326625432188047e-01,4.162008486264329177e-01,4.934707579805209382e-02
