x,y,z,nx,ny,nz
1.967762625993362491e+01,3.414455688093347874e+01,2.535385947863461098e+01,4.329734681087087922e-01,9.483022902455878755e-02,8.964045981447587019e-01
2.763327139117341957e+01,6.961625055374764770e+01,1.238416741642266850e+01,-1.183535505419369216e-03,2.737284210206456514e-01,9.618062958658835093e-01
3.986873941808664057e+01,1.235117634065603482e+02,1.201517164734180199e+01,8.745352632996883282e-04,-9.945232274472143308e-02,9.950419441846424240e-01
2.034222646039912519e+01,1.802440777612677323e+02,1.991861788454073690e+01,-6.910685752758080440e-03,-3.452535062686647171e-02,9.993799290482665576e-01
6.310286275406499357e+01,2.919403651060892102e+01,1.314923377431834695e+01,-4.115151417910823395e-01,1.625842234543936060e-01,8.967840645096214480e-01
7.676151024914969412e+01,9.638699698342206545e+01,3.941370894709921302e-01,2.502939788589442771e-01,-1.430854681259901007e-01,9.575382357671806677e-01
5.471152253291604239e+01,1.245026384917046585e+02,1.789479875206762927e+01,2.391837233947526620e-01,3.905309805335716589e-01,8.889750838490972917e-01
7.275113873553449650e+01,1.835526776447703412e+02,4.708861899768062464e+00,-1.190061185824240614e-02,-2.097442081673750458e-01,9.776838663779005012e-01
1.268854821162388191e+02,2.109657216502258237e+01,2.056246671287994232e+01,-2.105773316951889129e-01,-1.255903899374343213e-01,9.694762716691408544e-01
1.170686498285297859e+02,8.768718037825826173e+01,2.469519835388345541e+01,1.754336585923186864e-01,1.547313663608754497e-01,9.722557460334241286e-01
1.120655640010982950e+02,1.164790910915418181e+02,1.471616513764137579e+01,-2.221131565382721829e-01,2.202776634920560750e-01,9.498123481283476943e-01
1.245728912105458051e+02,1.780355912955350561e+02,1.922155524411240890e+02,4.050173875549412106e-01,3.088885335522275066e-01,8.605514450723588116e-01
1.667172753129300418e+02,2.142019526039417343e+01,1.363860874357805564e+01,-6.722126295638883309e-02,-2.637729845505737414e-01,9.622396346159468594e-01
1.787506241692995843e+02,8.273448874689850641e+01,2.668342989568450729e-01,-2.041705549485766658e-01,-5.594895738937316620e-02,9.773352028127464397e-01
1.764524273634409042e+02,1.271773672379322306e+02,1.969552505306188266e+02,1.631739927247620736e-01,-1.172665789423651822e-01,9.796033878868596334e-01
1.646784402114101340e+02,1.672237383944603835e+02,5.243037529879105207e+00,9.225509539074340515e-03,2.933085432217606425e-01,9.559733199440626494e-01
2.443875007947695366e+01,1.080428672989943095e+01,2.172468704525030248e+01,3.379162458623789778e-02,-8.983448501127465347e-02,9.953832886926432533e-01
3.318305745674932439e+01,6.334841336169237991e+01,2.707510666570573221e+01,2.198499853761429756e-01,-1.321880137233047148e-01,9.665362450296404173e-01
2.702897279874684955e+01,1.328884727519742341e+02,3.594300083922192357e+01,4.290988751099635290e-01,-5.511515512251605881e-02,9.015744423247505912e-01
3.335934968123184774e+01,1.735969361147051870e+02,2.290072364122592319e+01,-4.528016836622276303e-02,5.083504019447034061e-02,9.976800614621669228e-01
8.496194059884146554e+01,2.566242820638465361e+01,3.820733028023482802e+01,-2.168431550952434061e-01,-1.906412312701087908e-01,9.574105530158716348e-01
7.760966494539793814e+01,8.451633903319127228e+01,2.392197855084479841e+01,-1.889961379137176933e-02,-5.932595518731706430e-02,9.980597355056708420e-01
7.606800199965287845e+01,1.091544514991617518e+02,1.353910909726338829e+01,-1.209626561310813836e-01,-2.889748497388144877e-01,9.496639258380532578e-01
6.571549191688644953e+01,1.722669845442544272e+02,3.099335704253167378e+01,-1.792865399293658291e-01,1.464212344250384601e-01,9.728397394779901841e-01
1.155014095352388779e+02,2.881559453054210351e+01,3.077229862618938583e+01,-1.877972230947459187e-01,2.364593883190838908e-01,9.533200725211166127e-01
1.303470547943843201e+02,6.615774923422816300e+01,3.662262403590749926e+01,-1.245596205353993180e-01,2.387620641103533614e-01,9.630563730498028496e-01
1.258629299567368207e+02,1.380458603120450221e+02,2.235085318346208894e+01,4.608128930096663106e-02,-3.032059554723288697e-01,9.518102034231785691e-01
1.159267516587184730e+02,1.800016499608107665e+02,1.717166699369959204e+01,-1.414063664281455523e-01,-1.464854278885556749e-01,9.790537569244579519e-01
1.787926983511141827e+02,2.154085618319336248e+01,2.791790014774526441e+01,-8.690047739633205426e-02,-2.467433454262711046e-01,9.651766825375246439e-01
1.815320771243222850e+02,6.309573166148939549e+01,2.748626691210755268e+01,-4.495463077927281531e-02,-1.723354967163023554e-01,9.840119703240630677e-01
1.762479708892104213e+02,1.188369009094921012e+02,2.430863139871420131e+01,-2.613374463448014939e-01,-1.291002510754951926e-01,9.565750698759726278e-01
1.873101518215076453e+02,1.725058440257632810e+02,1.916557122208726938e+01,6.582452773078552311e-02,-1.466175129926947963e-02,9.977234910514323207e-01
4.221773632853346214e+01,2.595349774884943628e+01,4.361055084855280484e+01,-1.517476126586103369e-01,-2.077880601509932423e-01,9.663316118750848727e-01
2.969336274958322619e+01,6.595189112226113082e+01,5.720572292147802784e+01,-8.226011318419271245e-02,7.788810616104475948e-02,9.935626385364788593e-01
2.411073074985863229e+01,1.228533588953780935e+02,4.564816894920146240e+01,2.051287170627987544e-01,4.607878531490681301e-02,9.776497097519505353e-01
3.360893688929915868e+01,1.830318594210005756e+02,4.213930652091963225e+01,-1.634367056408085883e-01,-2.763549284078216095e-01,9.470567019941242837e-01
7.618908313085675843e+01,1.848539019177977849e+01,4.933021506637906128e+01,-9.293635044507196630e-02,2.247522787113470644e-01,9.699738388111339704e-01
8.908164214625003297e+01,7.665761415639134668e+01,4.840339365233444369e+01,-4.140604497941209883e-01,-5.246042896008040746e-02,9.087364014430228121e-01
5.801410202599105048e+01,1.254170853935333554e+02,4.238493210898418084e+01,-2.467420008729088749e-03,2.097386272373108207e-01,9.777543761503239006e-01
7.839516313913986778e+01,1.773146852359237471e+02,4.557669711758272513e+01,4.483807963993106660e-01,6.761528408019611136e-02,8.912815687408073284e-01
1.285057544968179855e+02,2.716151953331868540e+01,3.954602995681739941e+01,1.042289473313234432e-01,3.231650520073495181e-02,9.940281535388295620e-01
1.342873481333931807e+02,5.687022336412873358e+01,4.458604029652180856e+01,8.393647630394342196e-02,4.143566747310858389e-01,9.062357386737044385e-01
1.245860107671211807e+02,1.238696875044834229e+02,4.432373124224656635e+01,2.102005236622826179e-01,7.335176560625177034e-02,9.749026917249473678e-01
1.168045328151623039e+02,1.773870358473054694e+02,5.318758340071412505e+01,-1.888058236950889424e-01,-3.117959303372817154e-02,9.815193293639561389e-01
1.760820263981816538e+02,1.903954888918717003e+01,5.553531485220885600e+01,-2.637177585621104936e-01,-1.942977589034079744e-01,9.448287277078791790e-01
1.665085341918421875e+02,8.171539144140002975e+01,2.500499053455245857e+01,1.948581709540174803e-02,-2.604608238327001946e-01,9.652877613326068529e-01
1.820168452106228187e+02,1.220958915072320963e+02,4.798844359402777826e+01,-3.821362401051596747e-01,1.409070320502231466e-01,9.133001162351228608e-01
1.792795800989985935e+02,1.783622697823364263e+02,4.510525536871455188e+01,1.953358464415269335e-01,7.248470647068629494e-03,9.807096240815886823e-01
1.393245794085376055e+01,4.713933725453704682e+01,4.270171860468216352e+01,1.674475835600388873e-01,-7.243216948088854190e-01,6.688193995295648175e-01
2.972474804340074783e+01,8.010203582516570009e+01,5.870471725125032236e+01,-9.024141953864182886e-02,3.459426857479291906e-02,9.953189050648169056e-01
7.506559945179909654e+00,1.114503196522028361e+02,6.941913044569535884e+01,-1.420294756353267795e-01,-1.718839979837541998e-01,9.748248659558674811e-01
1.702978758638049683e+01,1.742264755548364406e+02,5.601875147737882088e+01,2.321927972198657153e-01,-2.174901400776551030e-01,9.480424800008786512e-01
8.396272755169060531e+01,2.896336677925445002e+01,5.668675243885249415e+01,2.384303908050527110e-01,-3.585193088694453301e-01,9.025601663636199090e-01
6.861143972315403516e+01,7.096288922049490111e+01,5.844791374935913808e+01,2.021901189980821606e-02,3.780257089396354409e-01,9.255742838565046426e-01
6.274773971656852467e+01,1.292840378050505876e+02,6.378513744637552207e+01,2.183063220926837952e-02,-1.987819880599254584e-03,9.997597071634093391e-01
7.722025284124204347e+01,1.832595064959110971e+02,6.095310061791023060e+01,1.529476545904388252e-01,9.499745970453428098e-03,9.881886306671315845e-01
1.394794710512099698e+02,2.721946004855203327e+01,5.960575810843644717e+01,-3.160834403572637674e-01,-4.639944516704503918e-01,8.275266808683295894e-01
1.300598605876167824e+02,8.512926916588843085e+01,6.514784093589605618e+01,9.225237598145798190e-02,1.226655460991551636e-02,9.956600980062311201e-01
1.312921370244350214e+02,1.225616762601568155e+02,6.191256517368851320e+01,-1.648660615287324965e-02,-5.675123840732391317e-02,9.982522170046983501e-01
1.391520648260023449e+02,1.811061320097315104e+02,7.147110174589917619e+01,-2.288974502356281304e-01,-2.888128806954625150e-01,9.296198562950431787e-01
1.592237282552887621e+02,3.060793279773227482e+01,6.099499053650098546e+01,1.450659413075530528e-02,9.416159095335491225e-02,9.954512311077116093e-01
1.768189039379140013e+02,7.304384636573546175e+01,4.976147928987717250e+01,4.885711809776469711e-02,1.017691130122033993e-01,9.936075833274877755e-01
1.717116691537927409e+02,1.171638464457651168e+02,5.508444419500173694e+01,-2.516558529952629963e-01,-2.105247706634016600e-02,9.675877866429474228e-01
1.822640494308749339e+02,1.747063467806955259e+02,5.897698863507522304e+01,-2.359492205422951405e-01,3.471847024029016682e-01,9.076291906615233662e-01
2.488482058509438133e+01,3.332255094434218279e+01,7.379071873011623950e+01,-1.891982535692747491e-01,3.583189678002156597e-01,9.142272902068306895e-01
2.462066690983714068e+01,8.265180283738254730e+01,7.741330826946804677e+01,5.061898523119563731e-02,2.064223781002857278e-02,9.985046901994794055e-01
2.605730049668775195e+01,1.268902345273889125e+02,6.879239956597595551e+01,1.251935786204688705e-01,-1.156447816166173703e-01,9.853693989337427572e-01
1.194104867734707653e+01,1.800273916810965602e+02,7.522573532874116609e+01,-3.416179942026206229e-01,-3.653371959302589150e-02,9.391285499694258521e-01
7.346240922695156428e+01,2.253516463376250556e+01,8.130207504925054707e+01,-9.856625895564806450e-02,-2.065919249319889128e-01,9.734497774134953652e-01
7.124641347111875689e+01,7.469032099852536533e+01,8.349890684181409028e+01,5.672240826578618320e-03,4.648872556654035787e-02,9.989027100159474370e-01
8.198606777632595310e+01,1.172539878397237771e+02,5.630261603937587722e+01,-3.779237760702084947e-01,2.786915357183566422e-01,8.828956039067014094e-01
7.849939399975586696e+01,1.619938415530872646e+02,6.667347117124029410e+01,-1.131383294044392279e-01,-1.324653599486164679e-01,9.847094225360373265e-01
1.197220858132295263e+02,1.344436153961300207e+01,7.767242930908007281e+01,-1.122132209303638162e-01,1.500746817807594169e-01,9.822859985436203090e-01
1.153819747198100458e+02,7.045976560814368383e+01,6.534043040995821627e+01,-6.485080078352635502e-02,-3.081029858676071487e-01,9.491400970010700489e-01
1.261156164875830825e+02,1.202284159785382514e+02,7.678017496762292637e+01,-2.234409589977585653e-01,1.219898526743781880e-01,9.670535733270653189e-01
1.237919307095058912e+02,1.797319456006942460e+02,7.590967649017622421e+01,-1.586404120486924474e-01,-1.878161586733885155e-02,9.871577738985967132e-01
1.705912132004965258e+02,2.262011956030038817e+01,7.142499080636238773e+01,2.094954506815238093e-01,-1.072254240653135043e-01,9.719127350620316852e-01
1.729052350513141221e+02,6.973444540984307594e+01,6.702070115912214021e+01,2.874667292488881920e-02,1.004148382330879129e-02,9.995362911852553323e-01
1.971085546006535765e+02,1.322592478653683372e+02,7.259163720461863534e+01,1.710369039030377458e-01,2.559402673930888938e-01,9.514415152956157140e-01
1.801033638821772058e+02,1.847603808207645102e+02,8.601129834459790402e+01,7.517620115651049706e-02,1.578119743826754059e-02,9.970453814070302512e-01
3.776492453225532131e+01,3.025851183946156198e+01,7.577474587737754064e+01,-2.062731231368942764e-01,2.004030839520336282e-02,9.782892132231536531e-01
2.466932216614439355e+01,6.490208554669841590e+01,9.512542196376162451e+01,-2.676310187828958020e-01,6.500891076751534603e-02,9.613258965117138510e-01
2.894219613585451256e+01,1.364320620411262723e+02,7.986464848422272667e+01,-9.043290979644121041e-02,1.628796840698880149e-03,9.959012179150101840e-01
2.909008328656007691e+01,1.652156122892484973e+02,8.665751485433933965e+01,-8.336538691074751872e-02,4.907248622950276988e-04,9.965189267908216575e-01
8.729704383116248323e+01,2.935791710894099538e+01,9.439997467094231354e+01,-3.832430449940416595e-01,-1.520323232030518223e-01,9.110493626380393728e-01
9.493499013735522851e+01,6.235416343949773932e+01,1.042239639408787895e+02,-1.338048607646172006e-01,-2.975162011969674780e-01,9.452938004975420805e-01
8.511400064682285915e+01,1.260154970509936732e+02,7.961037657112423460e+01,-2.876149010345941948e-01,-3.321562695015023992e-01,8.983038914152079446e-01
8.467460376565354352e+01,1.739669589171911070e+02,9.290549571282106456e+01,8.458777593863842093e-02,6.019963960584385348e-02,9.945958533751693142e-01
1.264713734713112814e+02,3.236950978225186049e+01,9.129397858664181342e+01,-1.676195870925714371e-01,1.640147787029873072e-01,9.721125584971763711e-01
1.390145124267004348e+02,8.150585702633792096e+01,8.732798838627860505e+01,6.844641441912580060e-01,3.602501661297998203e-01,6.338206789920793893e-01
1.389606012582491132e+02,1.231281992149693991e+02,8.177378338225825871e+01,1.652669182417610405e-01,1.068428791714704368e-01,9.804445139339715842e-01
1.344463787912822852e+02,1.767522135125302327e+02,8.979186762479969275e+01,2.142926459833237318e-01,-1.318760134003115203e-01,9.678261098798207618e-01
1.698618769820734826e+02,5.167905773712452522e+00,9.929333646677409320e+01,-8.126780509689780774e-02,-1.598712456122790282e-01,9.837869325616757088e-01
1.732294271023245642e+02,7.777998083664529361e+01,8.410358463698614173e+01,-4.065276022352487528e-01,-4.331213212040249672e-01,8.044508870884159446e-01
1.802031494275743739e+02,1.227103281836627104e+02,8.740666906365991906e+01,1.678850818637302733e-01,1.033823187212188910e-01,9.803706928817449429e-01
1.778352280503084160e+02,1.719993765349526029e+02,8.590667040569938706e+01,-1.024321881157257003e-01,-2.265925876657536309e-01,9.685883780279228583e-01
2.505847098349616431e+01,2.557454191910428420e+01,8.800113218923344505e+01,4.186267586019880582e-01,-1.200273733064747828e-01,9.001916832750350705e-01
1.348537486802756291e+01,7.246546802038076862e+01,1.032224729173994575e+02,1.301028308962499658e-01,-2.127037237920788582e-01,9.684164286482158657e-01
1.629267995329104934e+01,1.222973840910207457e+02,9.983045719809229013e+01,8.451288074101485914e-02,6.730646512087459787e-02,9.941465750782364497e-01
2.534464457163104356e+01,1.902516919260817758e+02,1.008085021691974532e+02,1.931355180853891740e-01,3.520974987863236816e-01,9.158198638380274925e-01
8.621157211167141554e+01,1.949559364312909082e+01,1.139308317233748511e+02,2.105660743023438433e-02,-2.212011484744097478e-01,9.750008570227676197e-01
7.908970047554163330e+01,5.546193743549378041e+01,1.002987298763152637e+02,-9.095772645278113466e-02,1.056610289017379106e-01,9.902335274913525165e-01
8.074143879522954137e+01,1.429849021970976253e+02,1.148502106817115447e+02,6.697542815364398994e-02,1.077041398388961929e-01,9.919244478705017132e-01
6.715492987596257990e+01,1.905399120536969519e+02,1.061207226202372595e+02,-1.484904144261305903e-01,2.282456535415319787e-02,9.886504114387199005e-01
1.162733094741569175e+02,1.805909018074631334e+01,1.012461273905564667e+02,-2.552679877227648220e-01,-1.371245672323473941e-01,9.570972299110012127e-01
1.208435357388363798e+02,6.934391912723191354e+01,9.807432662702203174e+01,1.836339849944281788e-01,2.833901153261143002e-01,9.412590515307238670e-01
1.204090550305536169e+02,1.253301264416639071e+02,8.839785142724761613e+01,-8.076320195164754523e-02,4.544598076719222335e-01,8.870984096588814261e-01
1.215823567110406032e+02,1.794554605085154719e+02,9.970618371871195507e+01,-1.677597734063233370e-01,-1.126478642578414291e-01,9.793707761122986133e-01
1.810390339573347944e+02,2.939186454109158930e+01,8.481583450106202804e+01,-8.085469071635767446e-02,-1.159834018929909866e-01,9.899547310218236307e-01
1.691872059465155758e+02,7.490477235940683443e+01,9.744242021918988428e+01,-1.719043982019941019e-01,-2.279613417844099654e-01,9.583749289962993911e-01
1.641477240812722300e+02,1.417770246509553260e+02,8.909101242452983627e+01,3.076838597558241295e-01,-4.533202617109960419e-01,8.365592523940145187e-01
1.846099132576282784e+02,1.757013202496069368e+02,9.736008018036196177e+01,1.594994801692061759e-01,3.331064903101096930e-01,9.293008027205367227e-01
1.353843297918698241e+01,2.610703509945745182e+01,1.125699251078321055e+02,-2.638260002463080900e-01,5.271627722221507162e-02,9.631286703799579740e-01
3.227106658514095727e+01,6.535830620245440059e+01,1.201865772879743162e+02,-1.209255584281592735e-03,-1.174266332518831280e-01,9.930808242545315911e-01
1.953732578791924368e+01,1.294491746578090670e+02,1.186130076941624480e+02,-1.454638996754963609e-01,8.210091610451948629e-02,9.859511618046786774e-01
3.074944886241711117e+01,1.744079921519241623e+02,1.083805172097249852e+02,-7.692097938214541297e-02,2.534865064525224435e-02,9.967149085066183689e-01
7.257837902880474701e+01,2.579063675209484074e+01,1.151477865221127388e+02,1.903271740046238482e-03,1.195721804794837861e-01,9.928236858627343953e-01
6.674789873337486767e+01,7.847113337720948323e+01,1.030825672359214167e+02,-4.029144959730600051e-01,-6.142003172718850379e-02,9.131744020916301441e-01
7.045627677476495876e+01,1.269581562431231418e+02,1.008565642509749836e+02,-2.077742266348020506e-02,-1.964872976961376250e-01,9.802862033863032343e-01
6.690421610726171764e+01,1.578514133950956477e+02,1.221172248207948741e+02,1.347806233963295686e-01,1.434856542473132435e-01,9.804315634352644970e-01
1.255973074111720820e+02,2.598626264350531301e+01,1.052652101490926668e+02,-1.492139232504552659e-01,3.122165470884325639e-02,9.883119008609828615e-01
1.130590928244869957e+02,6.787639279525804170e+01,1.109920927797359980e+02,6.581218794932068572e-02,1.890731942431602697e-01,9.797551138595866904e-01
1.300630381705910850e+02,1.419788951296356743e+02,1.167235148584670981e+02,1.484700361790235734e-01,-5.636883554566989724e-02,9.873090715344535750e-01
1.178952729202064660e+02,1.583263478358129248e+02,1.124794829467995498e+02,4.262752560776299493e-01,3.730469452964661481e-01,8.240906398321282689e-01
1.704228006557450215e+02,2.113531666423939015e+01,1.207382862052297838e+02,-1.804740172035354251e-01,-5.703144091487291067e-01,8.013554790664092486e-01
1.548928014755653351e+02,6.218436718795874896e+01,1.060626743204370115e+02,1.434132283958682585e-01,3.957672626413066275e-01,9.070837446126358561e-01
1.711030255889126011e+02,1.235485794922978044e+02,1.220991814568054821e+02,6.154812367786376137e-02,3.974210050930903071e-01,9.155699717555902950e-01
1.767178040063435276e+02,1.740699605804693704e+02,1.070616317834069093e+02,-2.790804753875745225e-01,-1.185702589545570979e-01,9.529192945611368870e-01
3.851675182766310002e+01,2.872676514119352120e+01,1.274131928348384122e+02,-9.935371618930671778e-02,4.692541070916362439e-02,9.939450914950740401e-01
3.060796902952947374e+00,7.311626697649782614e+01,1.331947947564858623e+02,-3.555842720693549452e-01,3.415145218224134860e-01,8.700158945900444696e-01
2.966656565267166812e+01,1.188440608986684026e+02,1.307923184400622176e+02,-6.370835499395950674e-02,-2.165474689699099231e-01,9.741911717854405683e-01
2.249487625184224271e+01,1.695561054227481748e+02,1.259833333393434032e+02,3.385298550311378052e-01,1.746875634997503701e-01,9.245981788913050226e-01
8.125853902313291144e+01,4.340591188336961181e+01,1.263097957857418976e+02,2.200255175514977957e-01,1.197221308579453636e-01,9.681195086387983650e-01
7.638722145615433590e+01,8.874096647813111360e+01,1.076532278286182702e+02,2.156716338005848499e-01,7.630282929325686581e-02,9.734801613867795078e-01
8.495931937582253113e+01,1.274790651292346837e+02,1.316513475281119270e+02,-3.384775783975293995e-01,5.629053555837765536e-04,9.409742887336003392e-01
7.458121787746101461e+01,1.806646026239342575e+02,1.295255599196996741e+02,1.126619790672816340e-01,2.879570654208503111e-01,9.509931687161877756e-01
1.407252886957980991e+02,1.292552344122651853e+01,1.192085883249995391e+02,-2.894095829346490789e-01,-4.613098020624434858e-01,8.387105339893506928e-01
1.232552294324039792e+02,6.722383222018490301e+01,1.292104071539135077e+02,6.644845326277960817e-02,1.736060213320285428e-01,9.825708892564685160e-01
1.142368747933457627e+02,1.235168484424875430e+02,1.195897405281582451e+02,1.590195523111711529e-01,-5.040276178711745603e-01,8.489222240016244259e-01
1.202634777997268571e+02,1.705599539310658201e+02,1.266742732650927934e+02,3.357046549143812286e-01,2.105279854401161388e-01,9.181396146629020594e-01
1.864374251721766313e+02,3.320693136923312494e+01,1.244160560153690369e+02,-8.609983905188871647e-03,-1.702288999797329505e-01,9.853669315472498580e-01
1.696919922407553258e+02,6.715339699347089208e+01,1.297242097276401864e+02,1.991704389591241187e-01,2.368581453639052870e-01,9.509097513526721945e-01
1.784738323471613342e+02,1.422791035846178715e+02,1.293551545225667496e+02,1.119141969303611289e-01,-4.231713015575598591e-02,9.928164347042273130e-01
1.959640498630537024e+02,1.866084245887008422e+02,1.375784849295675372e+02,-3.111420711009755258e-01,1.266091938221123592e-01,9.418920976570035464e-01
7.442598544021725715e+00,1.088480563204190155e+01,1.397965549542481654e+02,4.082907729854721168e-01,-1.798677257963127718e-01,8.949560022201025200e-01
2.674896811650893014e+01,7.009978417881249868e+01,1.416496609032676872e+02,-2.369945795565482904e-01,2.198419597981092488e-02,9.712622016664379521e-01
2.370874129755372195e+01,1.362350802665591516e+02,1.390541947618463610e+02,-1.551983642350895087e-01,2.208115832698889225e-01,9.628892524224151872e-01
2.609915274712752975e+01,1.567405742845513146e+02,1.453814518864150216e+02,-9.433665121612706816e-02,5.426544901952856746e-04,9.955402059994519215e-01
8.588405722768928285e+01,1.904148189260320834e+01,1.407461589151949681e+02,2.519067689363192475e-01,1.218500901143882154e-01,9.600497566799230942e-01
8.753506548406465981e+01,7.836832527845486140e+01,1.488417884087189691e+02,-2.771746516736348642e-01,-4.406179707663878536e-02,9.598087155813790350e-01
8.729536108540646921e+01,1.303010753267129758e+02,1.509094426534253159e+02,4.756614017991856423e-03,-1.543912556818562987e-01,9.879983374429653908e-01
7.149337562537617430e+01,1.660737990497117664e+02,1.463897485315332858e+02,-8.823754028982232211e-02,4.908999827650225439e-02,9.948890935932582780e-01
1.167602261187191743e+02,1.711738503204301054e+01,1.571371434341079976e+02,4.562324707753016850e-02,-2.139287652292897468e-01,9.757832765176774892e-01
1.221327148368546887e+02,7.251585428221552831e+01,1.427241568936539693e+02,1.655483127528317167e-01,-1.046340605346696567e-01,9.806352377508763540e-01
1.221696400745348114e+02,1.240355116165843583e+02,1.558706477521403997e+02,2.131985332256148002e-01,2.825977093983793043e-01,9.352459142232248945e-01
1.059862062912405918e+02,1.553675234214908585e+02,1.360725139102626713e+02,-1.137028003396767933e-01,1.269219368508261656e-02,9.934337327735434098e-01
1.708828827709346569e+02,1.997420582357156036e+02,1.305527097903985805e+02,-1.666289703617744866e-01,3.638499380332185229e-01,9.164322172574456138e-01
1.844265604278551223e+02,6.792152886221083463e+01,1.406026595119744229e+02,-5.137728664459719763e-01,-2.191780721848747837e-01,8.294566983123419224e-01
1.767514172145478142e+02,1.128413367540653525e+02,1.415130115393905896e+02,2.617281169887384351e-01,4.269304144731753681e-01,8.655800448100060551e-01
1.741450414937690994e+02,1.768282663443111744e+02,1.365284543745066514e+02,2.082167975009572292e-01,7.487032124879161588e-02,9.752128999518763219e-01
3.932164777271009370e+01,2.554146060072548252e+01,1.626175974563751652e+02,-2.914220847662847835e-01,2.287813509514996790e-01,9.288338182717504887e-01
3.171550794890814373e+01,8.160751313278660746e+01,1.626290246257884746e+02,2.098927326849266417e-01,-4.572608141694026879e-02,9.766545787750678942e-01
3.326446009191749198e+01,1.070325661159816804e+02,1.527261026034202018e+02,1.743954487803259512e-01,-1.542696084704013870e-01,9.725158689425574821e-01
2.928471003310381349e+01,1.767923179156895230e+02,1.502470565310494521e+02,-1.065582998842978107e-01,3.193519432462976759e-01,9.416260749727469737e-01
7.193401967056706781e+01,2.448065348789467421e+01,1.648569068909410475e+02,2.251960001070552608e-01,-5.089963734256906097e-02,9.729830360557054636e-01
7.060135806815141279e+01,6.673498608987530645e+01,1.503060777413188873e+02,-3.754058749304546860e-01,1.996988248095049323e-01,9.050916022344934753e-01
7.026601647495283487e+01,1.198430790343351333e+02,1.566853590317963381e+02,2.325632077684027244e-01,-1.915713509866720232e-01,9.535275412234364145e-01
6.557040914774292162e+01,1.790748335489638521e+02,1.580453222259004633e+02,-1.080001056887318900e-01,8.337185867487859059e-02,9.906488330131514308e-01
1.427280990826089351e+02,2.473962315483677799e+01,1.520027839653016315e+02,6.072378646769770461e-01,3.092669167839004474e-01,7.318580121058492205e-01
1.240042245233800600e+02,7.434409145736947266e+01,1.623067950502058920e+02,2.692576570676190328e-02,-3.001353027651841587e-02,9.991867648940537805e-01
1.347408514156075228e+02,1.441874639799151510e+02,1.781922980623270121e+02,-5.036072065760742733e-01,2.754285224783668551e-01,8.188521908672083960e-01
1.228141543385082315e+02,1.765101021564423718e+02,1.703697159987565044e+02,-3.339819134266792111e-01,1.698526069644895331e-01,9.271494881674804400e-01
1.661898782798003253e+02,3.511693753923324834e+01,1.451126782392759083e+02,3.175879786252058801e-01,8.162414011374542755e-02,9.447091486703447227e-01
1.689144357171724664e+02,6.841257580121362025e+01,1.617398048015892869e+02,-7.225438938255467347e-01,4.979336340022839230e-02,6.895295080376980801e-01
1.984068046180544798e+02,1.279895148842031745e+02,1.691680839527115836e+02,7.586734552654637032e-01,3.485094191784408602e-01,5.504141831543483132e-01
1.748605853562720256e+02,1.727327544698231350e+02,1.585923152610122031e+02,4.628847893501759625e-01,6.314834862812557237e-02,8.841662501202950386e-01
1.255201016172069117e+01,2.233095749850934908e+01,1.817997916592352681e+02,-2.319061787380596318e-01,2.342060148366692796e-01,9.441223791836719226e-01
2.300755859359999178e+01,7.918372090525760143e+01,1.787184083871761118e+02,1.322917515232915342e-01,-6.071673017080646273e-02,9.893494686683089734e-01
3.173685157641262222e+01,1.313882784086312938e+02,1.771289207845067892e+02,-4.374818571312655835e-01,2.775035358532286223e-01,8.553370167763902909e-01
3.297105765984152015e+01,1.829873441865637744e+02,1.715285561007309241e+02,3.998190789704069714e-01,-8.186669707835006471e-02,9.129307465513127884e-01
8.465449029293630190e+01,3.886832254912865636e+01,1.809727049277001072e+02,1.712299793502251562e-03,3.241335049156694459e-01,9.460097985848247015e-01
7.676852285207152704e+01,7.334100511210259299e+01,1.722258317651115931e+02,1.173941539974423381e-01,-4.938757487122435313e-02,9.918565824016918331e-01
8.168565587071350365e+01,1.367556784207003204e+02,1.735346534912259244e+02,-9.911785879667140559e-03,-1.293409140113626343e-01,9.915506464429241218e-01
5.812710049815807167e+01,1.793203838135786725e+02,1.720066700004441600e+02,-4.176940918706808503e-01,3.697669424975528751e-01,8.299421991020452527e-01
1.264029158692307959e+02,3.591720900275878137e+01,1.737901235453289530e+02,3.771212514222542223e-01,-3.780469936477691140e-01,8.454939575878687164e-01
1.171216722191090867e+02,7.079865887382669598e+01,1.745834849043981762e+02,-1.523812230790414779e-01,1.263632932766650951e-01,9.802103248605429364e-01
1.175315205468590563e+02,1.163363982725695820e+02,1.669725866296813592e+02,2.392946811985768168e-02,-1.310047844722556087e-02,9.996278097461848144e-01
1.137265977666776422e+02,1.948618678735265917e+02,1.618362833757653334e+02,-3.208314094686290918e-01,-2.768949173604032810e-01,9.057573689660760596e-01
1.819956793157530512e+02,2.344542150244076595e+01,1.654918563641836329e+02,-3.787100531000697212e-01,-3.463250306114733224e-02,9.248671717661199887e-01
1.748573003376502868e+02,7.954252883195648849e+01,1.772026870223497781e+02,-1.985408742996277176e-01,3.023452686864262495e-01,9.322922608995916072e-01
1.750902304096236719e+02,1.166537897297029787e+02,1.700171168009422900e+02,1.077100633138559221e-01,-2.025225855386796614e-01,9.733360902615567634e-01
1.812122802461350091e+02,1.673132943708699543e+02,1.841017519647311929e+02,-7.303100603551491987e-02,-1.838563296827709637e-01,9.802363603697940020e-01
2.937945436982371916e+01,1.644573070674868376e+01,1.963715193051010317e+02,-1.671242121027417815e-01,-4.835539929261876146e-01,8.592118677323878906e-01
1.929028643651066588e+01,8.579465179210764347e+01,1.917833474190102834e+02,-2.479182851421721789e-01,-1.612549306785186765e-01,9.552661258633800001e-01
2.146606468716573346e+01,1.457591732398907993e+02,1.998781483813261559e+02,2.713970497115926750e-01,5.292737375392662230e-02,9.610111000989299823e-01
2.913139153250837055e+01,1.755415757345930388e+02,1.914224105494911896e+02,1.093880647692374586e-01,-1.023528531848301171e-01,9.887154012803511804e-01
7.251504553699257372e+01,2.115419743000887465e+01,1.859965775196581035e+02,7.252359833712748727e-02,-4.486916784564107807e-01,8.907390781627377851e-01
8.633162850343083505e+01,6.783880144034361592e+01,1.921083231186119917e+02,5.255715655990732538e-01,2.625725694111775699e-01,8.092157779137475471e-01
7.069022039022647164e+01,1.192379401368631733e+02,1.824787734705998332e+02,1.079134221640715430e-01,3.636623285631025715e-02,9.934949372909150922e-01
7.551908548601140581e+01,1.753697388565006747e+02,1.752870582663369419e+02,-1.164905220644620321e-01,8.152241158732261017e-02,9.898404187929165099e-01
