411.71552611529654,28.162275135371598,596.27232217737,-0.7575201739081978,-0.5580361058467896,-0.338760816349005
409.1065205543306,35.5858943247804,661.9833046159089,0.007859126459863877,-0.16931011790878964,-0.9855314901640635
404.3723801015651,35.420186761465374,715.8103266931565,-0.5186681714175396,-0.1207856624589943,-0.8464007039828876
408.8328609165755,35.02686570001566,782.2182080289829,0.5715634383466659,0.8165725492652215,-0.08077442498609655
402.59911061102923,35.98312959242597,841.3871351009872,0.12031081509141071,-0.9859094430197337,-0.11622339668310788
399.9038710581285,34.212211338500204,906.7058383108944,0.882228214266344,-0.32153793971144407,-0.34392838103090273
410.8824344447908,29.385159789070066,965.1644614151053,0.7695095035767968,0.6176792624533239,0.1622573654417862
410.54957051419905,96.0820045402478,27.131605046741356,0.4290171225183193,-0.853894584469296,-0.2946325630342136
408.2780388612582,92.90796365043467,94.97268363333721,-0.6971972208795799,-0.44072222123260474,-0.5654024751533985
405.78078005847897,97.69450780581607,160.20475258819658,-0.9674743928846945,0.14645689531362838,0.2062611861875253
408.76266586189263,89.01481652875755,222.8162463428488,0.8065445303578567,-0.396908050042034,-0.438120896969837
408.31158541199954,94.60062793390824,279.2807535915119,-0.9817040464328548,-0.04745975371891317,0.18440373367776317
411.829225548049,96.39251081903258,339.29736937759475,-0.10004310884427464,0.9921747767276216,0.07470333860187754
404.59012885443957,99.21165540333877,400.43460243766856,0.0903340546314391,-0.9944890001710507,0.05321078004153293
412.00108874867686,95.66002724162286,470.2741571552726,-0.8219761544319281,0.4098534874660825,0.3954431948550753
403.63883656482096,89.17207095013262,536.9434967539116,0.8268921986265765,-0.5574487451574687,-0.0741632548697134
402.7889099005382,96.36015507351378,592.9940339379784,0.5992306780634,0.4176819941789974,-0.6829819515963316
402.3333678428318,88.80938349934445,654.7002775207118,-0.9726247508562398,0.2301758289259694,-0.03194028490919584
411.67262078279873,90.68747046513649,714.9158558634269,-0.6893216962146788,0.6308962183162025,-0.3560976844098158
403.79653104844135,94.48617579241407,779.2038278173496,-0.6268099253873323,-0.6926062947099579,-0.3569395438503136
412.6688844197012,94.98199280535981,843.7659236884936,0.9023050354577395,0.4184677432387454,-0.10358750337892622
400.52212760509116,99.77212846165803,905.1257856684606,-0.19764381305405404,-0.13843535780356048,0.9704496766299912
402.5512003051572,95.678829794638,969.0304299165259,-0.7295808874583917,0.5151807690506744,-0.4497782829970576
405.2530734200504,155.2061256259855,33.854246454225574,0.7873722680857468,0.3111698451470905,0.5321825240654213
403.12688861046047,160.6639019320532,93.77460118190628,-0.367606929728362,0.862337458154133,-0.34819427548418436
406.7303708207552,155.17820406826993,153.64328327239235,-0.052332291452952526,0.8501681742909141,-0.5239040052281879
410.86238775992166,155.27751037884516,216.92265914436283,0.1319945997091255,0.5188640958269407,0.8446049228540637
407.5398958575394,161.67998678569438,281.6822047665607,-0.08231427499100363,0.8641760606487545,-0.49641121697067425
412.1314491606722,153.93960189566306,338.4571767281218,0.5006046168085799,0.3406684306244812,0.7958266381604653
404.24727443003417,154.54885373592867,402.892977509142,-0.7146456568854521,-0.4317054530935105,0.550374406076525
398.89982447055263,160.24557052448637,472.19771729757997,-0.6697824445321522,-0.6064855942991435,-0.4284468472332938
410.44504757116346,151.6636818556879,526.4499884795877,0.28759492442878376,0.9328268532115463,-0.21707883676269893
400.4687070960896,159.14452140566945,599.9106073841402,-0.7230650296266927,0.368654344774923,0.5841839924283463
405.33308291272175,154.05553445795042,655.236477728659,0.3159181226562608,-0.17198362234391243,-0.9330687935103232
403.4587204719438,154.8380423600521,720.2648952677872,-0.5394634542567088,0.8349577013808323,0.10874198097449199
408.38843185426265,152.41053170099883,775.6581567905791,-0.21874820386904328,0.7156909307635422,-0.6632764996039602
413.0008641636838,152.36696460006274,839.3652320213814,-0.4966774875856604,0.277310096733955,-0.8224418420624043
401.7411618742655,149.8364353563025,904.9407370753563,0.03577557775109807,-0.10830638095214554,-0.9934736211302361
409.7588815520415,153.3850097143344,967.7276409441961,0.13158389523940658,-0.9835195497044914,0.12399586228055902
408.9139176959937,217.96884076043727,34.064137107434696,0.6425090101166967,-0.35274859094877775,-0.6802577478445319
410.47893812491986,212.55158056676072,96.83852675630895,-0.08624526986002023,-0.8336062985297694,0.5455843587184932
406.67406518931955,226.3421227980508,156.41185718128767,0.05246219087428145,0.7890686816880558,0.612060727467254
413.3313627197836,222.71897523934857,215.71981623343163,-0.13260980281153942,0.8985393686747986,-0.41837978337842663
406.14121013190356,224.34329716905143,284.8047744031816,0.13542540490574434,-0.46175319533118064,0.8766093464637255
401.2671097992611,219.9640270845163,341.4172449857959,0.7192949753159027,0.26788705592126083,0.6409768043815114
401.8674035977047,217.7571510861869,403.3169945555755,0.5768900856270498,0.43955451945513624,-0.6884690650506959
410.2597178755678,216.4541373108764,472.09460156828584,0.7421865167604738,0.661327109639131,-0.10865370861276594
398.5182164683335,215.12161627332233,529.0705980409865,-0.3163475559726502,0.8370924753729228,0.4463187330867525
403.0528083328233,213.56823943718555,589.995491244926,-0.15503156467771675,-0.9596296400800226,0.2346831221742742
405.831418528898,216.74029000047562,655.1719019956672,0.46466843616275344,0.864718706969752,0.1906431279921242
405.23682830468414,222.39763165611475,723.2094127694053,-0.23962925222044174,0.9707819958925412,0.012654561674195305
406.6481636171047,218.33726556548498,777.5856308319204,-0.2735599949797843,0.033517926861855465,-0.9612707619217095
411.7224489057751,213.61966311658256,840.6816476365157,-0.26600040624703325,0.9287378770900245,0.25824356629880996
403.04659136282794,216.69574782893815,902.6836329020249,0.8694277064473793,-0.15746270630408782,0.46829580329642334
408.24433565822767,214.4624508038113,972.1869023531506,0.3155273744575067,0.9488472200184831,0.011464250134607364
401.7649792789505,276.10375358989074,37.445983905704836,-0.30995073218545016,0.45199871135962016,0.8364375102462505
401.21983286935017,282.4535789142206,94.57140572736915,-0.1731203914591894,0.6311362376654868,0.7561060637016948
401.42230913729645,287.00451559919935,152.9366043751309,0.7545338050520344,0.06482950401755244,-0.6530512020068081
410.9208196285068,276.9324372900886,223.60376891503958,-0.02529545150014938,0.35252534161114113,0.9354603271413235
399.5634637587892,281.7807468072664,285.4685075452369,0.4475011283201868,-0.537643851245131,0.7146200594514984
411.77547879274323,288.0183770474547,346.7215466810415,0.7305010566181274,0.18290017487997876,-0.6579633214007242
410.03364035368776,277.42264366140176,403.1877163866706,-0.08662924048193307,0.688385350809034,-0.720153444402682
403.2580831101406,279.98925009116937,468.1629319820612,-0.8085279182517974,0.5119215374975556,0.29020500487337136
407.17497252750775,276.2733208068696,535.2652032315683,0.3511771329016361,-0.7093179545098846,0.6111813648475385
403.073882543629,279.4135772321944,591.5813250294545,0.13186978243055378,-0.7113293223823343,0.6903774008473972
409.3440507950134,282.54982478902906,657.8617012447082,0.12696677367332942,-0.918054559566737,-0.37557324723908436
402.45905980581813,282.0425545491076,714.3527915428165,-0.9459531516528069,0.29603847751712176,0.13241546249387295
404.7783581215598,280.2121983634795,775.727737273349,-0.10247072646537514,0.6750165841703162,-0.7306520110919401
404.18799190412716,287.219236287852,849.0789582672139,-0.4914495943493421,-0.8349123826111533,-0.2477874282049725
404.9505194845102,275.015037546451,902.1564098270411,0.019903002107845635,0.8272409656372205,-0.5614946618434535
404.29825189666394,287.8396182587148,965.1304781968587,-0.3635827365758605,0.3179459912524105,0.8756243145953237
409.17761093040605,339.12816734924616,35.09108110499805,-0.038482917895824725,-0.3038172651015333,0.951952800540262
404.7689568597813,346.7222520622417,92.68988570096165,-0.9013573467433181,-0.2616508201232104,-0.3450996693720488
406.66126626732597,338.623344918907,153.02681480378916,-0.678591833805324,-0.48555099487513687,-0.5511382353534297
411.5647729837836,349.399789943384,222.12773470129375,0.02172393079819993,0.023374810535654215,-0.9994907148458645
408.81366703554403,346.91209774528113,276.7558673344316,-0.42143475504585093,-0.21710444059431083,0.8804875973650482
405.0502969680678,342.73820834957473,345.29789472556376,-0.12530255126637893,0.7480551569980006,0.651699894686836
404.76313681497066,338.9978979403229,408.1614559037576,0.41903424608462986,0.7026857855282255,-0.5750156410262826
409.64484189928714,340.99444397432796,463.7457847520766,-0.30075768487920324,0.9463543276955745,-0.11814525567266473
402.6102583677539,340.5997996620326,528.8487711159345,-0.9962729645466532,-0.0718305464382025,0.04775513283210996
408.64225624084844,343.3137931250479,595.3041532111711,-0.7804126344058528,0.6229158278567296,-0.05414786667341537
404.2627431178275,347.92413180355203,652.0353839810164,0.11498046707513844,-0.17338819378849119,-0.9781186157342818
405.0755172803722,349.55012647066957,716.7762535971195,-0.6364923931923069,-0.6414017062462963,0.4283471543417437
400.4592090330457,346.4257429356984,780.4133608789843,-0.14010167271954074,-0.578033808399079,-0.803895787803894
408.469557230654,339.4390360235403,844.7329148253858,0.43653394460228995,0.7150969447666652,0.5459619719315129
404.9823361154859,338.2860039933254,906.9655622541793,0.33882781173131393,0.15503368422641667,-0.9279872147570531
403.47205942609025,342.8388600433215,962.6929936533251,0.049702597015579164,-0.5008122204646809,-0.8641277519459394
401.28454131429424,402.91583002301167,27.704807674237415,0.550111559660158,-0.26483088781399755,0.7919860306772579
411.9902044372344,399.59151655677397,93.82874279474355,0.8044274745580646,0.32473120970138053,0.4974395235825281
401.69672572066094,404.41664291236305,162.33240017242673,-0.28823726347887896,0.9420898030469185,0.1714236942118147
401.8165968822532,411.5538475079062,215.2706107930516,0.13618549147432346,-0.5530893889180336,-0.8219158349722758
409.8059488581201,406.84751644638277,286.1117746326804,0.5560684546102366,0.2516305486733407,-0.792130002437565
407.2040571887043,407.2773042635377,339.0879679863939,-0.5860606065856,-0.538618344049104,0.6053290385090738
400.7352125977473,411.1806553782073,405.413301954301,-0.5401956504724381,-0.4214477541183611,0.7284026700659801
404.71498705955474,409.36788390114066,466.81588178907367,-0.7275739047750909,-0.47136496852757603,-0.4984488735420357
412.3234682380231,409.4577996442899,532.7702821432905,0.5222937882729025,0.79631639000187,0.3051055649212747
411.2290227713819,401.12691606142187,590.6405219490147,0.3284111492962535,-0.3160394776266051,0.8900927848260632
404.46176675980297,402.3625442222182,658.009839682833,0.2215806018986151,0.96647433823896,-0.12972814030815377
411.6703713282507,404.6697577573109,718.142014566673,-0.16691866502018193,0.9756606932969448,0.14221241444826582
411.7948157914066,405.98048144178426,780.4399191029021,0.8684539096912849,0.15807328875475338,-0.46989428824383256
405.87598452954455,411.3599724387504,843.9076663721563,-0.6362207429319783,0.2743608864115333,-0.7210750794962751
406.9737624893137,409.0886695445155,903.5287823500935,-0.6020526856062381,0.647066608960083,-0.4678005636200274
405.684546699377,410.9364872883266,967.2253603209839,0.2694130882717426,0.4435219332772842,-0.8548127763258236
409.77722160142224,474.0419078708932,32.728524476816084,0.784356587731052,-0.6039687221968132,0.14144442686387165
409.2772628880793,474.7314944584316,95.68278449862252,0.34890770206111327,-0.09367058466251658,-0.9324640674103297
404.9906400542815,463.365161510112,155.07251525484088,0.6550048175537623,0.5592481110763663,-0.5081439158731301
408.2623795511362,467.92733043905395,221.32160844163604,0.47161834060962277,0.265801517319306,-0.8407887333875143
404.53378915362396,470.3669296932484,277.4870376582477,-0.5863953760243528,0.7816610545769159,0.2124769604803346
409.77495274004275,470.9136440253755,341.2002711991248,-0.3919267992722719,-0.8926704120186553,-0.2225599234333007
401.8563292731893,469.6099167552909,404.85079143392124,-0.2714737117856989,-0.5065138833610774,-0.8183799299663795
403.0330594526518,473.18467848962837,472.77983895683195,0.7976499736166822,0.24842506270182263,-0.5495812112972038
411.10393027285016,467.8703844270183,530.5778513139252,0.1352626816146379,-0.9613195941007258,-0.2399346681087022
410.3194727354234,469.53346922084273,596.5950088809537,-0.15708529692076187,-0.22296102561548992,0.9620876210344903
403.3937760285792,466.7762138161405,651.2234800961866,-0.47849307151294684,-0.7198017131837025,-0.5029213399846074
400.5758359493635,460.7958207201942,713.911124731426,0.5568371145832424,-0.7534152044835427,-0.3497112487118917
409.3096564802492,463.3676895447741,782.3380619559159,0.9957980230551818,0.0749897256539845,0.05256270850833127
410.20870734640795,469.3204548348138,839.4442108492451,0.9080456113423973,0.13125635467176913,-0.3977749829741569
407.3436284256052,471.0750665292385,908.6544654570997,-0.04087059807915877,-0.6037492592859449,0.7961258858524354
410.4395800194839,474.7222899413864,969.9313118177122,0.2110587678814336,0.569867515958481,0.7941695100894278
403.77886212186155,533.4828846132787,25.139095052659936,-0.3700228408857888,-0.9266430846634983,-0.06645066491862305
413.47401682542284,527.9312143718046,91.16201331188567,-0.6410790735857765,0.05145536032231948,0.7657479789751345
411.0325716409491,531.7206602241473,154.53556479594076,-0.6932456994360495,0.5237341298876005,-0.49508884193071917
406.248789662889,536.3240845195302,215.9508009494247,0.4479919815196795,-0.25659615907014593,-0.8564237243587544
410.62093031769996,526.1431904492551,285.2751933038152,0.38238759073774453,0.8391234077758832,0.38684833846401895
410.9284107765977,528.1419549929959,342.76975163442495,-0.4165050846451742,-0.8440110457100635,0.3378888414613915
402.5803167034299,534.144911348956,405.45187893717014,-0.01289012004496199,-0.15899392341919608,0.9871954097953441
409.6990631416678,526.7641176985336,464.0816548348641,-0.41118288740251296,0.9114133233640477,-0.01594951729158114
400.6538766438593,528.755569762752,533.1984918713325,-0.8558436176091937,0.0026720957525892303,0.5172277661745329
412.3899168462557,534.2109990765966,591.977549693151,-0.4183398126482041,-0.9037872931847944,-0.09033454395284266
413.66521700756306,531.9244842195784,660.5446645668576,-0.7732514054342065,0.21611448539355846,0.5961348783598405
406.1476429753053,528.1228541551873,711.7879710796847,-0.7148615708092985,-0.4534071210079761,0.5323484922485654
410.56164331610523,527.5015490625774,780.0650905975068,-0.5819447468157432,-0.5939980607361782,-0.5554337183636047
407.3548940745008,531.9652313108573,843.0782044761588,0.30462330479709604,0.4451996074878168,-0.8420225363178764
402.11557795434294,529.7966907643104,908.3781509642107,-0.014827141029607985,0.8408721748207341,-0.5410306289861389
412.04930925454795,533.9161666509636,973.6290926794861,-0.9650577291949132,0.25983916338321583,-0.03387017114613183
408.51904472553895,593.0428389418112,26.871004049892697,-0.5519204945026981,0.42730608841885886,0.7160958556981543
408.2261581365623,595.5620757422203,95.73219191166096,-0.6591391385582586,-0.34623466133433484,0.667575580223974
406.1026274360174,594.102720488527,153.84995459165916,0.4378629871745918,0.48855681948839386,0.754710698608366
404.6011214500128,591.6858176887341,224.21272650312704,-0.03574652301045674,0.7212314345674871,0.6917712077590303
400.86825667320556,587.6475695051734,282.4881134284766,0.8657718703613669,-0.3681818659427307,0.33894126641928646
409.4173106471948,592.3291240438904,342.2681849889798,-0.42024028620604315,0.14056242037130792,-0.8964598751917581
406.7340742761387,593.8376803103309,411.2936454966851,-0.40809996563313367,-0.21037894949839045,-0.8883665435270449
411.061709907436,593.0025761852878,465.88758490536117,-0.7849505376277159,-0.26416822790458816,0.5604175236765081
408.8360699209508,588.8334182675644,531.2229134066005,0.5992346798292757,-0.30260499621402975,0.7411801500014774
403.8855270845883,598.9627317155966,589.6625514659363,0.8935658067776467,0.4007548822402634,0.2023256615419955
406.8837785086202,596.6379629727995,656.0702158502885,0.18399701869603924,0.6844237169952397,0.7054851328875679
399.2187822610155,598.6537130369798,719.9997582179769,0.9382937364150756,-0.07271716303763776,0.3381080868657157
406.9421855931573,589.606840678874,781.5659334962486,0.9024310220334217,-0.388157602072495,-0.18695434315640977
408.1249014874126,589.4759589264669,838.5539560392901,-0.15676475033338946,0.46023486305281247,0.8738470597785799
409.4434335424494,590.349269299639,902.0685065614792,-0.15113913679173052,-0.9775036413743438,0.14711761427425638
406.57032296754124,595.8536271187551,964.073739209688,-0.44822098425531637,-0.7179822712474895,-0.5325405218830696
406.0206354724649,652.7097873998957,24.729905468736476,0.3424127585016917,0.9386987462606267,0.03997707573084732
400.266568153358,661.0159571397363,88.95914223367004,0.11990563970617393,0.6017514512969641,-0.7896314510128448
401.78666913211947,655.3166002843764,159.80249488083467,0.6743067776357659,-0.008431405649310058,0.7384031967924073
403.4417320619262,655.0521685611686,212.26083530934102,-0.7234465822421249,-0.5480473436933515,0.4198441993321453
406.4128650597698,657.1836992242277,283.07446612445705,0.8500886067627252,0.4496304812904411,-0.27419298121347885
403.2118580517888,654.9816110610099,340.6532311342379,-0.60605816311624,-0.6395279441216678,0.4729667130017525
404.1157512566873,651.1357722824699,409.73826222847646,-0.3859111527538197,-0.01479073651325169,0.9224173764048539
411.86557161171845,660.8521942097894,473.6494412676814,-0.7343893278074537,0.6787258271799019,-0.001888576573614705
406.96485849496736,659.0548995064896,528.6165865532905,-0.8417085447686969,-0.10651178346336454,-0.5293221756613036
406.393543701253,655.4295480271163,594.5982073121754,0.026817120615674758,-0.3120287983930035,-0.9496940933876038
408.3649911447497,654.3981587943429,654.649819111108,-0.221984320974858,-0.9337286542363531,0.2808447284520406
412.7709280464886,650.5569730273936,718.8727623368943,-0.9684671500210835,-0.15668964851590403,0.1937001119720967
412.8820727985666,660.6236645197989,779.6612929441893,-0.17444924989149585,0.2942009459483142,0.9396878538192412
402.2971875895571,654.6749090666617,848.7643913605818,-0.38051225653078824,0.08368301504836849,-0.9209818541221441
407.578335400069,655.7773249726503,902.8217370165161,0.24914126831820166,-0.3892606852988361,-0.8867946477632116
401.5582330753157,661.6214467306645,965.1594919688124,0.3722599093879827,0.9016734763260116,-0.22001704923168222
407.15450770565644,713.4210600448099,34.136881566287954,-0.7005852610232272,0.13681080951613286,-0.7003307036226222
410.3074964334441,718.4768415135409,89.52152618135719,-0.5218425032245256,0.8378906521383386,0.16006141598633553
407.9955806253772,722.2942184632733,155.97451666262606,-0.7276978961114955,-0.6832732567510841,0.059945213350777814
410.7733874815282,721.2246316322774,224.32248617279302,0.303739666079881,-0.8863576070762221,0.3494458579348106
406.5605321187606,715.2567830251212,277.48265273051896,0.6015951823191754,0.7983340901417127,0.02731148344491563
402.5827232912835,723.7098643848973,347.83896407241343,0.09780456985450783,-0.7854678785966923,0.6111255826819775
408.4813114027047,716.5244794730783,403.1722675070122,-0.4762880395069524,-0.8748884804497027,-0.08786267807797708
409.97848114342827,718.5421569338073,466.1148772236154,0.5501633152637719,0.8305005127130264,0.0871161576366629
408.3127883366248,714.8228257893261,528.0282496233583,0.6316580172681722,-0.1801306682803587,-0.7540299009758917
405.8726839350936,714.5255000093129,599.5658537310901,0.6653842183390882,-0.2803152743517312,0.691872234556637
401.0609820363641,713.2735964039716,652.7687912216717,0.7188362578794294,0.2768434017684922,0.6376771638181405
407.57292215585403,717.0363845164638,719.8307796198138,0.9834628466788171,-0.13451836735639985,-0.1212668052113453
400.965317172349,714.2224308998753,779.0246868041443,-0.5821323309103444,0.8129921970819692,-0.012869995832237552
409.83928177093514,723.360047315429,839.1870307527462,0.5520010773028671,-0.3671314162731768,0.7486717129969088
404.8374711670743,724.6245220438274,906.2534827989002,-0.3497974016420641,-0.9291332169284112,-0.11980502078261444
411.7540610565314,715.2356595081492,974.1158592142046,-0.718050909775226,0.6948694715498775,-0.039488080213708567
409.2670798103756,786.5460127134428,33.36940680263008,0.6540441830568422,-0.30323430859610256,-0.6930188747067078
404.3698148374296,786.2914860374531,90.78278220707475,-0.21565779083217682,0.9157171149957339,0.3390484958782078
403.6242165604432,783.3697667879427,160.5189639395296,-0.9669595920589895,-0.23855372705857575,0.08989586548654706
411.45234844076606,777.3828609969008,221.95353638238055,0.7961135886750018,0.5114671286500808,-0.3234262361612798
408.5947616023347,777.1658690962931,279.9973884098949,0.869650392482987,0.07049588029970137,0.4886087654913254
403.23633763753105,776.7820744064653,350.8193487171576,-0.2529280193451373,-0.8586678257597588,-0.44577682985453004
408.1757867924121,783.5232950181951,411.55680657789264,-0.8673579007379848,0.4951090986275476,0.050569283993484704
406.2099040870464,785.6896208232448,469.1217002114901,-0.8463762844359569,0.47391626164715805,0.24300321415727516
411.0285498394933,776.476626032728,535.642839238544,0.44917110471786964,0.8691735810830913,-0.20683956254479896
403.1413567456175,779.8689318008495,596.3973956300291,-0.4764177140407435,0.6647231283555491,0.5754731308909258
403.8979548383114,783.4933490518711,656.6383192309087,-0.07793320023014036,0.9860596054017503,-0.14701316572618056
409.73245973783264,777.6896544472995,714.5469788274756,-0.8515165088438248,0.20627188014916417,-0.48204931970302956
404.07967190681313,781.7332806250134,778.0148372664943,0.45965380369986036,-0.7861901966148874,-0.41306580043728497
405.10267948707786,780.5720555880777,837.9778784738676,0.7990159091513157,-0.35784226620419357,-0.4832416470472548
407.8154089985096,787.2908723900207,902.5697824182848,0.7345793987798954,-0.4938959830295988,-0.46525247429260774
407.2121269950796,782.182763392799,966.755117157384,0.18998862873995245,0.7159821656115329,0.6717692010473031
408.6013821395756,842.0525403094408,32.725808194927026,-0.6133140773161094,0.6671675383778087,-0.4227686344808287
401.22394530910685,847.1565604378285,95.08330025278745,-0.20466435800289592,0.9422824188241179,-0.2649836669272889
400.7636510880755,841.3771400907909,161.01217928048342,0.272659592197615,0.10079256770075692,-0.9568163904735948
404.64141892578675,843.9316870356135,223.54504174363217,0.380042572431887,0.18977946112750746,-0.9052907816130168
408.9233436253933,845.5656971427535,284.23264334641044,0.09508008360610778,-0.51847419034098,0.8497907340349863
410.90022381257785,844.0601783975968,342.43973374690836,-0.8991465242742106,-0.35000365314177884,0.26274126183950586
404.6391282448105,850.1527281453025,406.3343048771069,-0.07037370234482335,0.49389621477287887,-0.8666683743227882
400.97242176927034,849.9512307482823,466.75427592927883,0.7363890106348663,0.22375653632052592,0.6384858944957547
400.71313785238306,846.4411126486956,529.3089596107453,0.17810848487773553,0.07083082971599944,-0.9814582829526177
410.87170854694216,840.5094141985443,597.3086140146406,-0.4067195284700891,0.6585813959406667,0.6331269778503452
407.8285066344058,838.935891468393,662.4047824989857,-0.12566277368554965,-0.9915667906343426,-0.031688594490197605
406.8586323808575,840.6003969070065,717.62119004649,-0.507968651139292,-0.4669709618060639,0.7238134913702895
410.1418965313869,841.4923912725775,777.3887493103612,0.39934320733722417,0.8910775939414585,0.21565185909034046
402.4043586655895,842.2526231436462,846.8956145495548,-0.7074627562890198,-0.1517865085316269,0.6902588675936888
404.9338425042786,839.5253594389061,901.8607414383548,0.553851698536836,0.6904586428040174,0.4653118939003132
403.3029518153509,848.7284033255344,966.5385332058315,0.20481496829382126,-0.9723463056086782,-0.11222072327318164
411.67339256322913,906.143390344875,26.68136513580844,0.15294318013310101,0.9876033774196729,0.035326372019061456
411.9977378496526,906.5203735896915,95.09681336201963,-0.9127473128425334,0.2427161256632009,-0.32860496837658987
414.924828612206,900.5706017150565,149.36427044728958,-0.7811153564181509,-0.5257738774795038,0.336779794120599
408.3341649168967,903.4730093532504,214.8547128731313,0.8438002541827521,0.37126378515102054,0.38751042937766206
400.2801836161141,901.0125552287959,284.73127176292087,0.5550846801042717,0.11944309480090416,0.8231733383789349
402.1236355093461,904.9157336633662,345.5949238575576,-0.9143718226172977,0.042929420921728564,-0.40259313807223074
404.41861849358395,900.1404441934792,408.7084068781076,0.9913276359721547,-0.13034459227477713,-0.01672738540781182
399.6980478788804,908.3518073417464,473.28496448144836,-0.682615975296919,0.6172140684583929,0.39125723503403065
406.4240894368281,905.2155076097135,532.3542176499963,0.4999159315639575,-0.6472045424246109,-0.5755087676425884
406.6477114047303,909.5549700738263,599.8985700582087,0.25059150555692705,-0.7960433595162684,0.5509254642079687
403.4129634803641,907.1923053540979,660.8199738197603,-0.779880050392208,-0.20366818176871515,0.5918668589600813
413.0463574635882,906.9484613748053,718.2737226572095,0.15051973809569363,0.12910487995055236,0.9801406727692497
403.92186677816625,911.867257966816,777.2303669349113,-0.9408824425315172,-0.3315661274116291,-0.06931184955822206
406.19997068486595,905.3101432867742,841.0274472956005,0.45120561332372844,0.5639266559602328,-0.6916648185376117
405.0021793486798,911.9606737123687,900.6664524726605,0.5257137647039466,-0.2535325834249038,0.8120013957763237
407.1925018184424,901.2408658964233,964.6042499598863,-0.8981808800542069,-0.10725502709848658,-0.42634195883956033
405.61711551619845,968.3191876667333,27.221116662402988,0.9165643084630534,-0.3903797363723486,0.08668061998798007
404.6727655904327,964.6919389731626,92.51543347996521,0.35944517331046727,0.5535625707133758,0.7512440666581048
410.9284708417434,973.6343568830101,154.62056552372843,0.39351342663568606,-0.6858376046977115,-0.6121878494710151
406.44168335198947,974.3853079705882,212.92180224210608,0.32207993280302716,0.7351301376029769,-0.596530131404463
410.40679933692303,973.3326175076065,276.39496292526337,0.03682809247064523,-0.9439269542263489,0.3280938839569279
400.90883146537396,972.5381566566307,343.8173846828982,0.08692450262834892,0.9961460139575262,0.01171536253584008
400.75926287996776,965.4067046010583,406.848806652827,-0.9940641490291181,-0.09765506823672084,-0.04795784881222901
408.63332905482156,972.4578572902677,475.44846828261205,0.3480223831840422,-0.936813361752969,0.035512618095553665
404.34743651589514,969.0036406775312,531.797016563864,0.538014940478921,-0.8419729063486044,0.0402684590758975
404.66257076489956,965.0064302994351,598.0666769675497,-0.6181162303899852,-0.5212306960156516,-0.5884308687174
411.22196028872935,968.562479726603,658.2449381038488,-0.6708317276421367,0.5131865789605315,-0.5353730739992928
402.05941907409857,969.7398802184662,720.6189472914322,-0.6819329441502759,0.592971712611904,0.4281962257244246
407.873582182067,975.8283585705618,783.4616827024155,-0.8980526835422056,-0.42755298650657514,0.1034399406029984
405.666447093103,971.4931339468399,839.3860886693045,0.24660405584222125,-0.6278841406401877,0.7382058964643263
405.83221623472014,967.8540257776617,905.7436518446739,0.41307388538734835,0.26291979444178065,0.8719192318682343
408.74378990251483,968.2276837323183,971.9861156059534,0.27349186187806035,0.2708649890784085,0.9229487305251716
469.6410877509839,30.178900377613683,34.410009596825056,0.4857366617910522,-0.6768636339550088,0.5530962994102429
466.29457434633076,27.444878611795463,91.41173975504027,-0.6428572356639722,0.3716009960020149,0.6698113721972676
465.88019095154505,25.359044419414595,158.02957032758562,-0.978457411376505,-0.08617532221945884,0.1876030595772924
468.29322108704935,29.9543840107587,225.14237438051916,-0.3862736620134015,0.38702263260269354,0.8372610942161572
470.5628292280094,35.21912581328216,277.8790146819811,0.06749478313462481,0.1972960464511616,0.9780177525507148
471.9448204778892,37.680534557794516,343.17485253517685,0.2176364903688534,0.175506127395227,-0.9601208034964447
472.47636238693525,30.595510521739296,401.73489869685363,0.4441022364230132,0.2916421215297445,0.8471824340445853
468.14652158835025,29.622392115179256,473.3771349857819,-0.08759564616050482,-0.638909887286642,-0.7642781945738699
465.2554667047421,37.68780378987489,534.7801354318817,0.7075161201961268,-0.5536761669625501,0.4391624321367644
464.64486064479996,30.369935327254243,600.8602923698085,0.49759119047233585,-0.7601488620631061,-0.41782378423025246
474.7635374109317,28.00372154025914,656.3449405591127,-0.8141925300823952,0.21232668814370412,-0.540377554548627
468.49004815523625,32.550966181421245,716.2405952249941,-0.6669941225926475,-0.6016476934847822,-0.4394757027997178
472.1456642179243,25.77487995630618,777.7871316407762,0.6784509744540036,-0.1565792015793232,0.7177654414188487
469.21323971495127,29.59987919883719,841.9658052635283,0.7608417451470644,0.5110730984859846,0.3999051473105901
468.37673499747973,28.585011897237287,903.4070624184051,0.4142247424200553,0.90955820964971,0.03349217857729181
467.84226306197155,35.314169235478715,969.1843161572132,0.7238854630879077,0.5373819787835705,-0.43267822363583297
467.9738823140415,93.8023043178935,37.43866518489138,0.9862908168421007,0.12127895839607218,-0.11190102261957026
466.2998830313236,95.78638624819057,95.03741893474414,-0.2965916774289626,0.16689694940861272,0.9403078140470668
470.97552140823296,88.75831480292133,158.75729180211573,0.7358436112467609,0.40263256711293294,0.5444457692804449
463.1697973060237,96.95081507970474,220.17956795257766,0.5466038497706124,-0.22039250567538446,-0.8078684143213372
467.0868894040378,97.63540928119855,278.00450399627493,0.8350313610711608,-0.3431359294719761,-0.43009343163206737
473.56313614408396,92.14817284311964,339.8431437486925,-0.77396422613555,0.2125890593758495,-0.5964773830549578
463.8468856510667,98.27667101622788,402.52494395544,-0.6681413012127827,0.5412471484064085,0.5105278894983319
464.08818632044665,92.39436375344462,469.60483354759054,-0.48854427589910876,-0.19521552348729448,-0.8504207134564616
469.0702965798355,89.66193496411366,528.6238506045487,-0.6387762802547391,0.3966463446607612,-0.6592697028160599
464.8211777146323,88.48193816825177,593.7245347994091,0.2794835950580223,-0.7328964801239795,0.6202835396133971
470.87652812734314,89.21258134754672,653.623355533117,0.4001230495441499,0.4105192924356438,0.8193750397477508
467.5585810137477,99.23962709994522,724.2107698891549,-0.3272794556329991,-0.26867883597384173,-0.9059248539588199
473.0862915358551,90.35474752654962,775.6140818492189,0.9659837169966312,0.03852164423255215,0.25571769868938093
467.4466757570706,89.56902885305222,842.9826148537155,-0.5366156557751902,0.3477465144521607,0.7688406854890913
472.5790305118074,98.53738699160242,910.6338077011119,-0.024105508010053595,-0.9992742578733469,-0.02949376264990638
467.21125873937615,97.23428714740052,964.4105426343614,-0.892390542138787,-0.2360191941701987,0.38462197062114395
462.56790625828376,158.24725908419245,24.897718239562263,0.1104005224936357,-0.4225743487542601,0.899579148495587
467.3490182884549,155.7243405189278,96.46013837199003,0.28117226798901734,-0.9551855191557832,-0.09253528899295309
471.470792342388,154.35867614267167,159.42261410544506,0.8646453140012583,-0.5012616351026274,-0.033544808091655345
466.61990625597707,156.52435297754852,221.93833174889474,0.8513240140793104,0.43435697033496307,-0.29424725210836217
469.40791115974656,162.86053984661706,278.557420221531,0.4686103820996665,-0.009725252701959158,-0.8833514188862142
471.16080949981466,156.0113983850303,349.7555125302997,-0.07617356336477639,-0.9121065579717598,0.40281411984837534
463.2162920264909,160.42861912065325,405.63855045201257,-0.5761164931065117,-0.8166071777666493,0.03524916439638094
465.14340229789786,156.74114487684318,467.3991994767437,0.9806829463977845,0.07654514533880738,-0.18000499817955284
469.69105535559004,161.2406497821093,531.7110018946928,0.31846233515105243,-0.11599000510253718,0.9408124466685442
468.8348380069576,157.36179790086987,587.876380581441,-0.14187114738713433,0.646885928808069,-0.7492737634864709
467.814811578462,156.40308998546215,654.8530780289029,0.9391598418627272,0.343125298847259,0.015614759791837365
465.5419594953012,156.5343179751086,715.0484420075377,-0.655068143315765,-0.6317047500012484,0.41452965688681065
466.33287600675476,155.6620031217082,776.0709109785988,0.9576956427509186,-0.04043007881335298,0.2849288763587345
472.93151380130155,161.65801413950592,847.32843435209,-0.15850204170014953,0.4073815458513139,-0.8993983427139933
462.08050395529006,160.64633477299932,910.3495804153308,-0.0022913265347318714,0.9952036389090114,0.09779809264486429
472.98492704953344,151.20715986476736,970.9900882612525,0.46414535158690273,0.6486412924461192,-0.6031861788321237
472.40198658851335,219.47469929957185,32.19591979087616,0.8221316728207475,-0.1344713237528593,0.5531880111075377
468.25036175311567,219.09448783860864,88.1625223002207,-0.3094037181961832,-0.88872784982877,0.33827821110013606
470.2109383177962,214.0870858279126,156.0915126092145,-0.6965153484934101,0.1422233005431708,-0.7033056960495275
466.12067183902457,219.74542967794937,213.5425822521472,-0.15268501138867765,-0.38581370818274086,0.909854422353116
471.0497208236798,222.29013844314164,277.2102533969179,-0.8225882696264711,0.004880813248610703,0.5686164931963901
465.54078188916253,213.3003087132855,348.67517526020964,0.6589991592786427,0.7009893538186844,-0.2726426854014339
469.20212865968824,219.1044232037803,402.0936396071081,0.8061172478525339,0.5667436760976228,0.17022511071522134
470.49389185140643,222.66081513183428,472.91997870917766,0.3332428733557593,-0.30995238919844154,-0.8904373665720545
470.2842331138884,214.16286734639453,524.5002193654274,0.5667413755671744,0.783073877997171,-0.25612402233819975
463.3417078453179,215.83975059790964,589.3779376059246,-0.7226533913932841,-0.6739614557753381,-0.1534536804282386
466.47484936681155,216.9338612629387,660.9252226830368,0.07903576806775278,0.8165793340584665,-0.5717967633299192
470.217998779893,222.38510334671358,721.8365817586066,-0.5898342175512369,0.8068547673659927,-0.0328782631002644
464.20600640654425,223.38574768936007,777.2964246605786,-0.9193449777075849,-0.2625007028048108,-0.2930839350609663
471.0075567475729,216.59992722478987,849.18541127819,0.7814400003681133,0.4017359477703013,0.4774513107048518
466.5185952348751,216.38046706038125,910.8295014287653,0.5916972803471002,0.5556138926222596,-0.5841126010924482
463.1226020447724,219.05765331094787,971.6429810936389,-0.25487387496008823,-0.9227451642008193,-0.28910321652799426
472.449941740691,287.88818592324685,36.7991066470443,0.564585215162882,-0.009593404621409314,0.8253190300770075
464.160025154398,283.70858095644195,95.80253646177712,-0.46549974478706485,0.4106005130646806,-0.7840390336419473
472.54948700955106,277.68020352069055,157.2268519907886,0.1261112990702136,0.9628248949083397,-0.2388810624381261
475.0247504482457,284.66610531322027,217.60648885425888,0.40115417606511233,-0.6498212239666639,-0.6456064621020982
463.1266490113234,277.6662605603122,284.3376036443058,0.49223237493011013,0.5543744576024529,-0.6711007747191547
470.68180767951213,281.6825345677804,338.3498009170552,0.6033814712102691,0.20234612698076335,-0.7713539039221985
467.8727367338796,280.8782992766146,411.39266639472964,-0.9415675247349772,0.013135095314117481,-0.33656806983957493
468.93735406026417,279.2566883196986,469.03930423947054,-0.5341792326194078,-0.8255770768143395,-0.18186543837912472
463.240862768047,285.9808210381531,529.882317531987,0.26840434949828046,-0.09690194243691874,-0.9584201159837773
468.3883164405934,279.62887030726336,595.783644879235,0.20593706120022134,0.9416287051695988,0.2663180587659069
470.52503477732995,284.1833961128405,653.5442814480193,-0.06371354936558586,0.6694348181367873,-0.7401335068036076
466.2128386808106,276.9207481415006,720.3283234182111,-0.28646551983697327,-0.22877350284892387,-0.9303763702603189
463.7603233424213,282.6363227827844,785.0656615532635,0.025368864491106605,-0.8492685024088615,0.5273513359522678
471.9598134997716,280.0639198188587,843.256251246198,-0.3875222693177687,0.9135185527471339,-0.12373497714708269
463.99556302181867,284.09054782291474,909.1245340752154,0.7355361705321449,-0.6284572758370814,0.2530375353309112
466.3619527069759,281.1233919103498,972.4162645687346,0.5107579377125413,0.596834968165957,0.6188007351627606
473.18918486423183,340.22949428423004,31.157188195487034,-0.2654761027429866,-0.30740678761580914,-0.9137962058359207
464.66671492660544,339.7350206853818,100.22998707495121,0.19070195052091837,0.5468594021496282,0.8152162659982125
472.59609005078534,346.8704188216381,150.8351958257577,0.1617239815292718,-0.406190289004188,-0.8993635543633142
471.9413024823874,343.43327920749897,216.14661399759063,0.43725531389571615,-0.8855217881775618,-0.157031694675859
469.9104739956019,338.19692889315337,284.56070263787353,-0.9563055522207048,-0.2331700727662622,0.17638426221754872
471.2440335319948,339.5294141215023,339.4800962454661,0.05812727866121491,-0.9982404835483482,0.011711382523070121
464.9775513069581,337.9621890715251,405.94138871721765,-0.9059229386775577,0.2945721901413129,-0.3041888459052508
474.10231966929484,337.9904631387466,464.3206738994065,-0.9193459121085802,-0.34803001267279077,-0.1835162231744646
468.3957387766881,349.0887105447824,526.5417742591892,0.8854010769504518,0.2566115653275207,0.3875763634113152
468.18770499652555,344.2439675676932,589.7036111568457,0.7630862841347356,0.18328351810440002,0.6197632410499316
462.26745552558003,346.88602443802364,657.7444541873481,0.31010730149962723,-0.6184487717177263,0.7220488752968562
470.232520293808,347.15925074981425,721.265525750762,-0.6343114259909908,0.41976516338629327,-0.6491888958265957
464.8648621301573,342.24737772680373,777.5043758437853,0.26856261367969647,0.9617609658006187,-0.05375841511606701
462.81239375239994,344.34056482623936,848.0888999346738,-0.41929727302336195,0.8033567381953061,-0.4228566518707855
474.26581647926673,346.4286778694109,901.9115348811624,0.9739629325577964,0.13173947234825822,-0.18450180874132327
464.0178041453872,347.5042116584411,969.69507771632,-0.43307772391598925,-0.7478253240783579,-0.5031907885830635
469.8584115778402,408.64357869483064,33.94981587315305,-0.38077865090240565,-0.5723495859873078,-0.7262393341296665
472.2162714705677,401.44170104404054,95.96240902817752,0.8952927417529157,-0.4412035949630082,0.061565366532369215
472.6328730117229,405.17619636028644,160.07314456828414,0.7532239667307189,0.6575137677896626,0.018146655600479934
466.2440236490851,409.93863984022045,213.46672533931962,-0.4473483701228068,0.8084433011501083,0.3824903457265079
470.965711474305,403.6459884488417,283.9734738683599,-0.12753186759083252,-0.9413348867317382,-0.31244880183886137
464.86068340102395,403.0745991427803,343.6824497325491,-0.8640525404732287,-0.5027786156968093,0.025037390034904156
472.88996624818935,402.95540387222565,402.3607288887258,0.1791062772870248,0.9439901200804302,-0.2771346146314433
473.70321295588946,407.4115719822544,475.1074374887326,0.589709057053217,0.17383965819432096,0.7886843483094409
464.224819353245,408.9515792885918,528.5952011110913,0.22443436141860001,-0.38073888225452235,-0.8970323968253334
463.984774168875,409.5390231066212,596.289245924473,0.23488022049493176,-0.5339312575927138,-0.8122491577008347
471.24172608600793,403.2680690955883,654.865620058526,-0.664677142515665,0.006876726147224413,0.7470990609381774
469.0143646262762,412.014577506201,714.7945764421414,-0.4911907653280103,0.8070627195588684,-0.32769101109845383
466.9108573906787,406.8594565857072,782.9364246032825,-0.5435719096659483,0.4254538353979689,-0.7235458609979553
465.7546493648132,412.0148551005131,841.8726640893334,0.07050634225419479,-0.4909882933655094,0.8683083274275094
472.01194075140495,403.67080175987377,908.1614568588944,-0.8325646191317684,0.41108052099313025,-0.37128016406750064
474.027958809597,401.72274745356816,974.5235020269578,-0.11908469761363166,-0.8629111958211767,0.4911243253197064
468.7132256228273,474.5823135688668,32.10596939956876,0.37342755692553936,-0.5171132668457485,-0.7701595477436743
467.3275756562097,464.86397791844666,92.39065378692608,-0.24483820418612354,0.32046331622887336,-0.9150724106443747
463.29525743523203,464.8061622305333,150.90912350217013,-0.09743676486811,0.8304800450824547,-0.5484605469601992
468.081455401335,471.15720945289405,215.11360804940298,-0.06713312553741052,0.9348559781801857,0.3486222074342747
464.5015941984047,471.3429410288369,278.37133282419524,0.21241967311232496,0.7579831450930279,-0.6167166563582787
463.17547809564223,464.74782385149166,348.7169350520462,0.5398838482157766,-0.16561383162948154,-0.8252863074162361
474.37488622995835,467.37217044455593,409.26872346393606,-0.6965176708848457,-0.6980342943315304,-0.16616635664969034
468.50920277478633,469.96037011517103,470.4627828805575,-0.19431005302485813,0.8406553270811851,0.5055118439201033
470.29480818071994,465.9432164224477,525.7180770491539,0.2412846276824058,-0.002699489717782392,-0.9704506382085729
467.83108371686075,473.23497072012253,595.1030176905318,-0.9314888265321927,0.00790155051540426,0.363684109558187
471.91414608784197,474.4598902952077,653.9873196142522,-0.2992182196005592,-0.6149113547910653,0.7296248918506608
471.2166026146549,470.4065798762523,721.2913866629419,-0.12736404626255224,0.821691734030818,0.5555187611098819
473.9140908785823,470.45219737947065,777.8350300316898,0.6882636313665444,0.3903358251548748,-0.6114990738658566
473.330199582842,463.0236596097861,846.6051582007175,0.5069413410989921,0.6499692897751062,0.5661717045508364
472.3230374060731,466.00886146930185,907.5734172669434,0.27640780860676034,0.0027224673302899995,0.9610365817765961
468.6847240579484,468.8710701063123,965.7987967920027,-0.09778168923562541,0.878585967902346,-0.4674670451008558
471.8955554454039,536.4841187699981,36.53901031081353,0.6173417429661604,0.7334314183015087,0.28454793452025007
464.46009811260785,533.1992316847909,96.17413737402822,0.7354208715742145,-0.5646710991115609,-0.3745700087849594
465.7934678737896,526.3978486554921,153.0200440386729,0.2875892738215645,0.9564011088646545,0.05088544531832827
472.87785395261926,533.9483847155216,221.22140869778994,0.654831887035253,-0.35047882284751797,-0.669596740178197
465.27565787684273,536.759124252587,274.1516496373046,0.4067099955656029,-0.20787882906959587,0.8895916883220533
467.65052843615524,531.5451855429177,338.5991548869811,0.016456723709643125,-0.985296886401198,-0.17005652558149362
472.3242648660124,528.4079781401833,407.5706386849407,-0.014312035514009178,-0.812815523249102,-0.5823453363810296
467.68403365110674,531.9187695098346,463.9302823930417,-0.2903553273655627,0.9409595451351165,0.17403711756275397
462.0281135806241,535.7820172170129,528.5138790927406,0.9707864939997531,0.06149811261506321,-0.23193008690649064
471.976137778464,536.7454439300745,590.7428404691058,0.9261081841957058,0.1313804956993832,0.3536421871263621
464.9685026641353,532.665154319952,662.5811205877507,0.5723874187702696,0.647751635698996,0.5027827177646258
473.95221485795344,530.7574842196432,723.9856960206752,-0.6590118345936873,0.13927929630075853,-0.7391242652541102
464.63457832505924,536.4916674238209,787.2830948877963,-0.20178701034464547,-0.8547079380817014,0.47828479281312775
464.69104313703565,528.9752991794675,838.1371597825478,0.41968714964229065,0.78899875783908,0.448713334494885
466.01061118677814,535.0414694729825,904.7897872859832,-0.5356333984563805,-0.23038290655241608,0.8124165057570711
463.7911111426617,529.980300450843,972.6913074844841,0.3942436344890696,-0.544790594425556,-0.7401183451923742
470.30620314311045,592.7439313568739,27.24846216196724,-0.41306065662634156,0.5939474975430807,0.6903674848294403
475.7019138286268,597.248091403307,92.38747236497807,-0.3994099709840859,0.14806605915992355,0.9047364904784938
463.92396848388825,588.0971968471408,152.6338087604345,0.3140043872673471,0.6367913972929058,0.7042002279967017
469.0339074359303,598.6672253596287,219.33121378086972,-0.9577491744541919,-0.2074198665904604,0.19923232111258835
470.4841282454601,590.9938314144756,284.3088146214606,0.03477078086000302,0.947670088988812,0.31735216280076417
473.12929693397484,588.9484814267951,341.48106802931824,-0.7325777408365987,-0.3986550516941769,-0.5517281970222824
470.5156672159573,588.1037902793561,404.6835604807948,0.42927789925862225,0.578287152030442,0.6937610936083292
468.35866375082674,599.427914320556,468.08671524689504,-0.6989859108603235,0.5261721205017886,0.48431559548027703
472.18685651072485,595.421064439133,534.6387714812961,-0.846571621019027,-0.4486495283695169,0.28640895792385235
469.8949776194413,598.3891452980288,592.6813106282013,0.7073234878565248,0.6709899872188321,0.2224093536219924
470.58200374092286,596.3973740713193,655.2926343782364,-0.7066994305282346,0.6820034004619183,-0.18827447158191485
464.4174817745313,587.6792527785288,711.424485918537,-0.42503613549103464,-0.9051579266347695,-0.0057802575282074175
473.38347998894545,591.2937748900763,778.6944012003027,-0.2882362072423889,0.05528903836967002,-0.9559618251115888
469.7021923322945,591.165504873795,843.8830272182654,0.252678142090134,-0.7968369965773641,0.5488210613628487
464.7001327835695,599.2669486575436,910.4689768002069,0.6391781046423354,-0.3412903087459304,0.6891823239912201
473.192524727402,593.070844616438,972.646065103347,-0.7814819958073544,0.07818934498716465,0.6190091409336637
465.83217335077154,650.9786177432553,27.817089275721933,-0.9757500843244599,-0.19143538072998517,0.10613325560621961
470.601508111731,654.025813516731,92.6949857473166,-0.051095836751001836,0.7483881298257761,-0.6612899686238952
462.8481857683778,655.2254080229957,158.9282997857778,-0.4407986848042672,-0.6845118736814235,0.5806375928787038
468.06232442360925,659.0366304757466,215.546227572762,-0.4871394890530929,-0.8671328842168015,-0.10380596955350314
473.16251988175395,657.5891734298203,278.6403696409732,0.07961282004286224,-0.13550935676046696,0.9875722824761677
465.00509660223906,658.4318727531793,347.73427833961523,0.6063249572888447,-0.5811025708278814,-0.5428534317344856
467.0809868284603,653.2573978046413,410.2710466927232,-0.1409279566287679,-0.9867030029966886,0.08097218607495467
470.98387126633173,655.8848806826351,468.76298830841347,0.6644751297478946,-0.40880083199351586,-0.6255834730137363
466.430347513229,657.6368580989018,527.840325698695,0.4963355519001305,-0.47132911951168505,-0.7290403836690618
475.7876680244265,656.934428959071,594.9726930147456,-0.6558852894633621,-0.7349887629465692,0.1720639573177185
469.4228369154583,660.6950418109067,662.2216946507616,-0.31017107949401,-0.002203869991881935,0.9506782023390352
468.1635608375741,658.8743911916736,719.7848259853691,-0.3769968084841567,0.4226696076435357,0.824150355922522
468.1160053963958,651.9639253105861,781.3999301376906,-0.4631327220415562,0.8310592384217313,-0.3079750379629338
467.4507845216099,660.7997416377989,841.2964098936529,0.30098061042474866,-0.4045657220771278,-0.8635607961623534
