x,y,z,nx,ny,nz
3.292760815689762808e+02,1.922250325101256507e+01,8.601278454077119022e+02,2.457772442282899102e-03,9.686873903256345564e-01,2.482714223964039846e-01
7.411780107669158042e+02,2.656865380164362023e+02,3.150959498558297014e+02,-1.191481588330718377e-01,9.079740218751222169e-01,-4.017298742272027989e-01
6.340350755734349377e+02,9.771054448795219969e+02,8.189094943966724713e+02,9.858659840669176111e-01,-1.486242889068798700e-01,7.732452526005229032e-02
5.283381548668154437e+02,7.633071577967318717e+02,2.840895053963545251e+02,-3.701648068608732827e-04,5.390096320606213576e-01,-8.422995188909283559e-01
9.071404649667954345e+02,1.447556845745671126e+02,1.050123913095555253e+02,-2.102634661234032698e-01,3.504554792220698767e-02,9.770164197108484050e-01
2.335055147121184405e+02,0.000000000000000000e+00,8.838995085567266869e+02,-6.780454852997086805e-04,8.800010274893822482e-01,4.749712958400237328e-01
5.434441768965290294e+02,7.301910900138459510e+02,5.016292168941367891e+02,-1.456709253943242188e-01,9.328190924612914658e-01,3.295884133801638693e-01
2.643742932900193523e+02,2.386746157608330634e+02,8.019018207754052696e+01,-1.108081306534106775e-02,7.569377404496709094e-02,-9.970695402792327799e-01
6.029280312754291344e+02,1.458531463783738786e+02,5.105133900697682634e+02,-3.805795174105666007e-02,-7.223209411024625881e-01,6.905099929429900918e-01
4.648015506726758304e+02,4.051367182612989382e+02,5.344986818870527259e+02,-1.317988880317696489e-02,-3.747131366934172703e-01,-9.270471162354783079e-01
1.400200330353149241e+02,8.943334239265230963e+02,2.300136220336694919e+02,-1.091710301282893675e-03,8.702677791165871479e-01,4.925777104174540733e-01
7.689643938450059295e+02,4.419535386048938221e+02,7.496270187353518395e+02,4.397841253526171279e-01,-6.896362565193400185e-01,5.753188305468754926e-01
2.722908314499600237e+02,3.735238232850521740e+02,1.469686419890089439e+02,7.512045289712856455e-01,-6.298081630811286358e-01,-1.975688066710008517e-01
5.980931906332498329e+02,8.654422607594395913e+02,4.160600396256949125e+02,-2.284100240764344036e-01,-2.405896724066924341e-01,-9.433692121500696359e-01
5.081113008813339320e+02,5.480675179071627099e+02,5.264202033453968852e+02,-4.378510269535625804e-02,-9.965991224644399349e-01,6.980726240918884440e-02
8.006717017246910473e+02,1.734450374893204696e+02,5.719312179279075963e+02,1.364476069775720155e-02,8.567642705871481024e-01,-5.155276958134966669e-01
5.952359873688774314e+02,4.365449105197270683e+02,6.020507302440227022e+02,-5.948325856976399706e-02,-8.107787007183636652e-02,9.949312141723853919e-01
8.885523820070575312e+02,1.519575623044695476e+02,5.882962239394253174e+02,-8.640899319312584925e-01,2.834186077520561287e-01,4.159597123699831922e-01
7.049361449564150917e+01,2.023941119581577084e+02,2.493911719174812802e+01,-4.237009039790855525e-01,7.794986260598767425e-01,4.613669211571960749e-01
4.426952716389358784e+02,4.240159534195550464e+02,5.578512902540370533e+02,-4.425995263284467074e-02,1.047830086898224183e-01,-9.935097270197444930e-01
6.923220546071266881e+02,3.350911121591763049e+02,9.106145017389628720e+02,1.484897516797269862e-02,-9.893495630959979747e-01,1.447996890128527003e-01
5.912721701646780730e+02,2.414258183248988416e+02,9.652200881386262381e+02,-1.655646024733108666e-08,7.626118890978190734e-01,-6.468563260930942915e-01
7.738644814839764194e+02,2.987374002461811529e+02,7.001571303131522654e+02,-2.153891597890412180e-01,1.999033446655504587e-01,-9.558483994007087592e-01
5.563665720601312614e+02,6.990320439595559492e+02,5.558596937159722984e+02,4.975067913144571793e-03,8.490745416442518900e-01,-5.282496298445111815e-01
3.565370611467926665e+02,6.536072349644507540e+02,2.448040860517544672e+02,-9.420483521955622108e-02,4.525468628078976874e-01,-8.867506898694728079e-01
5.407146669766729019e+02,4.894382371773061777e+02,7.056417514963403619e+02,2.383865779412833833e-05,9.961283222261319015e-01,-8.791112040390579307e-02
5.793309665775684607e+02,3.992352851101202305e+02,4.589986183787823961e+02,3.508388730175204251e-01,4.673391594644411007e-01,8.114839463666954078e-01
7.326056036094006458e+02,1.315674462924274621e+02,1.811710915143659690e+02,6.278231337898607101e-03,5.987285948431317895e-01,-8.009273709447297662e-01
9.169591012286688283e+02,2.445605160328184695e+02,9.323762852705750674e+02,4.092995283048664890e-01,5.762787000472013865e-01,-7.073731377436675016e-01
5.022028374048967407e+02,4.297347947117129365e+02,6.172858009933308949e+02,-8.973796551140563738e-01,4.257578105050382478e-01,-1.159311924433337332e-01
5.621558998145184205e+02,4.056287227500777135e+02,2.383045693480319471e+02,1.097038259987571235e-03,8.925705264932402017e-01,-4.509064778228807358e-01
6.876991927017807029e+02,8.388151286098973003e+01,7.307682558510766739e+02,-4.668611594661893349e-01,3.695675792678329574e-01,8.034055402696693715e-01
8.343175987389776083e+02,3.084480556366764290e+02,6.461790508382430289e+02,-2.121209977073371458e-02,1.075688343363556156e-02,-9.997171281328092185e-01
4.973259035723244210e+02,5.249245058623319693e+01,2.036233663280044937e+02,9.553964264198312462e-01,2.740738018203268123e-01,1.100055432238229575e-01
6.228541299894925487e+02,3.176073389436712091e+02,8.772395910859241894e+02,2.885351509442716286e-03,-9.546198599543881391e-01,2.978130247778483231e-01
4.185363526422032123e+02,5.714909285625568458e+01,4.565304509223632863e+02,-1.588105569214138535e-01,8.530730187174154766e-01,-4.970368514976193919e-01
7.174048230418023877e+02,1.553561707434834602e+02,4.067417655148912559e+02,-2.864419708304285443e-04,3.751045369886780723e-01,9.269824724780435510e-01
6.052519008271550547e+02,3.856736617151671567e+02,8.886369251629404289e+02,-7.554575396382866570e-01,-1.078572519919202694e-01,-6.462590185029669643e-01
7.907402786222829718e+02,6.020790118597712990e+02,0.000000000000000000e+00,7.386281156126532910e-01,2.348402803799090055e-01,-6.318849179538840177e-01
9.591807628533745174e+02,7.326139351639714050e+02,1.195850336117589450e+02,-1.027915188022493070e-01,7.235516602479662440e-01,-6.825737312662555345e-01
9.123839738980580023e+02,2.876059199837422398e+02,1.000000000000000000e+03,2.068754765191916367e-01,-3.104362056198573527e-01,-9.278102712598643720e-01
3.764321235078558630e+02,3.592578204411195770e+02,4.554398876828404923e+02,-4.299094854356310669e-01,6.557709673230796010e-01,-6.205983183578758222e-01
3.977206462275800618e+02,3.999647167688710283e+02,3.979293188001259409e+02,2.389663244692380230e-06,4.112151221231815645e-01,-9.115383279552793372e-01
7.194497186050881510e+01,6.287944905455447042e+02,6.637445698314469382e+02,-3.646533208942951410e-01,-8.561625967599949538e-01,-3.660786301738256920e-01
5.898086594460071410e+02,4.972973090139719829e+02,9.254246064030189700e+02,-9.419145815238373354e-01,-3.353532986465466159e-01,1.830535986138026941e-02
7.655600440443180332e+02,1.370805734822101272e+02,2.092483574219945979e+02,-3.988375087746795890e-04,9.959719320761257766e-01,8.966466107219046855e-02
6.651706036133174393e+02,7.088916259018152459e+02,4.544908094149620297e+02,-8.153321182529451594e-01,-3.608979265340357956e-01,4.527540431278322952e-01
3.827365826596954435e+02,5.849876731462911721e+02,2.402747724238432170e+02,-4.706710976571705229e-01,-5.222161701099966580e-01,7.111673428285647525e-01
9.147653166886075269e+02,3.042559222237910603e+02,5.544054142203013953e+02,2.744035861289820417e-04,-9.904750670921570466e-01,-1.376919248592994027e-01
5.856329630235089780e+02,7.034918539488910483e+02,2.405919631660876803e+02,-2.632130898103808292e-01,8.974203437154097684e-02,-9.605546505115311051e-01
1.374065201037281838e+02,4.525781391419700981e+02,9.694042294718935864e+02,-2.413016209230099962e-01,-9.676005111455028285e-01,-7.431539928500605074e-02
8.287193959691609280e+02,4.388061437004910204e+02,8.286168854598034841e+02,6.573972999734891852e-04,4.057444613085533502e-01,9.139863237194645329e-01
6.655946232329503118e+02,6.405290211995625214e+02,5.808155251672718578e+02,-1.826790551815819508e-01,9.158994662266796150e-01,3.574304555625445468e-01
6.085571722483751245e+01,9.277578098509543452e+02,6.514532655361150546e+02,-6.147559000530714579e-01,-1.528326527087544850e-01,7.737682880655831763e-01
6.548948542410714708e+02,8.518082360233406689e+02,6.457771652437137391e+02,2.417917093229832808e-05,4.254261477413338044e-01,9.049931448543333534e-01
0.000000000000000000e+00,1.286461530054975526e+02,1.821634920099492660e+02,2.464841733648626687e-01,-1.280369494879406156e-02,-9.690622362244328825e-01
4.985887657801532100e+02,4.364729324515089104e+01,4.054341987899683204e+02,-1.403764175706836300e-05,-9.373915537721810853e-01,3.482772957278738035e-01
8.451190349603793948e+02,7.915523888016889487e+02,2.006448924010089740e+02,2.189687175550686649e-01,-2.164516343367516721e-03,9.757294786985211132e-01
5.151746206620368866e+02,6.197666548120932930e+02,8.124602350157033470e+00,3.238107151059428646e-02,7.817776333299066849e-01,-6.227159852074746205e-01
7.339687272287143287e+02,9.618215581030530359e+01,9.804526032316467763e+02,2.622292161063705107e-01,8.284740652650480763e-01,4.948399351340221353e-01
8.867277966081001068e+02,4.623358964943895444e+01,7.809121957344010525e+02,-4.997277194598578193e-02,9.984235860542208796e-01,2.555513401773513299e-02
3.600646001889937793e+02,2.798027405116753243e+02,4.097889270881971697e+02,-6.085175610022101056e-01,-5.619293721852415269e-01,5.603050585417035379e-01
5.604406086447593225e+02,2.797267912960526814e+02,4.869784786883417951e+02,-7.940426851326086721e-01,-4.962766929459139220e-01,3.510066355869417842e-01
5.528891163256007530e+02,4.677445823572531367e+02,4.698943750929028056e+02,-2.806977921487706015e-02,-9.442187145658300640e-01,-3.281205671067869978e-01
4.579159563588970059e+02,4.793074311507778589e+02,5.716512653109407438e+02,1.402233614723887023e-02,-8.589769784424178267e-01,5.118221611017912398e-01
7.739253340673661796e+01,5.389227610153978958e+02,8.119156056933105674e+02,2.838911367430516780e-02,-9.731793602602036852e-01,2.282892704187561850e-01
4.952401478156579628e+02,4.341528612813117434e+02,4.140639905099327507e+02,-3.808839485734328428e-02,8.494358957469557714e-01,-5.263154312707902793e-01
7.781854334720179622e+02,5.594769664503163540e+02,3.608372768011401490e+02,5.439191003967788025e-04,7.094521638548166864e-01,-7.047533833574199935e-01
9.651342788716553969e+02,4.081103176296483070e+02,4.513076376740750106e+02,7.358544765105988761e-01,-3.710961601278113808e-01,5.663972363436338142e-01
4.696839685970031155e+02,4.866973566274151608e+02,4.649425770432674767e+02,4.830383668195400757e-07,4.188625702091328673e-01,-9.080496392144903339e-01
4.869523198670338502e+02,6.306035349599856090e+02,2.900668257152539127e+02,5.847061302158079732e-01,3.384282595395938786e-01,7.372822081354302171e-01
3.416614431872934006e+02,3.006576472543630274e+01,9.925343356648514828e+02,9.442775868145047427e-04,-4.524231004070768947e-01,-8.918029191238875386e-01
5.420870270941422859e+02,7.391477834678037198e+02,9.972966839812849003e+02,6.314646546413391244e-03,-9.028574747203034212e-01,-4.298935979759067050e-01
5.631993457046526146e+02,6.520483069550667778e+02,4.425116638501273769e+02,7.039801492398062299e-01,-6.905258483268255087e-01,-1.660903436952858303e-01
4.118059670948564985e+02,7.120895884834652634e+02,6.672356522414251003e+02,-5.268783326762501718e-01,-6.436723725450550493e-01,-5.550541409434890383e-01
6.158026017938400400e+02,8.062485382545584116e+02,9.614232142331264868e+02,6.154204766305897412e-01,4.034253166238366967e-02,-7.871658764725814050e-01
6.906089759118559641e+02,7.308222216310734893e+02,7.237585424268922907e+02,-8.636784919493332058e-05,6.164469773620973037e-02,-9.980981533805209915e-01
4.577148688881879366e+02,5.365541508099877319e+02,6.164230550513831304e+02,7.293998355090434149e-01,5.138230779628926576e-02,-6.821552157719736886e-01
9.447926403329694267e+02,5.287371327530389635e+02,9.581964138734458629e+02,1.576021484594989849e-02,-2.748961832912170666e-01,9.613447373548841268e-01
5.432787001471800750e+02,2.177472791145501105e+02,1.645720695775883655e+02,5.313354465554506745e-02,7.691925171275842965e-01,-6.368042854969399036e-01
5.199049766062161098e+02,5.874924450964432481e+02,3.399515419249139541e+02,9.256881006473476059e-02,-7.448578116961210860e-01,6.607706529185940481e-01
8.130802795674208028e+02,2.670648736993430816e+02,5.415385728099329299e+02,-1.756405022319849256e-03,9.994369468609819451e-01,3.350677977061326807e-02
1.108633604537319144e+02,5.120346377716050768e+01,8.443389487098550035e+02,2.140979699258444557e-01,-9.552204707747332657e-01,2.042447342932723064e-01
9.239727229709321819e+02,4.139462898264127375e+02,5.793536332574349217e+02,3.552652475589176406e-01,-1.098814461756846775e-03,-9.347648883455558222e-01
5.145332210689737451e+01,6.762003837264329604e+02,6.523096141102242029e+01,-4.729713807424513507e-03,3.959932555446631364e-01,9.182412381125338863e-01
5.393918103930490133e+02,5.645111197847680842e+02,5.386439548914469242e+02,-7.123700088827367074e-04,-2.356135459509523244e-01,-9.718465668475599895e-01
3.685194132509935798e+02,1.904155890954837957e+02,1.565693669769872542e+02,1.038613193658634266e-04,5.384503033804278332e-02,9.985492986932200665e-01
9.179818105001173478e+01,4.667313694891566911e+01,3.140417986205898728e+02,-7.745218010260874510e-03,6.422484047579896105e-01,7.664574340325698287e-01
4.945983667387873197e+02,4.001143280721991005e+02,1.800457041159006053e+02,-2.484571124439054896e-02,1.222659445958849816e-01,-9.921863380559301504e-01
5.929936891305594600e+02,7.019008301128737912e+02,6.611239949124872055e+02,-2.948269568547343209e-03,2.455115122063580846e-01,-9.693891917494739108e-01
6.038436230833581249e+02,3.631306789173423795e+02,5.210125168930354675e+02,1.560524825456578446e-01,9.791583230625421352e-01,-1.299869265298921328e-01
4.748052562042818181e+02,4.196081158977770542e+02,5.489125802162589025e+02,-1.593645012355845601e-03,9.914221226422695876e-01,-1.306890777038056395e-01
3.783793955577641555e+01,9.412728591609553632e+02,6.208405198318976090e+02,-8.203611555803337341e-01,3.375894721657316522e-01,-4.615635630092156383e-01
2.712557364584922652e+02,3.899869123638237767e+01,7.539907302315641573e+02,-4.617199130599733609e-04,6.825814625741583042e-01,7.308093689635107859e-01
8.217093362665559653e+02,7.378125262676044258e+02,3.034562089365103361e+02,2.009990600735045985e-01,7.327267537847622636e-01,6.501621967921635825e-01
4.222557352872569254e+02,6.992844573690321113e+02,5.931415223094470548e+02,4.562794925370025623e-01,3.836478729300346613e-01,-8.028843841341264387e-01
4.667159461917295857e+02,3.664033614008480981e+02,5.635213527334744867e+02,-1.361592241533369010e-02,9.924631164358894697e-01,-1.217849299837293342e-01
7.660142936976848205e+02,5.761090662662247723e+02,3.408158373227399096e+01,-2.919596418641029825e-02,-5.038261110234206613e-02,-9.983031544444482819e-01
5.279583747501066000e+02,4.040498513318843266e+02,6.362721700777416345e+02,1.003831535729344804e-01,-1.826098433877974825e-02,9.947812618509315197e-01
6.614445302932489312e+02,6.262079968370956067e+02,6.191743912408092001e+02,2.369108653012626155e-03,-1.528523097883771886e-01,9.882462034920994620e-01
3.787613405249397260e+02,8.044076756740134897e+02,8.203353924145377505e+02,7.378020914924643403e-02,9.968427940728662451e-01,2.934151739250696195e-02
2.334803924775661415e+02,5.351654035857036433e+02,7.156779328736411117e+02,-1.837449576080368296e-01,-8.089877143690440420e-01,5.583696522498075021e-01
7.305911675729835224e+02,8.238034135766147870e+01,1.933281833300180494e+02,-4.054742860683572397e-02,-2.415645137121829877e-01,9.695372565035189627e-01
2.837793436684031576e+02,3.590691813353587918e+02,7.448442414515699284e+01,5.251311562164389102e-01,-7.978412700707367966e-01,-2.961191931346225936e-01
9.474896025354597668e+02,3.200934674166603600e+02,5.365254770180699779e+02,6.386771218992975951e-01,9.535989393681219839e-02,-7.635430731732097964e-01
3.084971368716094275e+02,2.490795367573693397e+02,8.513080016879556524e+02,1.367261412130612230e-03,2.250456747889977849e-01,9.743472557846076798e-01
9.558414859630486262e+02,7.824255436185001145e+02,7.910177776026313268e+02,1.259588266851823261e-03,3.727536139590282432e-02,-9.993042383929946482e-01
9.206874526313783917e+02,3.491169604878803625e+02,3.027402067786183579e+02,2.738249493707743398e-01,-9.488704471537940943e-01,-1.570502200579540764e-01
4.432277396743630788e+02,5.542107445491839144e+02,1.548957339184480304e+02,2.579791583857694581e-01,5.296055974124188603e-01,8.080622903143079849e-01
5.363974309165859040e+02,4.537734696528244172e+02,2.841448321181280221e+02,2.922371980558347571e-01,-2.291407745433700089e-03,9.563431233208189441e-01
3.019155366495124326e+02,1.232904585986198072e+02,4.018520672708341976e+02,2.256756843991416378e-02,9.968186915305324858e-01,-7.644083378709884413e-02
4.926919609055598244e+02,4.863312425534984413e+02,5.488820488024950919e+02,-1.307427885316449440e-05,5.597552345965036702e-01,8.286579977112852324e-01
6.429195339254050623e+02,0.000000000000000000e+00,3.645705156870620840e+02,4.379645302979173631e-08,9.602394527085229559e-01,2.791777094648397184e-01
8.161196364495565376e+02,2.804077763875854430e+02,3.565240583699165882e+02,5.757189906920524847e-02,-8.276712370268389796e-01,5.582524517062396052e-01
2.217781053780429943e+02,1.813926511119486804e+02,2.587806905266165813e+02,-5.343912664728064921e-02,6.145308384356000797e-01,7.870807508475952119e-01
9.818321993922726278e+02,7.139412531008094902e+02,3.147797278829229413e+02,-7.249395615500600631e-02,-6.108546431938548515e-01,7.884169145886612551e-01
6.832482076167267451e+02,4.057830836061151558e+02,7.374777741762572703e+01,-4.916663660626006127e-01,-5.936091307599156153e-01,-6.370968406461094968e-01
1.953409128676279920e+02,5.989739120440809472e+00,8.096036771781765538e+02,-7.439659750354333731e-03,-5.797878990131163368e-01,8.147334801152800177e-01
4.610603464194236381e+02,5.252689785369459941e+01,3.963680827622047786e+02,-4.444185291555130535e-02,3.756261976651076862e-01,9.257050725458331186e-01
8.225333944387514293e+02,7.491900020598851029e+01,9.901471643386165056e+01,-4.217655875546154620e-01,-9.019325697483522308e-01,9.290548305586576738e-02
8.544916133011813599e+02,3.509906032935577969e+02,1.055678912586303113e+02,6.579190425758758565e-01,-1.859586356262751539e-01,7.297684011054856867e-01
9.089326681765102194e+02,5.935958680837409247e+02,5.951001612645756467e+01,-4.367433888063888547e-01,5.757603464415658179e-01,-6.911984055243469705e-01
6.123531962694628419e+02,2.553050100715674660e+02,3.837124590012390968e+02,7.119781459012795022e-01,3.669522312100124278e-02,7.012421695527705223e-01
2.666553554334350338e+02,7.002568520577485742e+02,4.293855029779696508e+01,-8.586454943592772282e-02,9.644961045914820508e-01,2.497489607145984281e-01
8.912104463000109718e+02,3.676595864816707149e+02,0.000000000000000000e+00,-1.809716359046241105e-02,3.049850948603694545e-01,-9.521851629714629395e-01
5.169909957685021027e+02,5.966544041812938985e+02,5.726673400933448193e+02,-3.671397052993604637e-01,-8.313517970320492001e-01,-4.172081331473314059e-01
6.261236947286682835e+02,4.933117254750885081e+02,5.513739710302452295e+02,1.333038926904877852e-01,4.120386974057656526e-01,-9.013624043822344722e-01
4.346573434222868855e+02,5.080747983288698606e+02,5.171857097734548461e+02,-5.593965305271488865e-04,9.938275320137578417e-01,-1.109347722175723500e-01
9.724532784072277991e+02,6.796095858997014147e+02,7.890186837902691650e+02,-4.535940580707393394e-02,-9.357475339151319904e-01,-3.497414431784973132e-01
6.090883719197104540e+01,1.297057324601497044e+02,8.083392072700339668e+02,-9.142620048897990293e-01,3.453141272520468541e-01,-2.118564134857432446e-01
3.735785916692010460e+02,3.288535947511992390e+02,5.949182018718976224e+02,8.865293971107289783e-01,8.324603292106344532e-02,4.551216607253412150e-01
5.460373135022191491e+02,1.691073105260524301e+02,7.401078267877692269e+02,-4.669291176829845069e-01,8.718241717306066674e-01,-1.479858528577358001e-01
4.904129227522792434e+01,4.578303114969623948e+02,3.527168353986570537e+02,-1.355806127713305165e-01,-9.886007237281969617e-01,6.547141731042357971e-02
9.547981965204032804e+02,3.333155621620061879e+02,9.101998710303925009e+02,-7.504521502098727981e-02,4.169650889117688941e-02,-9.963079929664028223e-01
6.480734360738234727e+02,8.531486542165276887e+01,2.648644115727694270e+02,-5.669736017197426231e-06,-9.739410113827589033e-01,-2.268014689427358677e-01
4.643199395025233684e+02,7.624770348790646040e+02,2.778411475291102306e+02,-3.646422730132625468e-06,2.925297047106487081e-01,-9.562564362390478800e-01
2.206550817456899267e+02,5.572329668274974210e+02,3.807106880428632394e+02,4.435477683011126437e-01,-6.420651285967220456e-01,-6.253141193633622308e-01
7.391149491793657944e+01,4.328690861251982369e+01,4.358289160382181535e+02,-8.324142351031296183e-01,5.536013300458336728e-01,2.474082798040111789e-02
4.644364648312757140e+02,4.266967284101537530e+02,4.730896574919414093e+02,5.006674867889134142e-05,5.218725108239596899e-01,-8.530234931932513254e-01
8.735700816307644345e+02,2.935878343875505152e+02,5.004716067261683747e+02,3.261931356460760219e-05,7.030664948560164662e-01,-7.111241120555928941e-01
4.818008783987194192e+02,3.867783968891487234e+02,5.563153885329594459e+02,1.153277442892047117e-02,-9.874332340284013299e-01,1.576153655269189602e-01
4.074862481289588914e+02,5.671850579367710452e+02,5.292114766155195866e+02,-2.386101460917394446e-01,-2.776869474723442921e-01,-9.305671160026934841e-01
5.377575369766788072e+02,4.508855046368358330e+02,4.618417315593279113e+02,-1.376134143962780635e-05,-8.882752157422875439e-02,-9.960470225956229440e-01
4.278374158312629447e+02,4.929299246366854845e+02,4.213578863400584851e+02,5.640724341809011388e-02,1.547908442257427131e-01,9.863356515070588193e-01
4.488317880284940884e+02,5.001795476567286300e+02,4.033412688209858743e+02,1.388855103151268760e-04,8.100193801523980497e-01,-5.864030904491720486e-01
5.749541065143839660e+02,5.130588054988844533e+02,5.224497845337934905e+02,-9.187953239743713585e-01,-3.156340896733487167e-01,2.370448777740332691e-01
4.799463883699934286e+02,2.456891344320026178e+02,2.542788763430736481e+02,5.961535877408807513e-03,-5.142368760229579783e-01,8.576274805695836001e-01
7.924618248973109758e+02,2.351465058991762760e+02,4.581314675587712486e+02,1.231058598521470454e-01,-5.489398879308451384e-01,-8.267466036873298840e-01
2.449284223870940025e+01,5.136564722169355264e+02,9.357620134652331672e+02,4.752945213696235238e-01,3.383299454167047471e-01,8.121748370827244212e-01
3.915883595554174690e+02,3.514530302505605732e+02,4.780553246701429657e+02,1.787927517048241109e-06,8.964787510221650102e-01,-4.430867284883880930e-01
8.911492728802488728e+02,6.623538344610741433e+02,3.972059207731908259e+02,-8.400007415334694028e-02,-3.236769213299758863e-01,9.424315562100946675e-01
5.193066882087047134e+02,4.395488747475109221e+02,5.146870007859664611e+02,2.109301328666867163e-04,-6.557320196450672212e-01,-7.549936913118414639e-01
5.275353710124993540e+02,4.986626158122739980e+02,3.731891966445986100e+02,-3.240799118886882879e-01,-8.193088773646555190e-01,-4.729748134749756083e-01
6.339230692643391194e+02,3.543145996213011699e+02,6.485182602858737937e+02,-2.551949567584599343e-01,4.214837312925383550e-01,-8.701879097647629013e-01
1.430390965299058621e+02,8.704405118958791263e+02,1.793804777366192411e+02,2.732478394639905606e-01,8.371490774712654348e-01,4.738322913407977399e-01
5.951685409624025169e+02,5.303463400070464786e+02,5.111052585078304560e+02,-1.301941451391436765e-02,-4.073794095218971067e-01,9.131662014897975466e-01
3.855707631243231504e+02,3.590476780764668661e+02,5.189847130698904039e+02,3.424835435895665081e-01,8.921869563697685246e-01,-2.944613000955853543e-01
7.840773212512741566e+02,4.639218338263575561e+02,3.608579337694897760e+01,-5.320966776562212672e-05,-4.791813298457817810e-02,9.988512650540137816e-01
6.198461470624432650e+02,2.041197369709539657e+02,2.753196685324891178e+02,-2.567602587566198379e-03,-6.585442156024768900e-01,7.525376558774125035e-01
6.359009245323871937e+02,1.044154246088301790e+02,6.385256943065837731e+02,-1.236368345215279330e-01,5.915248751603039423e-01,-7.967510622622872019e-01
2.348952612461330247e+01,3.127087150053193909e+02,3.252896198265103749e+02,5.729193633281538522e-01,5.619823010676838759e-01,-5.966064837146292099e-01
2.132115261640838071e+02,7.164590062998046278e+02,3.050252078682354409e+02,2.581981280103292087e-01,-1.773100671798125139e-02,-9.659292614331178584e-01
9.168338868011117029e+02,3.075187699129781436e+02,5.359373112916554192e+02,1.040468130240938677e-01,-9.944946995456600547e-01,1.243194574942273201e-02
1.970794701179072774e+02,0.000000000000000000e+00,1.853162026049845679e+02,8.258011131883395972e-01,-4.540075441975901516e-01,3.345589204737669520e-01
5.662940577337608374e+02,5.432789659088941789e+02,4.954711332404934865e+02,-8.299120207753435396e-01,-4.756230762672851164e-01,-2.915968571412079768e-01
7.568346504064204510e+02,7.097689329524031336e+02,1.806851228180240696e+02,-5.825457376647159152e-02,6.432944682394117208e-01,-7.633993920405355293e-01
8.727194137791803996e+02,6.763650026359057392e+02,7.088006392978054464e+02,-4.721372221019549259e-02,3.357314576593068978e-01,-9.407737521705288319e-01
1.571913842385869202e+02,3.583900171677294679e+02,5.926320063451146325e+02,8.364280673123462018e-01,-4.785708283435106125e-01,-2.671292767008879854e-01
3.413951531138314408e+02,7.988543131426206401e+01,7.868419657556569291e+01,7.469093955719550149e-01,-1.318667387315535788e-01,6.517188949406339527e-01
6.966315561493619271e+02,7.837536067131915161e+02,5.241576200697091963e+02,4.322635541393318108e-04,-3.736208551460333815e-01,9.275814086904536904e-01
2.380538115248678253e+02,3.818222193644983236e+02,1.000000000000000000e+03,-5.775077229024146996e-01,8.096259487040433633e-01,1.048363160986959114e-01
6.049222364385794890e+02,4.991877309181246005e+02,5.480991698500330358e+02,8.120877821460240065e-02,-1.810819257412396299e-01,-9.801094176216937903e-01
0.000000000000000000e+00,9.484513184977606670e+02,5.370158661065109982e+02,-3.785960153366665221e-02,-5.380649635374589179e-01,8.420526976295158450e-01
6.977595588769218011e+02,7.156662272731369967e+01,2.787489551429483754e+02,-1.098466097559306329e-06,-4.111974477061364763e-01,9.115463010723878767e-01
9.907134613216816206e+02,4.741401493767053807e+02,9.851084656852023045e+02,1.149397798268782245e-02,3.527161242134023711e-01,-9.356597801498198752e-01
6.022338328502387839e+01,9.431941745883565318e+02,1.622196176653484656e+02,1.159410755187886277e-01,5.330316153176407612e-01,-8.381139326364961395e-01
4.830899608094769633e+02,2.548736765324338762e+02,1.749572710250751868e+02,-9.958796379277111699e-01,8.793683588153443365e-02,-2.215535276440428261e-02
4.943366843772401467e+02,5.750896173485788267e+02,6.032941737026807232e+02,1.756835808794320400e-02,-2.821267968029565476e-01,9.592162547203821887e-01
5.340602013506202184e+02,9.160799608522826531e+01,4.741040393973647156e+02,-5.179494132827652114e-02,9.866115817947002098e-01,-1.546443362084751472e-01
4.947330921022729200e+01,2.351347397610311987e+02,4.836196519470121871e+02,5.617072038086224489e-02,-6.423545895272714246e-01,7.643464080409781980e-01
6.270501627412708103e+02,1.815066309390156789e+02,1.872309950702067454e+02,4.521847646933059052e-03,7.335026423799463346e-01,-6.796715578244352240e-01
4.381416829357340248e+02,6.329507003690222291e+02,5.719991211830830480e+02,-4.674899790016226312e-05,-9.992336093059704938e-01,-3.914322224720909182e-02
4.186848840552710840e+02,4.263679091205328859e+02,5.374712984886901950e+02,-7.392235777536891898e-04,-3.422137934443302276e-01,-9.396218245256670043e-01
8.111097104361729180e+02,5.142968529837611413e+02,9.320284113943189368e+02,-9.291891520020006262e-03,2.435841639517760948e-01,-9.698352518979161951e-01
4.127488576378600271e+01,2.645750150768424191e+02,3.472984777332513886e+02,7.942828056477278797e-02,-6.429722012359727623e-01,-7.617597368490222065e-01
7.465573893893234754e+02,1.310926440172324590e+02,2.744987641039430173e+02,3.669945735882300386e-02,6.394376582499307071e-01,-7.679665559393930030e-01
7.937584177843770021e+02,2.609455678427488010e+02,1.123112230998806211e+02,-1.029163358167826392e-01,4.496954794949100664e-01,-8.872328913785207938e-01
5.490328430587716184e+02,4.572820733750140789e+02,5.172632132002821663e+02,-5.044641139881171124e-06,-9.633557625232556099e-01,-2.682269091418463813e-01
7.576031417256606346e+02,1.052307275646235922e+02,2.036296490187019401e+02,-2.534416010325692969e-01,1.243361726543280449e-01,-9.593267801097398184e-01
5.235920142408466518e+02,3.706078827986905821e+02,3.916710628870865776e+02,5.012115720421703724e-01,-8.064944766474496651e-01,3.136138057997009398e-01
1.000000000000000000e+03,4.533936113020519656e+02,9.414024678708120746e+02,-6.177070197651574740e-05,3.308652196279650293e-02,9.994524892403769956e-01
6.864268037116682990e+02,1.043271190768554533e+02,3.280952631845934206e+02,-1.112905891828338773e-06,3.985489704003048611e-03,9.999920579037520074e-01
3.095787652471649949e+02,3.812691397724574927e+02,1.855671019050932955e+02,-4.093047916851728085e-01,-8.645114370177010565e-01,-2.917011531844651007e-01
6.770502152307660708e+02,2.934388992729172969e+02,4.881301748604004729e+02,1.562752605587819921e-01,9.142240073808287626e-01,-3.738616151276072941e-01
5.199048921243063432e+02,6.057736344372393660e+02,8.851755935361203456e+02,4.749883967428457539e-03,-9.396564845305332980e-01,3.420864359807558319e-01
5.529016590045912380e+02,5.149445005108976829e+02,4.692699496297900623e+02,-6.160166458616612717e-01,-6.019342590330603038e-01,-5.081325022311299344e-01
5.631154692190385731e+02,6.266592078858089963e+02,6.468036120212375408e+02,6.644340609460247515e-01,-5.639525799141595908e-01,-4.903925634254029942e-01
1.639195728776769911e+01,3.475508147150639502e+02,1.196851975788700031e+02,1.128674171367905210e-01,-6.457789491761350975e-01,7.551360771078524659e-01
5.967656677695906637e+02,5.096352040017760601e+02,5.080336756478540110e+02,1.233330228791967723e-03,-9.056281995484650738e-01,-4.240707996068017738e-01
1.392276621040844304e+02,1.309234380610101312e+02,1.136037842111579153e+02,7.860437531103374731e-01,8.521383287054569433e-02,-6.122694022109268497e-01
5.458599035986184163e+02,8.929207847802628066e+02,7.646716613304904797e+01,-5.416281725382966483e-01,8.231787590600501137e-01,-1.703398172629673191e-01
4.212701526051706651e+02,8.162352188616279136e+02,5.005766816387854874e+02,7.471365743597924982e-04,-9.884943475316841921e-01,-1.512559641298459046e-01
5.746255719390841250e+02,6.803809502400914653e+02,6.502909003906536327e+02,2.639068434838712784e-01,2.070097333710457510e-01,9.420722627548420158e-01
5.347889850751269023e+02,5.054953347328376481e+02,5.021061731441665188e+02,-2.069629425890608904e-08,-4.942509527884943535e-03,9.999877857251889823e-01
2.648287786717024161e+01,3.363005983996445138e+02,2.277892543154533769e+02,-1.061741547522992157e-01,4.497822773781287586e-01,8.868049119277469083e-01
4.137789460863826889e+02,1.452652649451004834e+02,1.471672875757050178e+02,2.454047933527258446e-02,2.776462602970792282e-01,-9.603698865630063697e-01
3.846362162873934381e+02,3.853183718793450794e+02,5.469243711534837757e+02,9.019820742122305890e-03,5.355173952180320995e-01,-8.444760282285541653e-01
1.603147610437586081e+02,3.727085528045689955e+01,4.043223571223516615e+02,2.050383382949763078e-01,4.483331352680530735e-01,-8.700325739016628868e-01
5.397558996578412689e+02,3.808222779283171349e+02,5.419891705514145315e+02,1.054729960745151320e-05,9.876371041879447032e-01,-1.567576164656933335e-01
4.265410610157950941e+02,5.155177540993631737e+02,5.700443196897656435e+02,-2.525826066821770018e-03,7.416494438211386209e-01,-6.707829177032431645e-01
6.101001275184594306e+02,7.065094886160702572e+02,6.845520277853427160e+02,1.254710334037089647e-01,2.129222778881124933e-01,9.689794235976029180e-01
9.646110727927895141e+02,2.110792911527493629e+02,2.512305239759700157e+02,-6.009088103936093272e-01,-1.546596404976436079e-01,7.842123419026743036e-01
5.353380455740452959e+01,3.191604494263976335e+02,6.055066453845995511e+02,-4.558443102273777581e-01,-4.447289544524165028e-01,7.709877572990291306e-01
7.855771390406712271e+02,1.031917382305353499e+02,1.998677282174368486e+02,9.708386029192250452e-03,9.999495128832314172e-01,2.592088983151482305e-03
5.328813460807318734e+02,7.497790703510239609e+02,2.539387879755479673e+02,-3.757436904889009666e-02,-2.327787429218285131e-01,-9.718035931371683533e-01
8.892488440807705956e+02,3.378051856852174524e+02,9.316612849198793356e+02,1.207987997531832780e-02,-9.878586678662689691e-01,1.548848889377612836e-01
4.976671502747043405e+02,4.724231749456008629e+02,4.999413757468836366e+02,-5.619803335328455545e-06,-9.062109649869154460e-01,-4.228258351921052594e-01
4.898935694650818959e+02,4.637614056436792680e+02,5.316483087930294005e+02,2.220899160389258609e-01,-7.571316486491722619e-01,-6.143514757918379088e-01
9.495604208015355425e+02,6.187851631915439157e+02,4.086170825567217548e+02,1.339451309373446836e-02,4.727023003441889748e-01,-8.811203789881913995e-01
4.062343410841867239e+02,4.287399456208570996e+02,5.869325005827465702e+02,8.548389948929489002e-01,3.457682307482931039e-01,-3.869038942885017485e-01
4.149756656761996965e+02,4.249733742987122582e+02,4.029882842287109952e+02,2.366394627869911516e-04,-8.935754567352705013e-01,4.489129616330065353e-01
2.405228798819808560e+02,8.543545579563048022e+02,1.810363303670342532e+02,-8.655423506545378842e-01,-4.589037893145623825e-01,2.006084529030438823e-01
7.385945479917753573e+02,1.890769221708046928e+02,4.493857987312575801e+02,1.837775791135728976e-01,4.788410131201191189e-01,8.584503978502500132e-01
5.869219851547168219e+02,4.502040058266882170e+02,4.540320620256909478e+02,-1.395426757439767740e-01,8.853480780667793981e-01,-4.434936553206496601e-01
7.764131544964690193e+02,7.233102050064409241e+02,3.029980734129095481e+02,-8.471145922191873900e-01,2.868732734313995114e-01,-4.473260473525695335e-01
8.028860608686119349e+02,5.049533338336887596e+02,4.742374187497086382e+02,2.265320570707672325e-05,-9.555028458177522444e-01,-2.949818826996142840e-01
6.374519450526358924e+02,3.873544375295650752e+02,5.582738913741915212e+02,-6.089549951241876591e-02,-4.112796840526368181e-01,-9.094727921299770035e-01
6.949109908974074870e+02,1.649264944546796698e+02,4.408634100501765261e+02,-2.188506316888766152e-04,4.959680640200496149e-01,8.683407347214600058e-01
1.766193387495712557e+02,6.229023523937056552e+02,3.582731227973389991e+02,-1.337602739521330797e-01,-6.784696511311664180e-01,7.223483381348666521e-01
1.183196320008640328e+02,2.894436284690969075e+01,2.013199846690596360e+02,-9.484063120196535579e-02,-5.164197225994552332e-01,-8.510675206959283923e-01
5.096570255095424500e+02,5.472041014473207952e+02,6.675284151914395352e+02,2.732283343496676696e-03,9.502042276570797918e-01,-3.116158859402764492e-01
3.869222195358834711e+02,7.466533964466993893e+02,8.587416355956977441e+02,-3.183631175924790495e-03,-1.606355799056411460e-01,-9.870086498916380569e-01
6.965937734670040982e+02,1.502161760943492368e+02,2.532232785539542022e+02,6.507142259705683829e-01,7.075343298633971489e-01,2.756196077645379217e-01
4.717415034940695477e+02,5.213357495637567354e+02,5.167027317255967773e+02,1.591134399974146213e-04,-2.026440840857527403e-01,9.792524444023408270e-01
2.906095747396930165e+02,0.000000000000000000e+00,7.258428786752242559e+02,9.727087981352139237e-04,9.178275958427080106e-01,-3.969780323231861252e-01
3.222874082098833810e+02,0.000000000000000000e+00,6.820810733682734508e+02,-5.678145513719834447e-01,-5.901801246908614518e-01,5.738240633418162373e-01
1.717715782683773682e+02,8.360198296360468930e+02,3.166224903371275445e+01,-7.636572528622110889e-01,8.915642865612279089e-02,6.394362606079098121e-01
3.994955787833494014e+02,4.618970855241420850e+02,1.885320693097896196e+02,8.457328489667963467e-01,2.854263736765954018e-01,-4.508522301024303069e-01
4.859757720707267481e+02,5.693514338498459892e+00,9.951736550987892542e+02,3.161334171764721424e-01,9.157560181794203169e-01,-2.478922703766696656e-01
9.107635916219418277e+02,8.621992714101302226e+02,7.658694143399472978e+02,8.705343507014142723e-01,-4.883645947225348505e-01,-6.058025148809998567e-02
4.411377093705101515e+02,5.082001139156504905e+02,4.686663400020334507e+02,1.252132641742343712e-02,-9.952492354019836229e-01,9.655141540399771183e-02
8.913251426619623317e+02,4.456046140418172854e+02,8.989952110513665957e+02,-1.598577165985847204e-01,9.745192241311417813e-01,-1.573460906496375877e-01
9.032035222544420776e+02,5.763541239989606879e+01,9.477785552270142944e+02,4.628584813880880916e-02,-8.472427536485158672e-01,-5.291855408570337316e-01
5.892940929645309325e+02,5.430447391001722508e+02,7.023107024252850579e+02,-6.962981763157882753e-01,5.416205724360444451e-01,4.709734654663244036e-01
3.424903709502438005e+02,8.297017186670507272e+02,4.657223069218904357e+02,1.287175622386017718e-03,8.744642138657183761e-01,4.850883237588059504e-01
4.994563474990281975e+02,4.280144040861159738e+00,2.215558115673669874e+02,1.347225503484251463e-01,1.875091594728792999e-01,9.729800355307350879e-01
2.714688198232811089e+01,3.851275791098528885e+02,1.279205497104479008e+02,-2.066084230302258750e-03,9.873423330610807680e-01,1.585901908740110500e-01
5.020629741564064261e+02,5.389366936980507035e+02,6.468099486718944036e+02,-7.584607045960638227e-02,-9.971124106739315263e-01,-3.770155946025848664e-03
1.000000000000000000e+03,4.510423191961198199e+02,3.557379596276414873e+02,-4.124846494703706123e-01,4.224078675396899518e-01,-8.071109015444390966e-01
6.164809711259613323e+02,4.359291435314580809e+01,3.479686219085136827e+02,2.617686930563609682e-01,9.267565170825646792e-01,2.694429612748471259e-01
5.677209904486962841e+02,9.773375822108082502e+02,5.082481275633915629e+02,-5.081837287481844045e-01,5.246223005842819836e-02,-8.596493542444432201e-01
7.729711508320456232e+02,3.647875674190669315e+02,9.635597848613009546e+02,1.659967258320748928e-01,5.291710288347023505e-01,8.321196484010298100e-01
5.705637353507071339e+02,7.808080519451597183e+02,5.869936741467255388e+02,-8.765279878572166394e-01,-4.629609174499041413e-01,-1.317796472029049148e-01
5.713609024339050393e+02,4.308849574011800314e+02,7.099117548530502972e+02,1.522597740859207294e-01,9.257349595057632330e-01,3.461672225156034455e-01
7.930537858964049747e+02,1.146534874456989712e+02,2.151770728415256428e+02,-5.967517708242576768e-01,-6.160371146303822432e-01,5.141844002067604835e-01
6.042132211192881641e+02,3.064044390032204319e+02,6.149968560067484304e+02,-5.983539799610393395e-01,-5.963377656220888445e-01,5.351203453034081292e-01
5.784553907998354134e+02,9.563447020193277694e+02,1.082177072425987348e+02,-1.721477410815559772e-01,5.315562454138000881e-01,8.293449904606053913e-01
4.359498669831896223e+02,5.277497530908606223e+02,4.913136217606603395e+02,-2.431410827421276108e-02,8.847900263503308826e-01,-4.653551691018490422e-01
1.838290233731661090e+02,0.000000000000000000e+00,3.071633914563755638e+02,-1.059829536688566831e-01,9.935357027324538404e-01,-4.067457347722472361e-02
5.137075773299577577e+02,4.969502915124195965e+02,5.691437672442428948e+02,7.110347675146184297e-07,6.928258845629916562e-01,-7.211049117007888309e-01
4.132363051625051185e+02,3.472345085063301440e+02,5.528069040842166260e+02,-5.015498197915681244e-02,-9.546682134549909771e-01,2.934162231392911657e-01
3.130131677065220686e+01,2.485156432234581700e+02,2.986383943463733885e+02,1.383938341713117082e-01,9.709177346951746168e-01,-1.953609457331580979e-01
7.980742499234244178e+02,6.077700892908848118e+02,4.322497166176275414e+02,3.505342589178710444e-01,2.706246085769368759e-01,8.965980451448010147e-01
5.422296658820592938e+02,5.599644118942873092e+02,5.107456037095048487e+02,1.710302012594408505e-02,6.629422686217336658e-01,-7.484751399861192533e-01
7.346381206067326275e+01,7.340272387175969016e+02,2.696788490003048651e+02,-3.610512251868443906e-02,9.951717327387773482e-01,9.126687507310950187e-02
7.846107383459321909e+02,9.261225994550749192e+02,5.773203391957790700e+02,-2.020233534146966686e-02,-3.784310127923155576e-01,9.254090091433804233e-01
3.094305959850699992e+02,2.126827452038935178e+02,8.900882972695736726e+02,6.862742308141852599e-01,4.991088579863344199e-01,5.290728002836430077e-01
4.187281116391584419e+02,8.473273412865741250e+01,9.934071395359387679e+02,-1.379192696956348108e-03,-5.899148978230143170e-01,-8.074642476010731595e-01
1.760188646288743257e+02,4.178427718508436328e+02,3.230326221219735885e+02,-1.925599535516813246e-03,3.962709490124240452e-01,-9.181315957068582057e-01
4.444315253228777465e+02,3.914512088567899468e+02,7.076575954745835588e+02,3.147902432265125422e-02,-9.054010249782549202e-01,-4.233887752362118229e-01
2.202943518702089420e+02,0.000000000000000000e+00,8.454244453931975158e+02,1.603931763164948455e-05,8.160041115360390229e-01,5.780460965174143428e-01
2.393292899504868672e+02,1.052798099407067767e+01,8.735788243683268774e+02,-6.200540600040922445e-01,-5.972686728305510728e-01,-5.087269357206024578e-01
3.536980083669047303e+02,2.872378488577335247e+02,6.156023453240101162e+02,-6.160779485921642762e-02,9.651218380500012906e-01,2.544490466312892551e-01
2.500677494487730712e+02,9.392572402170272881e+02,3.260244792208128501e+02,2.935375786912264306e-01,1.253242257905025081e-01,-9.476969601756161099e-01
1.349587345653404498e+02,2.876567215679658602e+02,1.678447668206534331e+02,-5.510480369141500086e-07,-1.709566872485007369e-02,9.998538583765862464e-01
5.221745513793666760e+02,4.622586139410276473e+02,4.073910844272785425e+02,6.366510254454980089e-01,6.678561017834789837e-01,3.855433816184258289e-01
8.314256649700116668e+02,7.959263791353812394e+02,8.452397621013085427e+01,5.232897412978150531e-02,-5.396479459575571624e-01,8.402629189071204596e-01
4.943816332554318649e+01,7.493535756115879849e+02,1.420100773081180989e+02,-1.586370558329344704e-01,3.222484240321862314e-01,9.332685774874405205e-01
4.652064647789047171e+02,3.771730267367274223e+02,9.918185954707794281e+02,-1.050945907981256644e-01,-2.218021696100867246e-01,9.694116383359716593e-01
6.290060319639627551e+02,0.000000000000000000e+00,8.986766467379252390e+02,2.480316732220716747e-01,-6.583239342257624083e-01,-7.106967614279479095e-01
4.634981400098156996e+02,3.192700929607595413e+02,5.898212437665109746e+02,-3.314581685157788060e-01,2.074222932231370442e-01,9.203865898622276553e-01
7.728742050789589939e+02,8.137788040533038156e+02,5.769225110837871995e+01,4.593691207502877405e-01,6.162975748439190049e-01,6.396540550505496192e-01
8.738727902914399692e+02,3.774394045178529495e+02,9.518304630278859122e+02,-7.404185981631207101e-07,8.617887159954561449e-01,-5.072673939672790455e-01
5.688824760991839184e+02,8.856284010933309219e+02,7.361379226881009572e+02,7.866133161885812131e-01,6.088927831410985148e-01,-1.024161580683939921e-01
4.770545203312030367e+02,6.675566996583257833e+02,2.374482338834884132e+01,-1.505138194811727892e-01,-2.641186783520377279e-01,9.526735610327190518e-01
6.267982621137841761e+02,4.512219314056899293e+02,5.153371378369710101e+02,1.426444731457917638e-04,7.918022152053543206e-01,6.107775631508152170e-01
6.210055721555430637e+02,1.415237939364354247e+02,5.424970276368456723e+01,3.179559640009683164e-01,-8.964040013470440105e-01,3.088104132396181090e-01
4.672241547288563197e+02,4.483109498983611729e+02,5.596558475349056607e+02,-1.825724615489915659e-01,-1.131547061789369736e-03,9.831917492967428007e-01
1.348201202208571914e+01,5.495286758405330829e+02,8.149002678718663901e+02,-5.138660190951640540e-03,4.007621959214360263e-01,9.161677010742468319e-01
1.523122457287912539e+02,8.513101434872264690e+02,1.351632782189111310e+02,-7.919508365088867574e-03,9.176926901495785494e-01,3.972120439177104223e-01
6.226365072304397472e+02,8.314362706682710495e+02,9.253233922849777855e+02,1.661370124083835498e-01,6.197838062358551614e-01,7.669853496878623611e-01
6.850743689594388570e+02,4.383327652201076603e+02,1.447467641396258387e+02,2.757450304452330886e-02,9.979091614406028210e-01,-5.845470293107761506e-02
9.759939474256250378e+02,7.174114526486084742e+02,3.230468757274725817e+02,1.177961623885691311e-02,2.360804217670795513e-01,-9.716621198233175161e-01
6.440020472331865449e+02,2.552693853956420185e+02,1.504517589465273772e+02,-2.919441038988606074e-01,7.619221346393767469e-01,-5.781377871625992260e-01
5.426763105845686823e+02,3.789515430878287816e+02,4.259875736368688308e+02,-3.771394229362322048e-01,6.841354374300355756e-01,-6.242792315300418338e-01
3.973754023652391538e+02,4.036300100984030905e+02,5.395327826674547396e+02,-1.891783592419308269e-01,-9.643449974229133526e-01,-1.850682964203546332e-01
4.236757594826424906e+02,3.510377983913005551e+02,4.299672059275486617e+02,-9.286851213220097268e-02,4.611393220177344987e-01,8.824545116567625858e-01
6.449189293479162188e+01,7.109071799089272190e+02,7.334148585960976163e+01,4.948970825107417149e-01,-8.653136162764109018e-01,-7.943061883805513368e-02
1.475871285155982378e+02,2.431904816954241255e+01,3.266692949290154502e+02,3.429706246494642382e-05,-1.522961652605192007e-01,9.883349011699689157e-01
4.385384026063370015e+02,4.198612471900713672e+02,5.841053557900225996e+02,-2.266737851669694409e-03,-9.430168729007351036e-01,3.327371925770107319e-01
2.363670336342869973e+02,5.120863500479106278e+02,9.375350077313381689e+02,3.306511174315400203e-01,7.319387354174418103e-01,5.957646566697206714e-01
9.301676707552664993e+02,4.764673548119793054e+02,9.266193247842514893e+02,-1.079567191330173259e-01,8.872237677061088901e-01,4.485301916386580934e-01
5.722453500980012677e+02,4.973125943908785302e+02,5.961112955203866477e+02,-1.271746258984092280e-05,9.441028124052043280e-01,-3.296511481048561842e-01
9.652277465387393249e+02,9.692855516366671864e+00,7.610419861814742717e+02,7.730561791738880251e-01,-4.248456256531301101e-01,4.710523731014100157e-01
6.091305404491131412e+02,3.495591068508954891e+01,1.351499940305108112e+02,1.438869990179538969e-02,-9.968064491406709582e-01,7.854850900369191036e-02
3.821270252454751244e+02,3.383656608014446761e+02,4.000051419589418629e+02,2.552600308318385136e-01,-9.668275439968228024e-01,9.317554872419798323e-03
6.326648928941552867e+02,2.105259633078107129e+02,4.503204094229678276e+02,-6.461654707572694889e-01,2.157830598792515875e-01,7.320572760858152783e-01
8.694456399142799228e+02,2.645765909687368662e+02,1.830812669880980366e+02,-3.178053062701456932e-01,-7.120958248452520858e-03,-9.481292524018878343e-01
9.138659313776154249e+02,2.256501851308285040e+02,1.821865438185126607e+01,-6.310211380824202500e-03,3.011453599445093610e-01,-9.535573676587169034e-01
4.485078043438807072e+02,3.405256027677776842e+02,1.130669557620092007e+02,-9.655237611794958985e-01,-2.424484713494674537e-01,9.477660754693739698e-02
4.353709525506662317e+02,5.642895396118537974e+02,4.942441544816961709e+02,5.038755908518764140e-05,-7.800215852813858763e-01,6.257526060322942119e-01
4.897678300065056192e+02,3.325658714795695801e+02,6.302511965038389690e+02,5.247632139075930581e-04,-9.603065499658798299e-01,2.789463294546074557e-01
8.298692744638507293e+02,3.733882425692545581e+01,1.679630703837590886e+02,4.767198893332626024e-03,-1.277145247329130109e-02,-9.999070775909298936e-01
4.371811646859734424e+02,3.949917042652994610e+02,5.723680680529712390e+02,-4.827288383806794397e-02,9.960106437706570670e-01,-7.505015777143722588e-02
6.524154328959151599e+02,8.166530543359600642e+02,5.043696073508875770e+02,1.641487709526545657e-01,-6.182794888949509904e-01,7.686258222350658142e-01
9.153436871577530383e+02,7.216365515097876369e+02,8.052596791942954724e+02,3.994678854227772247e-01,8.587277819529621770e-01,3.209548332990187491e-01
