x,y,z,nx,ny,nz
1.973881036662789938e+03,1.522703147799633598e+03,5.219509635046040330e+02,-3.116189356218194151e-01,7.474492752695341968e-01,5.866968722099790146e-01
2.059042299302763240e+03,1.724762002272951804e+03,1.005021305846453629e+03,9.017070730136880208e-01,2.490911125362782752e-01,3.533807749899910977e-01
1.661450569359368785e+02,2.005777435510279247e+03,1.725233143879843738e+03,-3.228920464586002015e-02,-9.775414315945621935e-01,-2.082550282211492743e-01
1.171219851566137777e+03,2.787661451620546814e+03,2.714644168113586602e+03,-4.817846642377043680e-03,-4.186271738534904502e-02,-9.991117561348404896e-01
2.655106784726332307e+02,2.592979400243293640e+03,4.082849011822872285e+02,-8.398106768124096178e-01,-4.410565954253215515e-01,3.165234694990353148e-01
8.738411565024202901e+02,1.507717849018556535e+03,2.001762274403278525e+03,5.300907909842147471e-04,-6.828689326364447698e-01,-7.305407174440834428e-01
3.251376018808967956e+02,1.251137966399207244e+03,1.365066476040945190e+03,-7.940512598248421205e-02,9.570236218601637646e-01,2.789276127767923996e-01
1.149077968942329107e+03,8.951609444585444635e+02,7.091548106292944453e+01,6.943336834014098846e-01,-6.175525642662546000e-01,-3.694990750494571707e-01
1.455616026651726770e+03,2.073911231892548585e+03,1.384262650380825562e+03,1.316341268368011463e-01,5.191576607699700113e-02,-9.899379828476889687e-01
1.696137154296417975e+03,1.961980448643509362e+03,2.735013567996694292e+03,8.161665928607197973e-01,-1.196740116258525610e-01,5.652877352636439534e-01
4.230643128869992893e+02,1.229904670914569806e+03,2.376891767142213666e+03,3.595757210157131123e-01,7.326020365866398043e-01,-5.779269476717087128e-01
2.602675092936744477e+03,2.720132498370346639e+03,9.287292384000033962e+02,2.599147848294673982e-04,8.146880283050047522e-01,-5.798994300573233618e-01
2.404757121397093300e+01,1.835844531355951631e+03,7.269665535681856454e+02,1.055135026721608447e-04,-7.475600815318962367e-01,-6.641941834786913024e-01
2.499973207383839963e+03,1.145627153713724965e+03,8.537376507850223106e+02,-1.487289102989553247e-01,8.099391291498880818e-01,5.673432103349842492e-01
2.805004053820279751e+03,4.926446879375168351e+02,1.137301972820163911e+02,-1.416299620694763117e-01,3.847618974631570876e-01,9.120851035428381159e-01
2.390376709201569611e+03,1.068553573203260839e+03,3.145737374268048256e+02,5.601471668493919198e-01,5.936164883536690917e-01,5.778015370568495568e-01
4.191217612331132614e+02,6.649791591022701596e+02,7.060408185472371088e+02,7.366625078836221974e-01,5.022880944796870306e-01,4.528079279590599970e-01
7.286296781036132870e+02,4.586615040663372724e+02,2.172599821421035813e+03,-9.547159456156032592e-03,5.407277778469496976e-01,8.411434610166202974e-01
1.624165496908458408e+03,8.739058591584959004e+02,1.765471617184527531e+03,2.495803351488139893e-02,8.105433309669896058e-01,-5.851466527187926259e-01
1.087179343473997733e+03,1.938472996297186342e+02,1.705218783876661519e+03,1.931285215130909561e-01,-5.181829869219434226e-01,-8.331793121788493295e-01
2.699410756267051511e+03,3.000000000000000000e+03,2.311500721061826425e+03,-2.014960192752780418e-03,9.999971991126571647e-01,1.241653036298064495e-03
1.146931959909978332e+03,9.809329829211708329e+02,2.963039049042151419e+03,-2.104779804154984502e-01,6.173665486150154980e-01,7.579957548768969655e-01
1.587941997003236793e+03,4.141785139311445505e+02,1.949371428226825401e+03,6.945545412310798472e-01,4.820159798353579328e-01,-5.340922995500347881e-01
2.577189487104971704e+03,4.281298092033851503e+02,1.208786975836995452e+03,4.298225253586314687e-01,3.930561377598983386e-01,-8.128711270943262956e-01
4.961586496024289659e+02,2.156856777915222665e+03,3.775540868866478377e+02,4.771795515087777217e-01,-7.376540812586110940e-01,4.776673863939176479e-01
1.202342789586803349e+02,1.480598626628624743e+03,1.802275350042600166e+03,-9.211768740093519980e-01,1.265310524370504008e-01,3.679987222254050838e-01
1.095529936184497501e+03,7.461304861200429741e+02,8.961493932392083934e+02,4.687711999230166279e-03,5.091775961508447912e-01,8.606487093665217136e-01
2.409647319429293475e+03,5.369333219692168768e+02,1.829867874690352892e+03,-1.634955165039853608e-01,-2.558682794315981779e-01,-9.527857259970935466e-01
1.157934244472892715e+03,1.275440688165923802e+03,2.971716820227416974e+03,7.959426143342982799e-08,-9.999873297983039588e-01,5.033909301118393714e-03
1.461311567834135985e+03,2.721670493601890826e+02,1.727272218082315703e+03,6.468490690167879795e-03,5.187832658832324251e-01,8.548813260726417784e-01
3.333322307146152639e+02,2.465176596105739918e+03,2.370284510411986503e+03,9.861524615812742312e-01,-1.202812523305987341e-01,-1.141741777065910790e-01
7.119763946126319070e+02,2.039459207092477072e+03,1.063609463203280256e+03,-2.643447815569095489e-03,6.958801822318132491e-01,7.181530367273153415e-01
1.437030962764522656e+03,2.045294299178622168e+03,1.368337586193589459e+03,-4.092464217636964663e-01,-5.797058034067418264e-01,-7.045981463005380752e-01
1.373886192783204763e+02,1.657570831334573995e+03,6.978732327326381437e+02,-3.197818257176333612e-01,9.474631494275007615e-01,7.291393393496160315e-03
1.070750229568056056e+03,1.287727042088194366e+03,1.335105783845868643e+01,-3.274416013254845964e-02,-9.959169486014520789e-01,8.412640171543417367e-02
1.679422309997314869e+03,2.552267896887938150e+03,1.833223638532175528e+03,1.432487351933484088e-01,8.094930587072361738e-02,9.863706249400141512e-01
1.332123751465042915e+03,2.016821787392550505e+03,1.988271202998498438e+03,1.919269405670396070e-02,6.406942463628834128e-01,-7.675562019633106470e-01
2.490170462152108485e+03,2.762000201285005005e+03,6.708840370535453985e+02,9.260486423963198988e-02,-7.958992829938857927e-01,-5.983048307083755901e-01
1.469830633132893354e+03,6.712636807328541977e+01,2.421893811493236171e+03,1.643077825648193990e-01,2.609103494409215074e-01,-9.512774264867469576e-01
2.991353394294641475e+03,1.262247741376253771e+03,2.167883503181868718e+02,-7.360145910010488235e-01,4.569736778474058903e-01,-4.994572850486558302e-01
3.665155329324345530e+02,2.851135803965565430e+01,2.446366240373355595e+03,7.415353657278913602e-01,4.286918447110666386e-01,-5.160897244210789214e-01
1.297617815150554407e+03,1.572287432960057913e+03,2.280941138883305030e+03,-8.021768553879786712e-01,1.562609637501003734e-01,5.762766730379983438e-01
1.789199809403004338e+03,2.309925410537438893e+03,1.210004168392077872e+03,-3.138265892509719776e-04,-9.562738694612783474e-01,2.924725424692475317e-01
1.439712984845465598e+03,1.495441463059684111e+03,2.212537376702949587e+03,4.115060552974493246e-01,2.172776321089033014e-01,8.851289154912298507e-01
1.738851950746879083e+03,5.448495803221531730e+01,1.566120191127101634e+03,8.869259502816324581e-01,-2.543164875248179468e-01,3.855975659804694033e-01
1.776256340929308408e+03,8.288020970708608957e+02,1.150211648717928483e+03,7.128896623024920387e-02,-3.531997071450486136e-01,-9.328278781031762446e-01
2.878724316810259552e+03,7.348037626198885164e+02,3.432290602411522968e+02,-1.901136408092997665e-01,-4.171855829659842363e-01,-8.887142358168707013e-01
1.653186562332413814e+03,2.547722888362169215e+03,1.803167341042492126e+03,1.406131621859224232e-02,-4.002335423208935872e-01,9.163052935498464668e-01
2.813058517889520544e+02,2.937287639351376129e+03,1.630325374502680688e+03,8.053450616057965250e-02,-7.982678602752064645e-01,-5.968941418451978453e-01
7.471081173807361893e+02,3.255189076156089527e+02,5.935724662716562534e+02,4.289110426672111398e-01,-5.891293055962649738e-01,-6.848079867859228065e-01
5.860626429820157455e+02,8.906908170049488263e+02,7.309691400564089463e+02,2.859318892114389929e-02,9.330338115715959280e-01,3.586507158943077478e-01
2.049283156628391680e+03,1.017546523708083868e+02,1.311932459932085521e+03,-5.827182000044956595e-02,7.171089804092597442e-01,-6.945207737787453262e-01
1.135745736277655624e+03,6.088658969617118828e+02,2.709024879967670131e+03,9.819412319769105224e-01,-1.473747571436427872e-01,1.186258736554528515e-01
2.916969104171805157e+03,6.875499917972149433e+02,2.450703781384114791e+03,-8.988500397011416343e-01,1.323557010944480528e-01,-4.177925017482402303e-01
3.289637182448558406e+02,2.736187620921507005e+03,9.722744208202677783e+02,-2.244331827036872284e-01,-8.655490388107918154e-01,4.477215741006990157e-01
2.739325604951658875e+02,2.669496797676772530e+03,2.503556342350899740e+03,-9.528295126546935112e-01,2.710009924803468140e-01,-1.366542421181515810e-01
9.573036584839416037e+02,4.262980343087864981e+02,2.255617962486354827e+03,-5.329933730004439082e-03,3.026804464626445812e-01,9.530771947411226241e-01
2.617485313594997479e+03,2.480535627601620490e+03,2.849372819596289446e+03,5.563188348398421246e-01,-4.842106217479763552e-01,6.753143177727528590e-01
1.425152222241863456e+03,2.572241535734761328e+03,1.030577142067759723e+03,-7.744269092538893506e-01,4.364762877834557075e-01,4.579862579010884893e-01
9.457675942921659953e+02,9.390498564465293612e+02,1.963651333073060869e+03,-1.493785615479971129e-01,-4.988077220768264430e-01,8.537428780062406020e-01
2.049358746985144535e+03,2.523069946609586225e+02,1.126503627526986520e+03,-2.748362308235059448e-01,-7.349902376399211068e-01,-6.198825669437242336e-01
2.494140578368078138e+02,2.750093133940180905e+03,9.691545354338792322e+02,-4.950894534221345717e-04,4.886269765516841335e-01,8.724926547956682876e-01
2.767936356358794683e+02,1.463985221694983920e+02,2.741702988631246285e+02,2.957803013820684349e-02,7.983562606564023056e-01,6.014585781280953336e-01
1.503163054140911981e+03,1.516981486064745923e+03,1.484904960986526021e+03,-3.110496784592474244e-04,6.254914292978489554e-01,-7.802309754957384991e-01
2.934985727308001970e+03,5.651636598980480386e+01,6.930732283727462573e+02,9.375633725083720726e-01,3.389204120551900234e-01,7.815290668342346481e-02
1.280314175416037870e+03,1.185914851453913570e+03,2.610038206865968277e+03,2.295832622529692113e-01,-5.344140197848070706e-01,8.134452539358307810e-01
1.062783906491330981e+03,2.744424626995011749e+03,2.686580548912181257e+03,-1.220650617350599668e-03,-9.506520490472217810e-01,3.102566544884881594e-01
1.114733697510196407e+03,1.270179426206082553e+03,0.000000000000000000e+00,1.942723609439287163e-03,1.431113963013580237e-01,9.897046802322665426e-01
2.094000194902423573e+03,6.609199944394979411e+02,1.887069063545975723e+03,-2.124790004523463838e-01,9.710134612852090452e-01,1.094784561897441666e-01
1.376043659487383820e+03,1.322390363036450026e+03,1.563773078377704906e+03,-4.071987583447126968e-01,8.710973817921826567e-01,2.745514935987940497e-01
1.881151393390748126e+03,2.384811772494839715e+03,1.327130487643518336e+03,-2.427487939735696876e-01,-9.266636644260504152e-01,-2.869973450345171262e-01
1.455436491998925703e+03,2.317364627247700810e+03,2.914274982174346860e+03,4.654303319986531906e-01,8.203422136881686200e-01,3.322849056108607146e-01
3.983029837088317890e+02,2.473119138083769144e+02,1.952566550394752767e+03,1.239842047128985741e-01,-3.338084751872590905e-01,9.344516139826968271e-01
2.677356148852880779e+03,1.112768411189847029e+03,1.652638131162321770e+03,-4.042051073164080327e-02,1.016402619276478569e-01,9.939997180419481992e-01
1.733806423170467724e+03,6.007571458271620486e+02,2.218728277077178063e+03,-9.582995584734227412e-02,-3.216215620363260252e-01,-9.420064704637702846e-01
1.884381315095114587e+03,5.352406153566906823e+02,2.138185049981988413e+03,-2.527881432524439198e-01,6.655181622120374119e-01,7.022704111643135461e-01
5.750992006625920112e+02,4.504525223609071531e+02,1.614740729315513590e+03,7.520247473345404998e-01,3.935541594995093928e-01,-5.287474850408795390e-01
2.447693424443792992e+03,2.309081585614732830e+03,1.386868597137699908e+03,-7.996820293714417341e-03,-2.229609508029210541e-01,9.747945759401041022e-01
9.379519577498488161e+02,1.710966880022593159e+03,5.932393361692984399e+02,-7.885603142904417107e-01,6.067215706392955488e-01,1.003073598852364245e-01
2.501121983321944299e+03,3.006556293798414572e+02,2.920980857779015878e+03,4.198380197794507329e-01,-8.758035834339747416e-02,-9.033635580319319125e-01
1.959739294252494346e+03,2.797434936317356460e+03,6.344437430253240109e+02,1.881606594808491462e-01,8.985629513021070602e-01,-3.964595676370782917e-01
6.165273132950277386e+02,2.979686608564905441e+02,1.573065524261550991e+03,6.749565831633507207e-01,-4.625740647600727895e-01,-5.748554996308192777e-01
2.691823408513888353e+03,1.763204098081228267e+03,2.584790441394658501e+03,-1.676927587552022869e-01,2.918170764784204785e-01,-9.416591381899594992e-01
3.401665661873077511e+02,1.248397948800296945e+03,1.421404043510743122e+03,-3.375676608845843557e-02,6.601179071339194904e-01,-7.504031112837841189e-01
2.691702494761160779e+03,6.093763265803213471e+02,2.523840101246849827e+03,7.746678803888047415e-01,-3.276827614438787006e-01,-5.408453410601133937e-01
2.367225606506514396e+03,1.399403110750113228e+03,2.020664762091321336e+03,5.908155300787029107e-01,-2.419517089079386840e-01,7.696729045343544406e-01
2.590554483017540861e+03,2.796027766728746883e+03,9.784895288107046554e+02,7.967209692534242826e-01,6.043390283925503814e-01,-3.167950983275158450e-03
7.926684465917008993e+02,1.491392567258212466e+03,1.944218455328865275e+03,-7.749740360893223046e-02,-6.264944407100578871e-01,-7.755635810127149421e-01
1.024427880106555449e+03,1.800406082685412912e+03,3.292280318438319000e+02,-1.866927585733106632e-02,-6.715934973934862828e-01,7.406845701091310241e-01
1.165987243238992278e+03,2.350925502811661772e+03,2.616811254269160600e+03,6.181096268517698444e-01,7.169902705618836913e-01,3.222816177084300016e-01
2.998872785222450148e+03,2.620470481936983106e+03,1.019284514225908424e+03,2.982744170474767587e-01,9.420446925870399335e-01,-1.535713817857267682e-01
8.542549373580792462e+02,1.495976665597505416e+03,1.915361682699533503e+03,-3.003375654378001732e-04,7.853965230336455994e-01,-6.189929009318336783e-01
9.935821332828577113e+01,1.350841029952247709e+03,2.666026399544597098e+03,-2.582198767504175277e-02,-9.856185815719389343e-01,-1.670007084195422598e-01
4.398491155044960124e+02,1.359198553172428547e+03,2.949607145185153513e+03,7.272203148052936994e-01,6.047572046321554595e-02,6.837348177246385106e-01
8.990478247119411890e+02,3.841732546817692651e+02,2.197297302644250976e+03,9.556808826609518651e-03,-8.256399885579149278e-02,-9.965399407439686774e-01
3.340937504387459853e+02,2.237769117559962069e+03,2.994945462289041643e+03,-3.829887894984113084e-02,-8.918176172885945441e-01,-4.507710431747800617e-01
2.728376081663740024e+03,7.952994394115002024e+02,3.660228949059369370e+02,-6.193310698047982399e-01,6.712350414570158463e-01,-4.072745328333731152e-01
1.765289269160528875e+03,8.248592502126042518e+02,1.211226187670225954e+03,-2.206782361748150373e-02,-7.799369403588154448e-01,6.254689282646398452e-01
4.559132180004266388e+02,6.263574526475276798e+02,1.874630769028253098e+03,8.318797206241774767e-01,-5.751951930114555106e-02,5.519670599896390195e-01
9.534353018793406136e+02,1.886578500546204168e+03,2.233950150880127694e+03,8.828411146347661109e-01,4.321658378710636073e-01,-1.839137158768902047e-01
4.045993256201381314e+02,2.448234417165818684e+02,8.741726159966933096e+01,-6.750486557909259888e-01,5.912122207223667603e-02,-7.354005666407588127e-01
2.353996024303293780e+03,1.934730361971483035e+03,2.935144237597960455e+03,2.817768093879574054e-01,-8.806070983139492325e-01,-3.809632109406753675e-01
1.228924543107249747e+03,3.896359145039621694e+02,2.960959995798622231e+02,8.218954454968649959e-01,-3.630269003091270985e-01,4.389753368054485350e-01
2.557106503857607095e+03,6.801903009122200672e+01,2.454339669439123099e+03,6.536736685524952017e-01,3.612155881398801949e-01,6.650067923907867495e-01
1.820498036198009459e+03,2.265722837291742053e+03,1.281701009237639482e+03,-6.331275744195746791e-02,6.537208623814987352e-01,7.540825742796909426e-01
2.270934698720728647e+03,8.957763466671915467e+02,1.508321102489249824e+03,2.304961283825857354e-01,-5.367536325995158064e-01,-8.116446714491893921e-01
9.555056664672829356e+02,3.623917077454705122e+02,2.253069027874268158e+03,3.644406620577370637e-01,-4.112884828612110577e-01,-8.354787775309685527e-01
3.851364771402558631e+02,1.655678831347680898e+03,2.018804659912652824e+02,7.355996578047997447e-01,-4.536273862480571517e-01,5.031056925569592497e-01
1.084842080070623524e+03,1.335575819016532932e+03,3.000000000000000000e+03,1.967442703444280062e-07,-9.852783350273928153e-01,1.709578969384274727e-01
1.141944258167416365e+03,6.492250237041097307e+02,2.478097565956272319e+03,-5.533361450350432476e-02,-1.071869145391121103e-01,9.926979180282200499e-01
1.528842346311448864e+03,2.986566079127456760e+03,1.444288549527833084e+03,-5.863343463199064409e-01,-4.469252818174443975e-01,6.756255078059190122e-01
6.135226419759839445e+01,2.438803240951950556e+03,2.912204854160251671e+03,1.242331836613014273e-01,9.899822408035929833e-01,6.709157153379356753e-02
1.677673399198495190e+03,7.152210262126634461e+02,1.600056134356981374e+03,2.426860855837940315e-03,-7.041802266856015402e-01,7.100171256324745439e-01
1.187831218008324186e+03,1.710649364537158135e+03,2.642479081767102343e+03,-9.171255388795106489e-01,-3.962768421117555118e-01,4.295823949956356635e-02
1.383416052242530668e+03,2.646299302660086596e+03,1.384418869280797708e+03,5.787998017123086036e-01,-1.737292067709482746e-01,-7.967489894894936864e-01
2.384511462798999673e+03,1.606647419921002893e+03,1.260607944489718648e+03,8.773018439206589636e-02,-8.089003687671090237e-01,-5.813635765637276132e-01
2.700550246729585524e+03,1.159700112044189609e+03,1.625757091529485706e+03,-1.061876414677535158e-01,8.069362042334983220e-01,5.810147563502581214e-01
9.569178797723132845e+01,2.858429385520297274e+03,1.670496021392468492e+03,9.506913312575241415e-01,2.916721597097856056e-01,1.054198459590314219e-01
1.553851110195588774e+02,2.040961440084763126e+03,1.784283091514986609e+03,5.494074168666548963e-02,-5.987569002520647388e-01,7.990442348853148413e-01
1.333521947250709445e+03,1.677488173179116075e+03,1.308706157188647467e+03,-9.869412451829277788e-02,-9.947796041047995974e-01,2.594241782614004066e-02
2.801895091014445711e+02,6.322647635534527808e+02,8.784068482161806060e+02,4.319028785702884177e-01,8.965914923452315000e-01,9.789585965121050393e-02
1.326788157868063081e+03,8.651549127346743262e+02,1.454095191016743001e+03,-1.049587165831119412e-01,-9.854793988322400056e-01,1.334691810511806354e-01
2.107388212092642334e+03,1.458491241042300146e+02,2.457785533277465220e+03,1.651147713364261305e-01,9.168653890362000736e-01,-3.634487180800300976e-01
3.422097815652221016e+02,8.811152860325769325e+02,2.636714932909855946e+01,4.554401133538182878e-01,-7.409852145613344820e-01,-4.934726081048008695e-01
2.500886417071906180e+02,2.981928429344274605e+02,1.210060601478968692e+03,3.113738123012961267e-01,1.513653926327266086e-01,9.381550335238295624e-01
2.433407244503999209e+03,3.197276565447211283e+02,2.055366402474915958e+03,-1.049636207762343620e-01,-4.938011672111580763e-01,8.632166851807492325e-01
1.096677248946112286e+03,2.192549947757438986e+03,1.176546251645340362e+03,3.154709047159222068e-01,9.027832850541265275e-01,2.923361908908941875e-01
6.068889070117484152e+02,1.923122917456043524e+03,1.148539831680607904e+03,-2.114073516766724059e-01,-1.665818782669875597e-02,-9.772560751591090611e-01
1.701188695104353428e+03,1.768108433659998582e+03,2.174305514450582905e+03,1.059497185305148526e-01,8.342577368486324418e-02,-9.908656808207593203e-01
1.171672072467744329e+03,3.726520141760072420e+02,1.666176716121271284e+03,3.622469943823221072e-01,-6.419384981178983818e-01,-6.757899671459401958e-01
1.531699671426208624e+03,2.347361391445396748e+03,1.615016579230787556e+03,6.110949231214481969e-01,-7.894554051994617794e-01,5.764683977934149245e-02
3.812999440801402216e+02,1.680734163109950032e+03,3.851397371803058149e+02,-4.348922991361901524e-01,8.347678998164334008e-01,-3.376851219525368042e-01
1.661099888071205669e+03,1.782359964172770333e+03,5.704230683827158828e+02,4.612369310111320009e-01,4.003941630399804330e-02,-8.863731373487507836e-01
1.115766094016043098e+03,1.380251410858998042e+03,2.958295882769370564e+03,-2.521709327834230699e-03,9.732181032609029669e-01,2.298698859514147486e-01
2.800880786940150756e+03,1.333419857077377401e+03,1.541608944904978898e+03,5.309107626635610477e-02,-4.945958720004182685e-01,-8.675000063521763893e-01
1.730498626655073622e+03,2.560490079892244012e+03,1.707687067771856618e+03,-8.063160939835527230e-02,-9.966902343668058162e-01,-1.034989293050414712e-02
2.900936036869282361e+03,2.212922208487838816e+03,2.402026176625535300e+03,-8.338040631662911595e-02,7.197704248447516218e-01,-6.891866534990934712e-01
1.381126064175214651e+03,1.862919923427753929e+03,1.703334911995495077e+03,8.088471402292780610e-01,-5.855252197206217701e-01,-5.409732723560645856e-02
1.157726146852426609e+03,2.670949443618066653e+03,2.233533069058722958e+03,6.319487718000359466e-01,-7.509834642908402857e-01,-1.914799889861977800e-01
2.478429522174917565e+03,4.059231113278494263e+02,6.674285557721216264e+02,-3.484039584740007967e-01,7.923230938414429492e-01,-5.008380942831434091e-01
2.411467040830164478e+03,6.347834785287602699e+02,1.913310364708918542e+03,7.033423546358077982e-02,-9.926619736157180629e-01,-9.836311025532507024e-02
2.109212873068149293e+03,1.712294456921714982e+03,9.738990555581231092e+02,-1.584135634221980546e-02,8.966358736483313885e-02,9.958461189009614190e-01
7.104251799093581212e+02,2.876735540265930467e+03,1.239814373569937743e+03,-3.951497875316706265e-01,-2.340806140889589715e-01,8.882921318583270054e-01
1.400306789158386209e+03,9.149049983046583066e+02,2.607496244643665250e+03,3.449244572013125398e-01,-9.366357774582370066e-01,-6.115994775655009263e-02
2.082564180398715962e+03,2.276210790362178159e+03,1.300533971372613678e+03,-5.392237277919246239e-04,-6.910214212448717586e-01,-7.228340782077784521e-01
9.124380696491405160e+02,1.506468247762575402e+03,1.999358836316647285e+03,-5.925840907405970602e-03,9.046753385070909204e-01,-4.260603435038523013e-01
2.104040768842810394e+02,1.975549390607930491e+03,2.498375261565536675e+03,-9.006401763352530621e-01,-3.562467509451014425e-01,-2.488684897930292239e-01
6.944814376892985592e+02,1.598098955607464632e+03,2.660489964035109097e+03,-3.139446714643395753e-01,6.925632374056316098e-02,-9.469119837033905807e-01
2.005741882476783076e+03,1.257670898508061782e+03,2.124981152248335093e+03,-9.048748743477450507e-01,-2.166674874520221894e-01,3.664105097501715314e-01
2.700290028920938312e+03,1.176303264662700485e+03,1.552708874800274998e+03,8.820223752542188586e-03,-9.521130847957293142e-01,-3.056188433551105810e-01
1.866669293808322209e+03,2.807519866896742315e+03,5.663779686203571373e+02,3.555632402255129443e-02,9.775439010547701812e-01,-2.077105421797969254e-01
6.354543580161096088e+02,2.865892554703079895e+03,2.359376224751029838e+02,-6.858934554642460713e-01,-6.191893733176154768e-01,-3.823018280388612578e-01
2.453244192635438139e+03,8.760216826962092682e+02,2.365162211502337868e+03,-5.629652695915393634e-01,3.216273200107853669e-01,7.613317097405082334e-01
3.144950753905094416e+02,1.195693992992753692e+03,2.101203905010206370e+02,-1.506070629089084068e-01,-5.507446025507146958e-02,9.870584159154739412e-01
2.654708872218905071e+03,6.503222521535823262e+02,2.336394260203147951e+03,1.524787000418180161e-01,-8.723387167021551258e-01,-4.645163176638626990e-01
2.820698129776405040e+03,2.809805305059180682e+03,2.476896994493742113e+03,-8.743557399655951246e-01,2.554830410059548695e-01,-4.125899365563419630e-01
1.857645330937658855e+03,2.080617880652936492e+03,5.246004109210737170e+02,-6.027285941117691559e-01,-3.865930770468770875e-04,7.979461713585966898e-01
2.303039130101049068e+03,7.579109382400001778e+02,1.187509645130581248e+03,-1.132967518012812681e-02,8.480437956830446655e-01,-5.298050198552362033e-01
1.733629187695702967e+03,1.746803274445180705e+03,1.218541777101103889e+03,6.238306974868997740e-02,7.982323818638394908e-01,-5.991105216508150200e-01
2.195520773308621301e+03,1.268722723249955834e+03,8.317953129097223837e+02,-1.457114485239641710e-01,9.656452866812673674e-01,2.151681995075043208e-01
3.208405539759004341e+02,0.000000000000000000e+00,2.438680769087752651e+03,-6.375704953280780796e-01,-4.922551680114527484e-01,5.926117726244777284e-01
4.547307673093451967e+02,1.116036635558234138e+03,1.208706778275995475e+03,5.675728185038330905e-04,-5.665478728545555454e-01,8.240286315566188735e-01
1.732549428881556651e+03,2.478665936789169848e+02,2.587339588329100934e+03,3.872502507717195952e-02,-9.430151733225389243e-01,-3.304886614034351910e-01
2.801269387131749227e+03,8.268338973570034796e+02,4.055793482992278314e+02,5.443635687316968758e-02,7.894242795676005287e-01,6.114294643534541329e-01
1.573530007950785432e+02,1.274610881737201680e+03,2.713315606232795744e+03,4.008409722123348895e-02,-9.470550372364411329e-01,3.185592905489366689e-01
1.235692745997077964e+03,8.522854834251266993e+02,1.558851799349621103e+01,8.696633973879647206e-01,-4.441634901868546370e-01,-2.154167338640500251e-01
8.498416172385807386e+02,1.717590561485532362e+03,2.576343162415318602e+03,-1.005553365547542585e-02,-5.578390378835769159e-01,8.298882419073237982e-01
1.524948861655084556e+03,1.110187069554394384e+03,6.584547590946734772e+02,-1.170413470867241734e-01,7.102507039634272656e-01,6.941507477425785666e-01
2.870671523308245469e+03,2.026989930830406593e+03,2.924770850301870269e+03,9.753093640183486679e-01,1.070911454422151521e-01,1.931401849072292010e-01
2.638579419137634432e+03,4.350262520608254704e+02,7.743721892013282968e+02,-6.520797196815255603e-01,-7.456947847041015542e-01,-1.368624391320222566e-01
2.874440118436588705e+02,1.021758171666636372e+03,2.193822858244638155e+03,-1.346677287704904462e-02,-8.209561849679697376e-01,-5.708323645266748514e-01
2.186430264987971896e+03,2.188281576909277192e+03,2.685873873090919460e+03,3.136882047830347742e-01,1.612690737032535515e-01,9.357307283865863301e-01
2.667211840936015506e+03,6.303218422812911967e+02,1.602486150759121301e+03,4.972932078967657321e-01,-2.877364879919949159e-01,8.184785756864847439e-01
2.637500959836873335e+03,1.212338854163052929e+03,1.570282008247007980e+03,-6.047348401527724397e-03,8.108162260480881178e-01,-5.852695764811685075e-01
1.271067670230585918e+03,1.814946515076407877e+03,2.013500193128921012e+02,9.187240713638243905e-01,-3.885682849636821756e-01,-7.043272404970113421e-02
2.644768035406666968e+03,5.957730776014888079e+02,1.448485127338432676e+03,9.534256146745558047e-02,9.952805837112278509e-01,-1.806531650047138449e-02
2.529654668915249260e+01,3.706382034879765115e+02,1.929047248212082195e+03,-6.381272199175452853e-02,-9.464226275531456567e-02,-9.934640298533998770e-01
8.651120133453971448e+02,2.522357688582699666e+03,2.871362094747183164e+03,3.632824035291818410e-01,9.281759781935261522e-01,-8.071709106844449089e-02
6.293952271687959410e+02,8.444311746478740588e+02,7.099069093284869041e+02,4.844384487787843294e-03,5.116890619853838862e-01,-8.591570495453392242e-01
1.274914984903373806e+03,2.020361498394483078e+03,8.063093386741910535e+02,6.245065673806525774e-01,5.433460636610027983e-01,5.610406423803251386e-01
3.676091732818379683e+02,1.013388067011733142e+03,1.799450314651506915e+03,-7.641395611902495055e-01,5.837619552116919408e-01,-2.744316138337486444e-01
1.056856356634167469e+03,2.507428083984251771e+03,1.185865481588710963e+03,-7.358275610008577772e-01,6.455262254590860005e-01,-2.045817506916836059e-01
1.438246565691503974e+03,2.637639839009276784e+03,2.795794088984041991e+03,-1.262976514439448084e-01,9.866292585744180776e-01,1.030126660398518190e-01
6.965469289334241694e+02,2.690657929732499724e+03,2.526912425624381285e+03,-8.482050323967721406e-01,-5.175983266781645220e-01,1.124286228535906901e-01
3.000000000000000000e+03,1.106671189980930876e+03,2.942620763625793188e+03,-8.980747349034182148e-02,9.959536527486833046e-01,3.307458516273469387e-03
2.056126718084855383e+03,6.865444915391168479e+02,2.057469068059717301e+03,-1.246466086451859384e-01,-6.946277924293975392e-01,7.084881459402943005e-01
2.363155651140334157e+03,1.808751639166184759e+03,2.209653328269207577e+02,3.042968415068307841e-01,9.075582208595718292e-01,2.893812502550490162e-01
1.151794306034088777e+03,1.686077627841154708e+03,8.276462419297706674e+02,3.006658880664496714e-01,8.020880219563429891e-01,5.159988651027966888e-01
2.843018501001870391e+01,2.004330789034783038e+03,2.092061195457367546e+02,6.980743110488512038e-01,4.875477820763427506e-01,-5.243943329652893670e-01
2.314968941612025048e+02,1.059124850354103501e+03,2.937953618196543175e+03,-2.053367509048626208e-02,1.212113877216329655e-01,9.924143125095861162e-01
1.743757278815928203e+03,2.484282875212117858e+02,2.633989277744304218e+03,5.677134584949807827e-01,2.808359014147951416e-01,-7.738427653730486355e-01
1.342669471939891991e+03,1.267590917789210380e+03,2.356916466000704531e+03,1.339653538862703788e-02,-1.628802016344486348e-01,9.865549010344547565e-01
2.822470591194418375e+03,2.724118120724820528e+03,2.549279726646249401e+03,-4.685757407470743374e-02,-9.560256174980314992e-01,-2.895157792579550748e-01
2.805367092212969965e+03,2.224807523859401044e+03,2.372466411811676153e+03,5.377019493005783662e-02,-9.845976649857188789e-01,1.663616669844760199e-01
2.673701249496796208e+03,4.426701333986773648e+02,7.310239626017372530e+02,-7.596964087975726088e-01,-6.395945255447299527e-01,-1.173891364363980894e-01
2.373137391335331813e+03,1.734370187884086590e+03,3.104638771060203908e+02,-4.493648120938463220e-01,-8.250900196525702279e-01,-3.424875546959096906e-01
2.525498626057144520e+03,1.833684000512820148e+03,8.462699649141346470e+01,-4.346630407881040686e-02,-9.332317849672592258e-01,-3.566358309768549173e-01
1.083258272180845552e+03,1.385269974822714630e+03,2.419255211682079334e+03,3.081705262901829889e-01,-9.506317256611310773e-01,3.647257726802189542e-02
2.376630778695023764e+03,4.766235576383203352e+02,1.774545447337370661e+03,-2.972994046302339655e-01,-9.063906946440148937e-01,3.001149324329742130e-01
1.994942003122841925e+03,5.655378900082969267e+02,4.025541567062878130e+02,-2.309086183978874829e-01,-5.683179727064572306e-01,7.897441939314282511e-01
2.700560807117371951e+03,5.752189079534095981e+02,6.742291038753597832e+02,3.838196260938084858e-01,-5.962402637274728523e-01,-7.051099506711011600e-01
1.088534259230523730e+03,1.734202967380974087e+03,2.707219704878403263e+03,6.133278586140174932e-02,9.937873542185448050e-01,9.287079182274694811e-02
3.173087454529874094e+02,6.034831957523556412e+02,6.027697526691874828e+02,3.828198658628067380e-02,4.686178391581647951e-01,-8.825711361277005507e-01
3.445567807445292488e+02,6.340188186529767336e+02,2.607231049052577418e+03,-4.429676260758591555e-01,-9.552727256010749846e-02,-8.914338014939442445e-01
1.472633034079538447e+03,2.087488496998869891e+02,1.830858773099672590e+03,-4.710728871976982771e-03,9.113568682005964705e-01,-4.115901697284513050e-01
9.121143654636783822e+02,3.848635199309400150e+02,7.711278201934975414e+02,-9.264648462571852816e-01,-3.763523815813569762e-01,4.666211277988053553e-03
1.673889489788081391e+03,2.589974427950704012e+03,1.730516314121203550e+03,-1.290175126449379650e-01,9.353767633243976753e-01,3.292792007760087514e-01
2.287062278906501888e+03,2.846750890841699857e+03,1.742151634512540568e+03,2.433999483121821739e-01,-7.600314007277608752e-02,9.669436322044346888e-01
9.040601184936130039e+02,2.525682770693786551e+03,1.754666531513029668e+03,7.196219366889545777e-01,2.444903340356788246e-01,-6.498990266181050579e-01
1.445126613672412759e+03,1.460236940893800920e+03,2.421374650309822755e+03,-5.305801136172634269e-01,-7.318907158802774315e-01,-4.275754004174547873e-01
5.413677294504066140e+02,2.836796868403486314e+03,1.459378215142649879e+03,-3.959493322421963821e-03,5.383309312629390719e-01,-8.427242317972151175e-01
1.393391822077005884e+02,2.006183368711377170e+03,1.733880832351025447e+03,-7.480293436769901334e-03,8.743228992152561885e-01,4.852870419843586802e-01
2.080484495784608953e+03,1.507827342449054640e+03,2.837136645527718883e+03,-8.211638083193136817e-01,3.414449483436996641e-02,-5.696702145794769745e-01
8.843453983808774410e+02,3.760680510381686759e+02,2.232832529962156059e+03,-5.207995340593776428e-06,-9.926283627163210443e-01,-1.211979104770070370e-01
2.393080030299648115e+03,2.239114148430533987e+03,1.254460808307245998e+03,5.329340490411434150e-02,5.000982790104121500e-01,8.643272090617939440e-01
8.023072504598926571e+02,1.940348354372566746e+03,9.151499243891959168e+01,6.952508014512952528e-01,-7.187647051488091909e-01,-1.903080050152494923e-03
2.498460917242397500e+03,2.677007356378454460e+03,7.064509203363938923e+02,2.045263683147910960e-01,7.180546231427412662e-01,6.652567345373501251e-01
5.997090725289830289e+02,1.646434210960797145e+03,1.187765905468821529e+03,-6.294910899970572737e-01,-7.592697568517565720e-01,1.650769637005453649e-01
1.355115797338838092e+03,2.958124957273149903e+03,1.362681793798473109e+03,6.186330747857710088e-01,7.235963362919257680e-01,3.061069435442538289e-01
2.226953035900806753e+03,1.249624644685114390e+03,7.938408977840575744e+02,3.779743230190089898e-02,-4.044279571293186992e-02,-9.984666916759443733e-01
9.757447239172707896e+02,1.730187211738854330e+03,7.442107970544341242e+02,5.793951022605648982e-01,-5.245172017128607589e-01,6.238453498935290220e-01
5.472608447926194231e+02,1.088790787468351340e+02,2.174609306634506993e+03,4.719372247621032856e-02,4.104960151411571334e-01,-9.106403099534245982e-01
8.977114977225240864e+02,1.959201368643393607e+03,1.278513603996168655e+02,-9.404991114763061599e-01,2.731856997344465632e-01,2.020668076970573435e-01
2.163122291819172005e+03,2.725283693530060418e+02,7.468171413493793125e+02,-3.435151815760691396e-01,-6.489991253614852962e-01,-6.788206355929286007e-01
1.422571522727906540e+03,2.857437402420013314e+03,2.371777762938800151e+03,5.844807150043641597e-01,-7.386628474761178786e-01,3.357968009771100104e-01
2.334054946231544818e+03,5.720491473368905133e+01,2.620597582042342310e+03,6.178260994248047089e-01,6.030817522762285110e-01,-5.045624945841349351e-01
1.763417233142163013e+03,2.675673665585896288e+03,2.774167555527030800e+02,7.510169873280078123e-01,-6.594563092300187446e-01,-3.302818435041343648e-02
8.192029864916289625e+02,2.234544362851471760e+03,8.469943090010601736e+02,1.268157596104106943e-01,-8.860882584492633107e-01,-4.458310906080754643e-01
8.348851641290949601e+02,1.718926234478074321e+03,1.608202003145509480e+03,-2.335014269612102067e-01,4.687076987748693691e-02,-9.712261397523083151e-01
2.635540540999566019e+03,1.136390302259553209e+03,2.559376563133306718e+03,8.924277844381340863e-01,-9.216825883635709413e-03,-4.510961091424686709e-01
2.492494990678082104e+03,1.311136094181387307e+03,3.662046483197997304e+02,-4.953503586913431955e-01,-8.494441700472012968e-01,1.818588026936807100e-01
2.821607822599880855e+00,1.104950112438033102e+03,1.691817751575044667e+03,3.014121884295398734e-01,9.225092917328477915e-01,-2.410960375714938930e-01
2.861875209670539789e+03,3.764963433743419046e+02,2.456004119445384731e+03,-7.743322826034024775e-01,-2.971570443420976093e-01,-5.586655592714420138e-01
1.633030001886026241e+02,4.245500572904389287e+02,6.648530382545995963e+02,4.363480448180715073e-03,2.059613343405009567e-01,-9.785504017653147146e-01
2.410360766991349919e+03,5.573285537191832191e+02,1.779837909648077584e+03,3.573215285665062857e-02,-9.693203902333007438e-01,-2.431896262799682351e-01
1.168560761543215904e+03,2.161126299906014992e+03,1.006222778501366292e+03,-2.563926285692209039e-01,-7.039956172735203355e-01,6.623088334569007252e-01
1.306185854920463726e+03,8.348046682961751230e+02,1.449177591428303913e+03,-9.833552368294330714e-02,-9.884250233528896201e-01,1.155253132081498213e-01
1.478063802010239897e+03,1.815087318658794402e+03,2.645868643705023715e+03,7.120509370182065423e-01,5.261966941044357027e-01,-4.648661121280586173e-01
4.887270053658586448e+02,2.648255284341490096e+03,2.849135047373931684e+03,4.787802185227881813e-01,-8.716401728561241624e-01,-1.049424195195500786e-01
3.803321319040722415e+02,2.241111329163986738e+03,2.992401493543889956e+03,9.948115156867821940e-02,8.880452416803701343e-01,4.488642881890056446e-01
1.554780318955285566e+03,2.469918503461298087e+02,1.674676780363496619e+03,-2.193040467272284466e-01,8.105211008186624655e-01,-5.431033789406628509e-01
1.924538205750885481e+03,7.977721106518065426e+02,2.109138473650355991e+03,-1.617349062146785921e-01,-5.351950130207593359e-01,8.291007888968857653e-01
2.314055289954716045e+03,2.982842464603105327e+03,8.986744954297872710e+02,-6.938811753169743524e-01,3.565232646478649903e-01,6.256357377144967646e-01
1.952270005414747629e+03,1.027122870499583996e+03,4.602723987769509222e+02,-2.071374651174400783e-01,4.590456272861795917e-01,-8.639277646968867019e-01
4.835753797142402277e+02,1.524709622613733700e+03,2.236282475335121944e+03,-6.606687886566529055e-01,7.467260466134096886e-01,7.692179797728920798e-02
2.793915733176558660e+03,2.417280470353573037e+03,2.596948178582972560e+03,-1.480399593766110744e-01,-9.714238125899015142e-01,1.855261349812241667e-01
1.634930020621517087e+03,4.984919116390863110e+02,1.174371740837332936e+03,-5.361814985981272442e-04,9.737086546129559705e-01,2.277963310530434771e-01
1.261625126149092011e+03,4.676876447361847227e+02,1.765682808798199176e+03,-5.700384676866409039e-01,-7.893025529665026463e-01,-2.281614017269963934e-01
2.843726493900684090e+03,4.186744555416142930e+02,1.274495977168588524e+03,-2.404238390243094714e-01,-9.703163609307022819e-01,-2.612541557587455890e-02
2.954163045018687512e+02,7.985103094333733225e+02,1.375576107807488597e+03,1.089311397520719427e-01,-2.060707144418422454e-01,9.724550721970364187e-01
1.652335639866702650e+03,6.477098526626364219e+02,3.903193024790224399e+02,1.918884718468908679e-01,-8.008901640892741591e-01,5.672334258815505681e-01
3.953743744990441087e+02,1.256585089756076513e+03,2.097857317688782132e+03,-4.768449263715409531e-02,5.290072802345027192e-01,-8.472765113118806424e-01
2.372604860158689462e+03,8.219689337907440176e+02,8.173488631769332642e+02,-4.555638153324935158e-01,-8.700478390947596896e-01,-1.883570222907580138e-01
1.279820404492421403e+03,1.532956546512582463e+03,2.323505078301641333e+03,2.103821839731568888e-01,8.903821755726635256e-01,-4.036817039316686340e-01
1.704685048538605997e+03,2.922883402670332998e+03,9.036404808870820489e+02,3.653490974180462897e-02,3.024312538856309129e-01,-9.524707539044563465e-01
6.955511984049892362e+02,2.862352094825394943e+03,2.690369066023838968e+03,-1.226490496099128802e-01,5.336898840149477408e-03,9.924357551703562041e-01
2.138169224465482785e+03,5.849068004412156370e+02,2.329671919204895858e+03,-7.128222480459549537e-01,4.926900651306462264e-01,-4.991402031616676283e-01
4.416687378570480860e+02,1.299908586296269505e+03,2.091908700154117469e+03,-5.866299414992888206e-01,7.175631928319726738e-01,3.754575555629775518e-01
5.715516993934177492e+01,2.293951904036979158e+03,1.424921350016251154e+03,-9.829071128051062312e-01,1.679808209805710162e-01,7.533957379640229823e-02
2.064007753547972754e+02,5.069546928187926937e+02,1.824496093999895550e+02,3.539507117990596252e-01,-9.295354620438528448e-01,1.033572369012447645e-01
1.511527497360510097e+03,1.454405109450021314e+02,1.763657609206762572e+03,-5.288274973490589281e-02,8.448946808585238166e-01,-5.323123078019599275e-01
2.837824474045826264e+03,7.557725845939709188e+02,3.950031798375975995e+02,-1.095730079168250604e-01,-9.307286178665483689e-01,-3.489097244564617895e-01
1.098344032638611225e+03,8.387295257466649900e+02,1.427010838072738352e+03,-6.149183688527003477e-01,-7.253175775144212745e-01,-3.094992914307657661e-01
1.381673387225461511e+03,1.630550149149636582e+03,1.010433126608798602e+03,7.170110901078073917e-01,3.907717309844568332e-01,-5.772283351723345168e-01
1.528842000417636882e+03,1.614872870601680916e+03,1.260116995949014381e+03,-5.709414293678682917e-01,4.369658965018478058e-01,-6.950443795368119737e-01
1.253207314933891894e+03,2.522198657793350947e+02,1.408917969173137863e+03,6.876873128830260917e-01,2.491489939933809183e-01,-6.819171052934580590e-01
1.119880952492074584e+03,7.771428194167152697e+02,1.520081828181645051e+03,7.002389525447363372e-01,-5.937069164513012476e-01,-3.964561850910363061e-01
6.880963192060588653e+02,2.080807402483111673e+03,6.990370790889085129e+02,-3.007702027911868942e-02,9.693458467022660896e-01,2.438524191641256167e-01
1.181886211009505814e+03,2.175239805332431388e+03,1.050724138344423636e+03,7.539333301554208833e-02,-7.262691596444902364e-01,6.832634580351079068e-01
2.540623593906468614e+03,2.801479054494919637e+03,1.655269536489659913e+03,1.039639790788905865e-01,9.891633879609976754e-01,-1.036691032642068910e-01
1.484495480693748505e+03,2.851666351696914262e+03,2.843839087766300054e+03,-2.337431937771825285e-01,-9.718344006669265012e-01,-3.003359857223730778e-02
7.407670770011430932e+02,6.793745298771804073e+02,5.261137913095358272e+02,-2.962958257897958525e-01,-9.431180842278049647e-01,-1.507881388638313558e-01
2.456939703592463502e+02,6.626036941622659242e+02,8.475667596784161333e+02,-6.525390977302691908e-02,-2.816560280652349868e-02,-9.974711154103054200e-01
1.332335070146822773e+03,2.790305478155371929e+03,8.792435510485723853e+02,7.954549618698891766e-01,5.965100201005457681e-01,1.068980802270083214e-01
1.416720426810985600e+03,1.280466845331568493e+03,1.571347349357777603e+03,-9.321209924753356968e-02,4.920234276452467026e-01,-8.655775246632103626e-01
8.713194251722110266e+02,1.606266799197925593e+03,9.111941053706171942e+02,3.487121073639740110e-01,-2.163642597678148982e-02,9.369801125150561960e-01
2.948242975790287801e+03,1.084798589322137559e+03,2.924870132855264274e+03,7.733238394047422526e-01,-6.222927460363841812e-01,-1.213341569336716802e-01
1.395140100797481864e+03,2.314815311093638229e+03,5.800831800329791577e+02,3.522939198286999529e-01,-3.450315833654288844e-01,-8.699667812807996281e-01
2.983893810273658346e+03,1.808867389876428433e+02,1.329153396569015513e+03,7.630582859354073655e-01,-3.082282531348579102e-02,6.455943042693396139e-01
1.861237481037449925e+03,3.492089516575783819e+02,1.217119050388797632e+03,9.057126517915896624e-01,-4.211264630756418326e-01,4.834350506579810497e-02
1.649167726318863060e+03,2.932312503861135156e+03,4.429727749036854902e+02,-8.853078029489335199e-01,-4.290852187461081657e-01,-1.792092885185831985e-01
8.990095573491143455e+01,8.667194545202822837e+02,1.384753922749359845e+03,-5.311225500753973261e-01,-5.021156392880082170e-02,-8.458059089703919842e-01
4.152844763077645496e+00,1.328960427449636654e+03,2.031470605663427250e+03,-2.567838226699546977e-01,-2.414756634776238642e-01,9.358159927908085152e-01
1.086516599941960294e+03,2.340170222266304336e+03,9.892308677602211446e+02,-1.619614284630660761e-01,7.230733137093434681e-01,-6.715158067324943358e-01
2.265355783961847010e+03,8.558608361676662071e+02,2.293488928978216336e+03,-6.995112477071612211e-01,2.031413119944452117e-01,6.851405853489822562e-01
8.187800165640170462e+02,2.331532018630154653e+03,7.428392861372497009e+02,2.713470429053588262e-01,-8.693357020079867103e-02,9.585475140433363794e-01
1.049198846330845981e+03,2.002881810357331233e+03,1.419221510903463695e+03,-3.001238149571264571e-02,2.855859116231545536e-01,-9.578830534252746887e-01
7.691416486176662204e+01,3.589560046164198184e+02,1.959266877851432810e+03,-6.519524400775808873e-03,-9.999531177953382421e-01,-7.159470159883509453e-03
1.330853571580846619e+02,1.695137311432948081e+03,1.824186787068190824e+03,-8.594918673570557388e-01,-4.414878079198878563e-02,5.092392513364050188e-01
1.438454653899627147e+03,1.044726738459701892e+03,2.464829650356958609e+03,-2.451726391214532896e-02,8.374300154602355439e-01,5.459943891438189256e-01
2.488629625554145150e+03,7.719436868203754898e+01,4.394356392709992747e+02,-9.530858109554595226e-01,1.760809086589973718e-02,-3.021876769350999581e-01
2.567663690840202889e+03,7.846900248133118794e+02,2.323399886998796319e+03,-3.086581087311200955e-01,7.876429347065873054e-01,-5.332436397382744886e-01
2.255770960384729733e+03,9.285132176090573921e+02,1.590975846851047208e+03,-1.197957448991682737e-03,-5.402150402700366394e-01,-8.415261583361465236e-01
2.794047705116788620e+03,2.104960835179891546e+03,2.051082430122499318e+03,-7.889674310879124519e-01,-5.430001122595559115e-01,-2.875435110877133660e-01
2.877937476494142174e+03,2.759529075545625801e+03,2.635262435578684745e+03,-3.835373279955304193e-01,-3.603760897130234286e-01,8.503106444101472539e-01
1.224812466178656678e+03,2.966753339621734995e+03,2.266194427324669505e+03,-4.533036982296766992e-01,8.040948321460379411e-01,-3.846391270884093605e-01
2.147337644752046799e+03,2.180418536961832615e+03,3.646395162439038700e+02,-1.312694719258972187e-01,-7.018749940229115358e-01,-7.000998632378341302e-01
5.367090448498526030e+02,2.024078296278857181e+02,1.230240943752724888e+03,-9.655425575943872574e-02,-8.907383791982690369e-01,4.441423370024317752e-01
2.044176015108310139e+03,1.226224952705173109e+03,2.118616898608425799e+03,8.322237258422447992e-01,4.402727759378789463e-01,-3.369919181719444601e-01
3.559680986937318039e+02,2.466621296359015560e+03,1.742194201541306029e+02,-6.986260082083792788e-01,-4.745029028127616400e-01,-5.355078859149400294e-01
2.356145321736409187e+03,1.954486931828671459e+03,3.567611686205614063e+01,4.033504596585019142e-01,8.655536683028600686e-01,-2.968589799563721709e-01
1.274831095725018031e+03,2.300485313798747484e+03,1.216419833662702558e+03,-1.637926870272378987e-01,-8.951342496657441750e-01,4.146162451614053279e-01
2.289582241583890720e+02,2.410703916281131569e+03,2.798548037020328593e+03,5.542612511412775556e-01,2.547297636336617321e-01,-7.924059647696024555e-01
5.042103376381966768e+02,1.147240536983801803e+03,1.212516839498453919e+03,-4.477171752865587151e-05,8.661518744476283116e-01,4.997808803729422711e-01
1.897531695540234296e+03,2.309023125031679683e+03,1.305307831130637624e+03,1.904769360545620349e-01,-8.121987732593728415e-01,-5.514088225148707778e-01
3.409150409992615209e+02,1.854506802153896842e+03,2.026462242968293822e+03,-9.128100602628275162e-02,1.891201565494780579e-01,9.777020733973773581e-01
1.587759608658451498e+03,1.643162683544370338e+03,6.309030200473197283e+02,4.411786269818081946e-03,2.397872395130840328e-01,-9.708154386435169370e-01
8.948209087657822636e+01,1.542960885794353544e+03,2.376231656348035813e+03,1.095985637157065491e-02,-9.540506251069996724e-01,2.994449636932596803e-01
2.062275604056133488e+03,1.223841261625463630e+03,2.076519218207399717e+03,8.636384879332669184e-01,4.003077953456700699e-01,-3.064020743171128602e-01
8.887309838636022050e+02,2.783832623151192820e+03,7.333737840725806336e+02,3.967185006022136973e-01,8.981399287932273490e-01,-1.896288469279605593e-01
2.739764331515880258e+03,8.319310932898184774e+02,2.334910099336765143e+03,-3.722039134517800552e-01,-6.363233962864139892e-01,-6.756898564798077267e-01
2.175763117297356075e+03,1.717028226603148937e+02,1.986356685152284399e+03,-2.526182758691444818e-01,-3.846864018433620025e-01,-8.878064985872249348e-01
2.207443886491393187e+03,1.253725528943903100e+03,1.666309602653521097e+03,-1.356500655318971793e-01,7.722378598937608141e-01,-6.206832907916051134e-01
1.395913203674459169e+02,2.546799825475313355e+03,1.315843555442630304e+03,4.630655770194354592e-01,6.339652873562607871e-01,-6.194015545725980454e-01
1.446632560302344473e+03,2.983258160755584413e+03,2.506946247998398121e+03,-6.478242856791909254e-01,-5.410911926193510968e-02,7.598657105679553769e-01
2.367728441659202872e+03,2.743338238097157955e+03,1.894865796516278635e+02,-7.585508282307907857e-01,-4.559688833462365726e-02,-6.500165880687824860e-01
