x,y,z,nx,ny,nz
4.712913120760630932e+02,1.149692283904777241e+03,9.110379150890819346e+02,1.813683312955562468e-02,-8.947149318330395174e-01,-4.462692528497008149e-01
1.180935851513952230e+03,2.173904243869409129e+03,9.789289784316412124e+02,9.583874798508075499e-02,6.258381440381474148e-01,-7.740423449989924931e-01
2.991658760237503429e+02,1.407648135592807193e+03,7.632638802416715862e+02,-1.470674332286077690e-01,9.823383035709661870e-01,1.156833065781981418e-01
5.692814482621867000e+02,1.315068776234448706e+03,1.001446965661778222e+03,-1.650109953529054208e-01,-2.047811215179329014e-01,-9.647984575456685086e-01
1.255016948842460579e+03,8.052985008342905076e+02,1.368040065531781011e+03,-1.034110720265594280e-01,2.652269283440915615e-01,-9.586244450583741861e-01
6.936997605706079639e+01,1.926662031321400264e+03,1.171812477513308068e+03,5.292088061577530748e-03,-2.132748225321733429e-02,9.997585370001534910e-01
1.779856077815449680e+03,2.766730546436911936e+03,1.627850230247596983e+03,5.116026556215547139e-01,5.091573156048956328e-01,-6.921138278686458367e-01
1.911240852892599378e+02,1.920164114970940091e+03,1.921769709323921688e+03,2.581072921402757236e-01,6.646309414241718949e-01,7.011749692092791308e-01
2.115915431352510495e+03,8.377717043329214448e+02,2.292825516241946843e+03,-8.903301086398779374e-03,-8.789249342837590628e-01,4.768770188676056954e-01
8.417224394239278809e+02,2.426571131595334919e+03,1.740609763180060781e+03,2.066444299572630650e-01,9.720418272748992949e-01,-1.115023120644262900e-01
4.998618069250331928e+02,2.037326229765461676e+03,5.501099355655229601e+02,-4.698826700679881174e-02,-9.692462989176467980e-01,-2.415651357256291265e-01
1.655284634831681160e+03,2.293722854523488877e+03,2.418336790855957190e+02,-7.039606271675096227e-01,-1.421504102759546251e-01,-6.958683038163933077e-01
8.211018308978705136e+02,2.349842293813786910e+03,1.932966178132197115e+02,-4.807670752721581731e-01,8.697181509542222244e-01,-1.115946111379204631e-01
2.692098218164388072e+03,1.167965379898273113e+03,4.380692476357749001e+02,-9.254034015035238203e-02,-8.338360953875314507e-01,5.442000105418343114e-01
1.003560038658855888e+03,3.522232231806806908e+02,1.853164869282547215e+03,-1.614044126083493957e-01,-4.043225712198594834e-01,-9.002621140494113661e-01
2.547724028188468310e+03,1.805339585118722198e+03,7.314454584587259660e+02,3.190001680429100511e-02,-8.910239005227914288e-02,9.955115032056924829e-01
1.825343824644633742e+03,2.653767778805111448e+03,1.241491284520691352e+03,-6.950184460627166494e-02,1.248349392641338734e-01,-9.897402343722547791e-01
1.746075149075588115e+03,2.246269301223065668e+03,9.314101889893664747e+02,9.110145349146195892e-01,-3.827216785840070190e-01,1.535468459986704393e-01
2.471709223487297095e+03,3.792972205719137264e+02,1.721505317107759311e+03,-1.730289470677163002e-02,2.909790157449238523e-01,9.565729570873733323e-01
2.536199068655880637e+03,4.123953064599919003e+02,1.654983332827356662e+03,-4.379653161727673633e-03,9.958549483321854634e-01,-9.085009917706966809e-02
1.550078480361798484e+03,5.309249609995811170e+01,2.415007050667526528e+03,6.583681408508902655e-02,-9.966885366767012089e-01,-4.772289564120726912e-02
2.545831075534185402e+03,1.854509312782825418e+03,2.774603369298452435e+03,-1.355598334070856337e-01,-5.266338574133452161e-02,-9.893685356675249176e-01
1.759567795293696690e+03,1.946465857152551507e+03,2.011634737685257960e+03,5.011862137390217242e-01,7.839841397642910437e-01,3.663075862659523896e-01
3.433821474365349786e+02,2.252912066175182645e+03,2.597041266318623002e+03,-1.952458290731977908e-01,7.854167828186185973e-01,5.873666176217122725e-01
9.240051218721765736e+02,8.112203514986775872e+02,1.783785051270270969e+03,-4.468465341841369454e-01,6.732108620204937943e-02,-8.920740138801270813e-01
1.256552899720838241e+03,2.520993105421677683e+03,5.578126820438625373e+02,-7.307613496279080634e-01,6.662751510627764606e-01,1.485438418995310983e-01
1.248782353013813008e+03,2.786660186575726584e+03,3.290932813271529653e+02,6.716003419988923751e-02,9.408126126009297430e-01,3.322064986981481671e-01
9.046812697784484953e+02,1.985749399401847313e+03,2.307874347397382735e+03,8.550763757298437406e-01,-3.938907841610313904e-02,-5.170037641741549450e-01
2.440784071668922479e+03,5.027918849587095451e+02,1.129824312337968649e+03,7.622357351082252640e-04,-6.128853446715145648e-01,7.901714834664453901e-01
1.827191416654056866e+03,3.730470476450070123e+02,1.422897326689914735e+03,-1.389111110425189088e-01,-4.291947459978661533e-02,-9.893743588394694477e-01
2.592206257662613780e+02,1.010100900031708449e+02,1.617553227367319778e+03,2.623782829939476091e-01,-7.371696115115842218e-01,6.226865989219682040e-01
1.047710763107729917e+03,8.948693019011087699e+02,2.220603681205913745e+03,-3.294188045164304635e-01,-7.030727399898133445e-01,-6.302158150302021866e-01
7.827244747192196428e+02,4.358497525200121459e+02,3.020558613407962980e+02,-1.591090237308374622e-01,-9.058800938417278514e-01,-3.925118777167414530e-01
1.396790218303888878e+03,1.135626839361825660e+03,5.453988150403041573e+02,8.762455988875118562e-01,3.997377810913376184e-01,-2.690787185907490553e-01
8.393723803730096051e+02,2.053774732495810895e+03,6.228258429185756313e+02,9.471802898058779121e-04,7.628395489760009252e-01,6.465871367167692618e-01
6.896408714602358714e+02,2.318927090097540258e+03,7.876246469784726969e+02,-3.626443786935884539e-01,-9.023908024538177530e-01,-2.327657497328505798e-01
2.940486667260107879e+03,8.493480140079262810e+02,1.227217960031794064e+03,9.387131440504113966e-01,-1.022644195330094791e-01,3.291802267521064529e-01
4.800188311582541587e+02,2.642134832494208695e+03,1.393050592714119830e+03,2.625506869229085050e-01,-6.285725086697672159e-01,-7.320954433275106421e-01
1.157092713346562050e+03,8.894944508775340637e+02,1.517448018798215799e+03,7.364095940123408512e-01,-5.482257649934030308e-01,3.964207618730095639e-01
2.972975843322212313e+03,1.792323598512377657e+03,2.413114757904241117e+02,-2.285480481642583050e-01,-4.060338959535641189e-03,-9.735241667918890229e-01
9.491401874041641804e+02,3.514505823030953593e+02,2.518422180407078940e+03,6.623280944612480736e-01,-2.724637001923712609e-01,6.979147708458489641e-01
2.858118071778311787e+03,7.293104662529069628e+02,1.194951810088310140e+03,6.146082903074253645e-01,-2.774204544406873030e-01,-7.384406143646935483e-01
2.566603180079617687e+03,2.056907895283222842e+03,1.077014188782879955e+03,-3.046857372593990854e-03,3.145013640110545516e-01,9.492521312566737368e-01
1.158235497341860537e+03,1.893518920657005083e+03,1.156643344912706652e+03,9.380539859123265822e-01,-2.178053325151250164e-01,-2.694727382166374197e-01
2.851920523768400926e+03,1.091723257274990289e+01,2.142778976651013636e+03,4.938236738022360600e-02,-7.302815660145978161e-01,-6.813590948473436937e-01
1.783161780653152846e+03,1.528439734205955347e+03,1.154335777372621578e+03,-1.273180906109071531e-01,9.908589379022272325e-01,-4.459449497934837858e-02
5.927957268015953787e+02,1.121152375163566376e+03,2.663509469243410877e+03,1.721095740524901108e-01,2.119911786930798181e-01,9.619968995146446211e-01
5.998459424818435082e+02,1.030456448261287278e+03,1.979028974408374097e+03,-5.296302991091509371e-01,-8.383776611353224162e-01,1.288978028316149216e-01
2.813824442083729537e+03,2.206176599444621388e+03,2.972834192721448289e+03,-1.866363923941781189e-01,9.007041966771514030e-01,-3.922993845550282188e-01
1.710932311668397915e+03,5.886411257329062892e+02,2.583252912140175681e+02,1.446903136824974345e-01,-8.988970181512643265e-01,-4.135805409895709772e-01
9.884191410013153245e+02,2.217414669157102253e+03,2.842110583930989833e+03,1.818504960309862417e-01,-8.722691107962541324e-01,4.539570414081011140e-01
2.137212799656535026e+03,2.804055259481256144e+03,9.282312658863686465e+02,-6.362423115764205273e-01,3.220324696074003401e-01,7.010640551892899364e-01
1.670806877553804952e+03,1.253304774178223170e+03,3.498568612971299103e+02,-5.585970559676102232e-01,1.988453359859212316e-02,8.292007805036636370e-01
5.321814834966874059e+02,5.915219096062097606e+02,1.735654263284495755e+03,9.154747689208438954e-01,-6.949457397686245597e-02,-3.963287166697637698e-01
1.991153938885138587e+03,1.978981631460934295e+03,1.886620162707401505e+03,-8.270067172968426398e-05,9.719636828732595157e-01,2.351310110046069546e-01
5.026207548282243351e+02,3.838604743819251439e+02,9.166088591793071600e+02,-4.841305178455950209e-01,-7.686471635864138285e-01,4.180899180811668003e-01
6.915975508433050436e+02,2.825078179999519307e+03,1.244449367505418877e+03,4.469590694315924151e-01,-6.858868359819243476e-01,-5.742707013939938321e-01
1.300470288183084222e+03,1.626542324154045900e+03,1.925275718076203475e+03,7.615544337223122406e-01,-4.793631952411858133e-01,4.361717225199833181e-01
1.527602886364635651e+03,2.219432601092472396e+03,2.567084218096822497e+03,1.214968988696291663e-01,4.968803730401902818e-01,8.592720165654788023e-01
1.844494193184603546e+03,1.410459063785190210e+03,1.671354360852448508e+03,-5.176318714198752113e-01,-8.484844909787691014e-01,-1.101422455684328838e-01
1.363051180430733211e+03,1.664311191334633804e+03,2.431946133205312890e+03,1.850954237857340701e-01,-8.202622956963140366e-01,5.412110959252331988e-01
2.254943469589551569e+03,1.665431008752907474e+03,1.577514782666279416e+03,1.790193384419772604e-01,-3.542787938199757347e-01,-9.178445471392527866e-01
1.414460244252278699e+03,2.439445448453160225e+03,2.636404370303449014e+03,5.781983924279806425e-03,3.294899230887897712e-01,9.441413873169859361e-01
1.496290441251623179e+03,2.946406992126885598e+03,1.556109777908651949e+03,9.858788083099618849e-01,1.526253787716938537e-01,-6.890913640531515227e-02
2.532255467868503729e+03,1.611107231351500786e+03,2.952005764876949343e+03,-8.825068355209152449e-01,-3.484298597156814670e-01,-3.158770617144759374e-01
2.754214835855063484e+03,2.444190015366138766e+02,3.085660829997083283e+02,-6.846120213180117986e-01,3.051515354150727832e-01,-6.619583980135683721e-01
2.038203272190645293e+03,2.745513148754418580e+03,2.825619459853122862e+03,-6.838256767169782757e-02,-8.234592462016308012e-01,-5.632394644231417669e-01
5.447659969337898929e+02,2.748868481961683301e+03,2.745668362348162191e+03,3.135303861761833955e-01,-9.316992291248242797e-01,1.833991368366319208e-01
1.199342138934126979e+03,2.620685081048968641e+03,2.458569569887265516e+03,-5.724816545938014867e-02,-9.769938674936327061e-01,-2.054400896401906707e-01
1.698648108027010949e+03,1.101279698479356057e+03,1.874616626857923848e+03,-4.931312621173841726e-04,2.751402000776125845e-01,9.614039874697887234e-01
2.379508995119595056e+03,2.657964319083182545e+03,1.422199332418528002e+03,-1.467269363000949511e-01,9.518359003358884893e-03,9.891312385148247621e-01
8.915220777134221635e+02,9.386700426871838090e+02,1.855753144837245145e+03,2.149562024622702905e-01,-9.706910818606877545e-01,-1.074832759973707308e-01
7.179012082632592637e+02,2.601681183379094819e+03,1.302066842360093915e+03,-2.575300658247339780e-01,8.385508774684444777e-01,4.801152893766352237e-01
2.038180932637100113e+03,1.615633087016803302e+03,4.326537932615108843e+02,4.527051248228885494e-01,3.126772695251676115e-01,-8.350395170777120679e-01
5.623420512501414805e+02,2.605976506300688925e+03,6.030511525974317237e+02,6.348846022853603666e-01,-4.245949654531075423e-01,-6.454770771242263061e-01
1.830247956758334567e+03,3.838488275196790482e+02,1.366464879609039144e+03,-9.218241290047551884e-02,-4.315512459021014768e-02,-9.948065329366558851e-01
1.903206727520799859e+03,1.719467097403303342e+03,8.549001426537408861e+02,9.007957933941466988e-02,1.643409105517619206e-01,9.822819017497227412e-01
4.473819543422629295e+02,7.937760309389539088e+02,2.375218493487614069e+02,-9.242551893724252343e-01,3.816669114083102721e-01,-9.094704733165983115e-03
8.758363689397614280e+02,2.105981921956823953e+03,6.280430454093085473e+02,2.098468571570490104e-02,2.641045023870199904e-01,-9.642657594171420987e-01
1.342074842480792540e+03,2.232229482980968442e+03,2.909227492053914261e+02,9.576558123263080313e-01,-2.425630506707872058e-01,-1.551080641582511799e-01
2.515310053537364183e+03,2.756737923222841346e+03,2.296635115283433606e+03,-3.621504938343099167e-01,-9.266228056280816361e-01,1.010801459511607714e-01
2.221522895232758401e+03,1.178877189807246623e+03,2.200943796867342371e+03,5.333725978777873605e-02,1.575663262101089090e-01,9.860669295554844727e-01
2.553928344912173998e+03,1.463915852091331999e+03,2.553201668797618822e+03,9.097650055311410711e-04,2.437056028163968602e-01,9.698488291911947501e-01
4.101736289276531124e+02,2.185886798038588950e+03,0.000000000000000000e+00,4.317209678764376279e-02,7.118827364183223372e-01,-7.009701417667658641e-01
1.367941329042105281e+03,1.435003484539555757e+03,5.776330491722033003e+02,8.846288630288590138e-01,-3.625850716723342249e-01,2.931959080489299208e-01
2.220675861589335000e+03,2.146400640647617365e+03,2.865605097542296789e+03,-6.670743209709589783e-02,-8.770514678437634215e-01,-4.757424106132556174e-01
2.361585191068882494e+01,3.154099844903697090e+02,6.802352037960233702e+02,9.090308381491586376e-01,3.888907818151983720e-01,-1.497561187831799590e-01
6.153474117785193584e+02,6.354839163863223916e+01,1.618483475253826782e+02,-7.680505891723382605e-01,2.116207294501183667e-01,-6.044129046761195223e-01
1.505170094771298636e+03,2.091745858888016755e+03,5.126640194572831888e+02,-4.145861128166951626e-01,8.995354946988057820e-01,-1.376744305835957416e-01
1.346353165280418352e+03,2.880026694865974605e+03,1.988419712270721220e+03,8.276098571955293748e-01,-5.154292291586345387e-01,2.222490359973053053e-01
2.912430873331824387e+03,8.826980592708288214e+02,2.809195735988825163e+03,-1.065051234266455862e-03,7.530997948476237935e-01,6.579054374804447214e-01
9.773387612863501772e+02,1.513739883128207794e+03,5.192666895126786812e+02,7.773394764137137036e-01,1.304371249514745534e-01,6.154100217279914187e-01
2.995315048944449359e+02,2.168524379062278967e+03,2.039151259898532771e+03,4.789265431024440356e-01,8.639137533208880448e-01,1.558280884017984036e-01
1.050690419074390093e+03,2.292353387749392823e+03,8.440753294459503877e+02,-4.714267039142153726e-01,-7.920198767223967096e-01,-3.878935133683191760e-01
1.856948945796225416e+03,1.507347553876198617e+03,1.134968903277964785e+02,-1.903603452693918008e-02,-9.979124390712277304e-01,-6.171218142638001947e-02
5.279154262287388519e+02,1.466904410893654358e+03,1.221932562061301724e+03,-8.804144816684078556e-01,-3.566737021071641478e-01,3.124967370929154775e-01
2.547877964795458865e+03,9.096360721411351733e+02,5.837884172506995810e+02,-5.941311777843924806e-04,-2.381198327002162218e-01,9.712356008111341366e-01
5.445854662171961991e+02,7.554595079213008830e+02,7.736769038948725665e+02,-2.609252768050633331e-01,6.079903531489943003e-01,-7.498438040031819574e-01
6.443370292034148861e+02,9.187979638657585610e+02,1.649480071222880042e+03,-9.369867308310815268e-01,-3.484525503335531016e-01,-2.523264576942186102e-02
1.629913202016233754e+03,1.234406994007781577e+03,3.457815643781337371e+02,-1.774296553960571787e-01,9.542567432773135794e-01,2.406507537819313203e-01
2.094652992958019126e+02,2.277614044879747780e+03,1.974581599258922324e+02,1.269616438176274231e-01,4.435490864186238946e-01,-8.872118963000495961e-01
1.133610335020197454e+03,2.284671453757406425e+02,2.398833956545651745e+03,3.499912507612938373e-01,-5.585029261897703767e-01,7.520509330012223881e-01
4.872403877651222501e+02,1.951871222741713837e+03,1.384300111021881094e+03,7.420738868066711902e-01,4.407175996942343521e-01,5.050686526002109433e-01
7.663143447228924288e+02,2.355004291691841445e+03,1.948246682375176135e+02,-1.623717986207437328e-03,-1.243297914315492220e-01,-9.922396215141223719e-01
1.696719287195599691e+03,2.984986597034446731e+02,8.532120189997527859e+01,-1.934441184712919759e-01,8.962394010132799238e-01,3.991670190537064400e-01
2.282814231031103191e+03,1.732868971331420425e+03,6.124727356888930672e+02,2.041306654777390317e-02,2.885064610500311932e-01,-9.572603243875215107e-01
1.730150463788868137e+03,2.591809174619572786e+03,1.401311983323758113e+03,-2.399329668325085874e-01,1.026071792366506710e-02,-9.707352312008878936e-01
2.883408466082586983e+03,2.705592471728399232e+03,2.923458423644737536e+02,-9.041805972392460422e-01,2.284532048618801436e-01,3.609246192273620202e-01
2.474181400556879566e+02,2.826837504549704136e+03,1.184031274001926249e+03,7.064495959936240022e-02,4.510575718862102623e-01,-8.896945298962564141e-01
2.361171789375908929e+02,2.942826410780834976e+03,7.938413666834212563e+02,6.946761846273216690e-02,-4.650722134438335931e-01,-8.825429656779151255e-01
2.131018364492362707e+03,2.560091874373678820e+03,6.226495465796931512e+02,-5.036426323064764274e-03,7.948425727544452535e-01,6.067947914632975115e-01
2.005288722813234699e+03,2.018448298634995126e+03,1.846940615729898127e+03,-5.866991051600167501e-04,-2.762670785023582654e-01,9.610807235190661491e-01
1.088697598748438168e+03,8.075474646650606019e+02,1.558878255782462702e+03,-6.257237011337821490e-05,-1.262884902732938075e-01,-9.919935550744222175e-01
2.505294827779937350e+03,2.887015712072906354e+03,4.833246255313781035e+02,-1.120585919086664328e-01,-2.210911265485102084e-01,-9.687938819692027970e-01
1.097787248190134051e+03,2.229462282977336599e+03,1.055502748594287368e+03,1.117305813341718922e-03,8.856296675598306356e-01,4.643908306217762738e-01
1.352852015346116559e+03,2.156351319258002150e+03,1.997146504352177772e+03,-1.683686652303830189e-01,4.231909752519744661e-01,-8.902591707103173491e-01
1.699577148857815928e+03,1.338895389142522561e+02,2.798296259361099146e+03,-3.908680598394804195e-01,-8.123519548108786292e-01,-4.327891649663431206e-01
2.637835215222337411e+03,7.151925421155985987e+02,3.507152107736061453e+02,-2.905261964371480044e-04,-5.139924958147212841e-01,-8.577946315060982485e-01
6.412410621298146225e+02,2.828725804368313675e+03,2.912410299529180520e+03,-9.687958811198613684e-01,-1.117457611564747766e-01,-2.212406508504969060e-01
1.963035715306751854e+03,6.570881414631127200e+02,9.498473533358429677e+02,6.906797210007072085e-02,-8.169130359738452363e-01,5.726104320443167195e-01
1.675808363595554511e+03,3.260826668457398227e+02,3.209370536701261472e+02,-3.321296310653636397e-01,-6.964830544066711315e-01,6.360827486206015458e-01
1.510683736912979384e+03,1.153018246693737865e+03,2.055294751959408586e+03,3.634022976412567552e-01,-9.101056562842262387e-01,1.991141995652581098e-01
1.842575436428188368e+03,1.581966496226811159e+03,1.695149813792511395e+02,8.920219244831655292e-01,3.128085637425906396e-01,3.262632199477095707e-01
2.070368447740215743e+03,7.584944770279726072e+02,1.308549996974877104e+03,8.715348800023394252e-03,-1.641523128578732671e-01,-9.863965028723007400e-01
6.185030280337919066e+02,1.974544917497414190e+03,1.112810180645382843e+03,-3.842757794710260910e-01,-7.111037814117076028e-01,-5.887814003294481457e-01
1.947521850517438679e+03,5.596479936111182951e+02,1.197707878036890179e+03,7.316499325215776173e-01,3.950221365814084451e-01,-5.555590768332654417e-01
1.291629907503229333e+03,9.851540495748355397e+02,2.193656606065572305e+03,7.873705540310557693e-02,8.788128239983525880e-01,-4.706256436728546433e-01
6.838159081201386016e+02,6.998076031918734543e+02,2.252100549059772675e+03,2.395149104153407871e-01,7.659031091853525375e-01,5.966783346401485222e-01
2.034883192674872134e+03,2.134581211381097546e+03,3.173913600647224484e+02,-2.280259076306839494e-01,6.224429872852101919e-01,-7.487115018674859179e-01
1.330089351260977310e+03,2.157819719881202218e+03,1.944428346181186953e+03,-7.669184132898267947e-01,4.071176822970800496e-02,6.404519492394610269e-01
6.960150056937501404e+02,1.135892342605330441e+03,2.703868380602464640e+03,9.861446077956318446e-01,-1.497990366319619793e-01,7.126753215690628807e-02
9.144751858593832594e+02,2.177402289059434679e+03,1.817465565429892649e+03,9.264244372955855455e-01,-2.354890547216800453e-02,-3.757435442327925479e-01
9.034086264747282939e+02,2.716545205864891841e+02,2.285036352183464260e+03,3.383168426703692111e-02,-8.584781942632044860e-01,-5.117329451132135443e-01
2.473232876180124549e+03,6.755252322549932842e+02,1.597521125019927695e+03,3.289310921037304491e-01,-4.006771587258639022e-01,-8.551386736213115736e-01
2.130045358491759089e+03,2.030069400685299854e+02,2.269777438375126167e+03,-1.953174963691213170e-02,1.440102952794625017e-02,-9.997055171922660799e-01
2.744865827203207573e+03,2.386302439841368141e+03,1.894203822747546155e+03,-9.349662717535719425e-01,6.763334661143900750e-02,3.482295236038477348e-01
1.155397175814012144e+03,7.931454743507698595e+02,2.202452543242982301e+03,-9.047832728559818127e-01,1.188354809470525087e-03,-4.258706575626747259e-01
1.518630064468071623e+03,2.263587943378230648e+03,2.149034573522108985e+03,-4.632147775155843195e-01,-5.965527660625170592e-01,6.554058797373940592e-01
1.870700254930112351e+03,1.288934468930271123e+03,2.961295683039025789e+03,-2.304059696286615139e-02,-7.336365182697205389e-01,6.791513748441334597e-01
5.808787493696348747e+02,8.347213227462336249e+01,2.699341175725676294e+03,-3.937354281756791363e-01,-9.592117386450589242e-03,9.191737615289936603e-01
4.236387377503339735e+02,2.080361158079282632e+03,2.795946884527933889e+03,-2.949009215360520741e-01,6.580084843836037090e-01,6.928623824082095206e-01
2.285302454240434713e+02,2.919254304134055019e+03,7.434806010361883182e+02,9.725104424714732228e-05,-8.706901593460488753e-01,4.918319194198220168e-01
2.480747490699935497e+03,6.375945927786548282e+02,1.635067610205505616e+03,-2.345479315270104434e-02,-8.746519735030657827e-01,4.841836407039752932e-01
1.935616447191172256e+03,1.990301927672477632e+03,2.216604593947339708e+03,2.611969360162042508e-01,3.186352588959374676e-01,-9.111793085908315160e-01
4.350174580166421379e+01,2.112826334496547815e+02,2.203742778799703501e+03,1.150567306669696976e-01,9.758177191915543558e-01,1.858540492968098756e-01
2.833542976597032975e+03,1.057788174534658083e+03,2.641750155805219947e+03,-6.627330871957564096e-01,6.765514174684904569e-01,-3.210343200615133341e-01
1.141284753982752136e+03,2.246846891046582186e+03,1.320715695166712749e+03,1.767622875272698568e-01,9.663127128368105279e-01,-1.870690640327541399e-01
2.502598524961255407e+03,6.991368956656694991e+02,1.092128241606797474e+03,2.996731353638789638e-06,4.521126194252271246e-01,-8.919608620043142366e-01
1.004466458497629674e+03,2.978773028858236557e+03,1.028353305332625496e+03,6.347466837909840898e-01,-5.593234916097531428e-01,5.331546484368516747e-01
1.836689390539105489e+03,2.692751758018518103e+03,1.185680609994919052e+02,-2.043527435604786668e-01,-7.016718013010918575e-01,-6.825662161711392173e-01
2.534656302083201808e+03,2.841194062710905200e+03,1.892428298759751328e+02,2.143530183785736457e-04,7.872022472364403889e-01,6.166948807949371725e-01
1.112609715546812822e+03,9.598423285153709230e+02,8.336932462141568294e+02,9.713792661468926282e-01,1.776373141053189941e-01,1.576937092511067062e-01
2.495585052143545454e+03,1.064411913065187264e+03,6.940431976362815476e+02,8.557314565399246620e-01,-2.462958684397849665e-02,-5.168336847961381153e-01
2.408387473518410388e+03,1.489658321465699942e+02,1.580940078844266509e+03,9.577891345062239381e-02,4.120321390863971867e-01,-9.061213583721035025e-01
1.064089374136874085e+03,7.275342149747618805e+02,1.815070993258280623e+03,-6.000157167502225830e-01,-4.241565455103942783e-01,6.782863440711492942e-01
9.366621358658087502e+02,1.672605490024648816e+03,2.163514270366207711e+03,1.996871956902606382e-01,-9.788427818533196323e-01,4.462994836445721702e-02
1.989521162825710462e+03,1.818928653880829870e+03,1.567656862178140045e+03,4.347409568577693950e-02,9.946899581068648910e-01,9.328392276093123991e-02
1.924153858487459729e+03,2.814691671404914814e+03,1.105916468646032399e+03,-7.064831653674816803e-01,3.953669917497539266e-01,5.869978525404446756e-01
2.044332875558012802e+03,7.826600956808454157e+02,2.143297163510956125e+03,6.932149739446631376e-01,-3.800167229133070146e-01,6.124053316269633118e-01
2.866527531705332876e+03,1.130067887954407297e+03,5.829698736432037265e+01,7.751771338077208121e-04,5.446045355161306389e-01,-8.386926129373447614e-01
2.964023219579559282e+03,3.088467964659309928e+02,1.644597435071899554e+03,2.278409074080273850e-02,9.947250126932810632e-01,-1.000151705066119473e-01
2.850551202879428274e+03,1.124938733611754515e+03,4.781594104834617553e+01,-4.177015494991835999e-04,-5.778124348886329864e-01,-8.161694772616069349e-01
1.837303484194357907e+03,2.687807267942483577e+03,1.187356107939370759e+03,7.090239953610593115e-01,2.147471906081256376e-01,-6.716908650027616501e-01
2.112323966951401871e+03,5.981779834872691382e+00,2.897741783720574858e+03,2.673814329678412816e-01,2.081966599350406621e-01,-9.408301228680748807e-01
9.491173930695556464e+02,1.531801938888257382e+03,1.437490243530287671e+03,9.620598989054888195e-01,2.460174094817249579e-01,1.179668815806456245e-01
9.019554966584526028e+02,2.903597413389147732e+03,2.725660539124648039e+03,-2.760804156667556186e-01,-6.381943102512092070e-01,-7.186707357672599272e-01
7.483599432151208930e+01,1.122348032303260197e+03,1.145821423623145620e+03,5.317533912570265864e-01,8.114402734970208586e-01,-2.424933265756639145e-01
1.134171123617964213e+03,8.223003022269176654e+02,1.654950559968208609e+03,1.358786349644735929e-02,-9.113658305736010989e-01,4.113729364317642578e-01
2.268344679456942686e+03,2.116012786387942924e+03,2.856650333576426419e+03,-1.399750920998734383e-01,8.703555667551645669e-01,4.721103271587354655e-01
1.620556129608006131e+03,3.764238693257349837e+02,2.051182405644352002e+03,2.232809393998145264e-01,3.693526047821248381e-01,9.020666690668688315e-01
7.603471703580620442e+02,1.759811066051294802e+03,1.294839942500711231e+03,5.740615386950056326e-02,-6.093914313228113722e-01,-7.907886044501694078e-01
2.729498465607759044e+03,6.128514869393093250e+02,3.809530507132350294e+02,2.405778115440408149e-01,-9.398687829999071708e-01,-2.424231575880353429e-01
2.598397091894417485e+02,1.701844471111412531e+03,1.199102007763599659e+03,-3.705132483978202385e-01,8.922069847941002108e-01,-2.582375438357393249e-01
2.688564873985969825e+02,2.132706538651913888e+03,2.966153255615230592e+03,1.273546548054226013e-02,-9.205861998473389152e-01,-3.903317263170256179e-01
2.104318495256590268e+03,2.676022961293105709e+03,8.165678580145807075e+01,8.956058413549864428e-01,4.315521735057090136e-01,1.079485918079776674e-01
2.832489889899898571e+03,1.802804131928870902e+03,2.163673028707044523e+03,-1.732386358429983675e-01,-3.427904577322410384e-01,9.233001013424495529e-01
1.829989270789501916e+03,2.477588741602722166e+03,1.416216063710140133e+03,8.877719525124273120e-03,8.810833744322804639e-01,-4.728776516130351881e-01
9.051178587601086747e+02,2.816525403376062400e+02,1.042620749715231796e+03,-6.314173737164110456e-01,7.622235694624394098e-01,-1.425739468662063913e-01
8.255390592438490671e+01,6.084817974300041215e+02,1.902936349400567906e+03,-6.002014625333599307e-01,1.560557424796542823e-02,7.996966114878860665e-01
8.009288250276854342e+02,4.037399044043717140e+02,1.633764297523138112e+03,8.680720391202079167e-01,4.955686029732113695e-01,2.937166397846469393e-02
4.140865253465996147e+02,1.748754674192981611e+02,1.840779017990789271e+03,5.376070319343153603e-01,2.416085279945285047e-01,8.078390919082172328e-01
2.334809570745142992e+03,2.101889274015114552e+03,1.946989320705976979e+03,-1.122896560139449718e-02,-8.188362027654864095e-01,-5.739174011755716620e-01
1.096776367555882871e+03,2.434768232607282698e+03,8.272185628607817307e+02,6.401468933485150725e-02,9.576274280120684601e-01,2.808056777708617391e-01
1.800518521224507595e+03,2.264005957901557395e+03,9.288723815803942898e+02,-1.144015316014953265e-01,-2.164931240758915729e-02,9.931986693705900926e-01
3.520558959783439832e+02,2.114184974523274377e+03,2.992549522194392921e+03,1.207428303793116157e-02,-9.222429525471044220e-01,-3.864222407759669853e-01
1.173024994148642918e+03,7.084189801380778135e+02,1.477630792355300002e+02,-4.174225299237375314e-02,3.509936648000620552e-01,-9.354469688792317328e-01
1.423846160001478211e+03,1.286591182338743010e+03,1.152932812932385559e+03,-3.164869030034401232e-01,7.568168059793579650e-01,5.718954121292580961e-01
2.396375269927464160e+03,1.663890553450595917e+03,2.520421989994807063e+03,-1.779757250723913997e-01,-1.131458979816512417e-01,9.775083872043668354e-01
2.654282444860013129e+03,1.869222600469058762e+03,1.739326737892704614e+03,-8.764738200781403421e-01,-1.469264350558729670e-01,4.584825682612196918e-01
2.351818088064675067e+03,2.931290989122603605e+03,4.146517614058118397e+02,1.357793182852531921e-01,2.947008921382269775e-01,-9.458939480189758608e-01
2.416973455083735644e+03,1.517357017104501210e+03,2.586275363417748849e+03,1.627159071198497897e-01,5.553008949013623630e-01,-8.155761458575836453e-01
5.816249483748085822e+02,2.981863532374362421e+03,2.046828776300400250e+03,-6.696657773934951985e-01,-3.611070125047224216e-02,-7.417841760533618878e-01
2.082198957053581580e+03,2.377731839774104174e+03,2.952324909119731728e+03,4.729542660766850037e-02,9.817357517303385572e-01,1.842771184831850928e-01
4.022449510165423590e+02,1.868651494331454387e+03,5.869514817954783439e+02,-3.607442421814865963e-01,-7.691110653512995832e-01,5.275715694454108373e-01
1.233129846290649766e+03,8.439425929750663045e+02,2.233194196539740005e+03,5.357490754857083259e-02,3.936136461427492406e-01,9.177134775360841212e-01
1.911462990871567399e+03,1.370259572620987228e+03,1.463617117906718477e+03,3.622397022056277338e-01,-4.080969004207867235e-01,-8.379972064469694004e-01
1.154664633135683971e+03,1.333204913862552985e+03,9.871398894205071883e+02,5.652357705919317521e-01,5.288935005278883744e-02,-8.232321909973751017e-01
1.442227098626029374e+03,1.160058778619344594e+03,1.507824436714512331e+03,-9.584824775915076756e-02,-3.793466140956875399e-01,-9.202767299979055515e-01
1.441301049440394308e+02,2.893805003124077302e+03,7.540497400185635115e+02,6.243924338722313117e-01,-7.377638771906567250e-01,-2.565902376079827740e-01
1.813403280229671282e+03,2.320394138656644145e+02,2.398347756070293144e+03,-1.921060373877755967e-01,-5.572919815467296534e-01,8.077876686994461819e-01
8.466061727481156822e+02,2.049478159121796125e+03,1.902328240570824107e+02,5.021580534198937240e-01,-6.518832021866813875e-01,5.682302175108091546e-01
1.678382690519224298e+03,1.655810832218695168e+03,3.070833406577527853e+02,-7.230952123599508896e-01,-6.703693860179046338e-01,1.665478914669749344e-01
8.371690867709718304e+02,2.326285549509047996e+03,2.947956352675282687e+03,6.852568243763246638e-04,1.457641760968372002e-01,9.893191271727717062e-01
2.782799775613861584e+03,1.191316841913821463e+03,1.334960505024567112e+02,-8.498893962830095239e-02,-6.361623963590243847e-01,7.668600169519862453e-01
1.867500498960664572e+03,1.280633902483879638e+03,2.985654736515714831e+03,1.064555239166460436e-02,2.584890812650330605e-01,9.659555202394339846e-01
2.790161198680550569e+03,2.056067640080958881e+03,2.693132539749904481e+03,9.990202663881440071e-01,-3.212193463839008861e-02,3.044156140622167328e-02
8.532409961062950288e+02,5.913777282398360740e+02,1.217735749485062115e+03,-3.297925757560384308e-01,-9.436460095338220500e-01,-2.773203323039119886e-02
1.017671229771695153e+03,4.615255634612898916e+02,2.464124059720481000e+03,-6.842734920272031595e-05,-9.530079909780125869e-01,3.029451508932768933e-01
2.804244459298688071e+03,1.006358823297888421e+03,1.617604041918627900e+03,8.895745890577110293e-01,-2.931991369181458085e-01,-3.502732028192550029e-01
2.667929331816068498e+03,2.857805693239933589e+03,1.673507258083081751e+03,9.314517029301399020e-01,3.565146391588205343e-01,7.276700608104280654e-02
1.492774741427877188e+03,2.157071204148283414e+03,1.270829989629834472e+03,9.165827953066224554e-01,-2.758933040503594447e-01,-2.894112370452714411e-01
1.325011630678150595e+03,2.356731551521595065e+03,3.567144397601392711e+02,9.479487100876647920e-01,3.071416675222519710e-01,8.400737535944637069e-02
2.691542014781636226e+03,8.907247833614782166e+02,0.000000000000000000e+00,-1.290070780871497846e-01,-4.131525323733604704e-01,-9.014777638948702210e-01
2.303183306342186370e+03,1.425220100475980871e+03,2.259099455017138553e+03,-6.761158237148011917e-03,-1.330355651239955098e-02,-9.998886448617234635e-01
1.947348140008896735e+03,1.461291643570017186e+03,2.656959594640744854e+03,1.811935891875208690e-02,9.774055520689870491e-01,-2.105945764189860736e-01
9.274353286458625689e+01,1.516869933955083980e+03,2.959269127524324631e+03,-7.915207851265020356e-01,-4.926031031695760065e-01,-3.617140161238295293e-01
1.428033282507996091e+03,1.309648356507219432e+03,9.302456610521898028e+02,1.858522162254691856e-01,9.784426931476264411e-01,-9.004915296715020057e-02
2.491836473323398877e+02,8.662171049981304805e+02,2.353196299802340491e+03,5.121191600651139320e-01,-7.866392633712840921e-01,-3.448661120157876514e-01
1.514026777222887176e+03,8.650197474039653116e+02,2.196950707728357429e+03,8.088276440029614767e-01,-5.225978854895100278e-01,-2.696095183381175819e-01
2.652678693633614557e+02,2.889763522007974643e+03,2.769415127018071985e+02,6.499738005723365575e-01,-6.098113178903923348e-01,4.535021666346648050e-01
9.397089619148513293e+02,1.774634833140600904e+03,1.986501089269139584e+03,-9.785781126315385992e-01,-1.261831773460259376e-01,1.626735480444108373e-01
5.882715157065549647e+02,4.339661077316063711e+02,9.906387681726046139e+02,1.069525216304439280e-01,9.139426285580269926e-01,-3.914971645125081556e-01
1.643473474413085569e+03,1.736554820682837317e+03,2.881964448926854061e+02,1.807607855408812280e-03,-9.046817291239280800e-01,4.260841484298386050e-01
1.694470308644102658e+02,7.235671174165447610e+02,2.630413557113377010e+03,-8.306711628384756407e-01,3.934203434987088022e-02,5.553716085305301364e-01
4.273245350363501416e+02,1.238271837109885496e+02,2.779526642441894182e+03,-2.873448407645485259e-01,-7.464102539502670552e-01,6.002538423732863837e-01
1.562793998817542615e+03,5.524822006734707429e+02,2.032675271676237799e+03,6.197755106261089164e-01,3.916286528547296975e-01,6.800774328643287570e-01
2.743826324693290189e+03,2.329926546612172842e+03,2.731580795421872949e+02,1.012004584543421508e-02,-7.716649249760273443e-01,-6.359487622708519527e-01
8.734251012874296975e+02,1.955179215198666725e+03,1.379840906274313511e+03,3.590004913157561761e-01,-5.528154971692348374e-01,-7.520064317042622903e-01
5.102491580990649140e+02,1.500255037094752424e+03,1.253355494347954163e+03,-1.260342674433863885e-01,6.011445797574055394e-01,7.891391243996849214e-01
1.901775323227613512e+02,2.951735736397423352e+03,7.865039303782541538e+02,1.402813107483896438e-05,3.019252890896187980e-01,-9.533315895381636595e-01
1.227054614015263269e+03,2.915411961352092931e+03,1.475756288985360243e+03,7.816416746760650458e-01,-4.334473462303630731e-01,-4.485082947454286373e-01
2.535285279203893879e+03,2.652166796223577876e+03,2.316423750265085800e+03,-8.752005983885224882e-01,3.444780809350774797e-01,3.396450563980852877e-01
1.645121921982817526e+02,3.973292453956121335e+02,2.512503057796380290e+03,1.323238377428155033e-01,9.908649364646561208e-01,2.602075421478067252e-02
1.554180512360679813e+03,1.500341380947714470e+03,2.638608002101749662e+03,-2.882659775190357099e-01,-3.254466836108295680e-01,9.005482676301739264e-01
5.262257995283760010e+02,1.821549614233646707e+03,1.803534534106112005e+03,-4.446337520649407682e-01,8.380440146914132082e-01,3.162009740094917642e-01
1.947542182222695146e+02,2.265412516735999361e+03,3.923496130817845540e+01,-8.929217129930291930e-03,1.657468213401974977e-01,-9.861279127461443084e-01
1.907676866801304413e+03,1.596585013163081840e+03,1.101310302180798999e+03,3.251393728056559684e-01,3.456541817487569501e-01,8.802315461804024466e-01
1.300986184861705624e+03,2.807530356289156316e+03,2.034933112835050224e+03,-1.011639973159836163e-02,-9.482969781544128285e-01,3.172231071023665638e-01
5.978706919532246502e+02,1.504626770325966845e+03,2.797990489582118244e+03,8.188898398548785096e-01,-4.156273230655235795e-01,-3.958198561262917803e-01
1.242474905640870247e+03,2.603107134920235694e+03,2.444866986852089212e+03,5.302137496514628193e-03,-1.144071324356057545e-01,9.934197981648190678e-01
1.895886319163874759e+03,1.657744897835458175e+02,2.429249857932623399e+03,-5.194826105704517527e-01,4.788983782222448471e-01,-7.076681147621475265e-01
1.386608458808422256e+03,2.934721570489589794e+03,1.974443660186631178e+03,6.932199590468833827e-01,-2.157229175770955520e-01,-6.876843107204518857e-01
2.814316584477808192e+03,1.609129677254803937e+03,1.319090178768896976e+03,9.896077250212733656e-01,-1.437932650771167886e-01,-2.179373347426239165e-04
2.291719381992524632e+03,1.364880372616332807e+03,2.893784096706706350e+03,4.038707739194870999e-02,-6.083150431852303308e-01,7.926674537372453422e-01
2.173991864774467103e+03,2.126371515371055466e+03,2.804228284347779663e+03,-2.190514276187320863e-01,-7.312888165609061630e-01,-6.459358627844909995e-01
5.616961697450788051e+02,1.143179640225886260e+03,2.321340437711939558e+03,-7.487980073409122861e-01,4.174981579060189074e-01,-5.147784303439295606e-01
1.424167684321864158e+02,1.787715703952859030e+03,1.476068539488377837e+03,-2.201924181006260223e-02,-9.075563295156362509e-01,-4.193526698927954044e-01
1.825111463402496383e+03,2.559556003975593285e+03,1.088229473643113806e+03,8.861862642022161340e-02,-9.945389326141117481e-01,5.512758443988486495e-02
2.852252638899404246e+03,4.432261491282893644e+02,2.389847545168008764e+03,4.140721848034226160e-02,-9.702217689799232936e-01,-2.386528048341137742e-01
1.809181590324096078e+03,5.198171108874502124e+02,4.325597848482478867e+02,-4.053041535659782091e-01,4.721277748503926314e-02,9.129619360873234557e-01
1.916117674367536893e+03,5.658498266403043999e+02,2.615630469112688388e+03,4.356812489027472868e-02,-1.896428006235947317e-01,-9.808860416303134544e-01
3.547542636027817480e+02,1.754920289778717461e+03,2.079242467638806829e+03,-9.632523169657680739e-01,9.544114511646709098e-02,-2.510696351192973630e-01
2.384172360294965529e+03,1.596854834121781550e+03,1.815962103190271137e+03,-2.862908902827513424e-01,-5.324319589833552691e-01,7.965888118686179631e-01
3.610925130938547909e+02,1.704955184888438680e+03,2.816662986524968801e+03,7.380486063143550934e-01,6.747162726484650097e-01,-6.496625339401207455e-03
1.415751558272765124e+03,2.010786241995855335e+03,1.597911811315645764e+03,-6.790580796614356096e-01,-1.251039519390673982e-01,7.233457856763603200e-01
1.906290372093885935e+03,1.743437761910011204e+03,2.350697854114607708e+03,-8.420683400986156419e-02,-9.674748054173082368e-01,2.385407931335377374e-01
2.717349160265285263e+03,2.498119653130270308e+03,2.792626088948541565e+03,-9.196128930719053018e-01,-1.725829898124349449e-01,3.528841715397865730e-01
6.271060273268358287e+02,1.602970153880830139e+03,2.478779231696172701e+03,5.908123995045377885e-01,-7.520806066908896081e-01,-2.920881196337060115e-01
5.090754720021620869e+02,2.035042422557903592e+03,2.346277659420357224e+02,-5.597126861868370051e-01,-6.141973672017054381e-02,8.264074811270408771e-01
1.238580933543457263e+02,8.167415712181481240e+02,9.018272029890986232e+02,-4.323748675081578452e-01,-1.896588945603217002e-01,-8.815222502361808044e-01
5.279656563663925226e+02,2.413193489960267470e+03,2.826050050448980528e+03,3.754977280201119982e-01,-8.975291276286189168e-01,2.311772508486598099e-01
1.133045036689959716e+03,2.613139520994656323e+03,1.398870032353304850e+03,1.686238195897009906e-01,8.333703245322650055e-01,5.263648066274637660e-01
2.400959690691945070e+03,8.581036848046727528e+02,2.508883974284442047e+03,8.224631045953294597e-03,-9.575518278690983154e-01,2.881438050500247927e-01
1.219180946142408629e+03,1.811339476792342793e+03,1.383206274586345671e+03,-5.153521033302855825e-01,8.035658166891976872e-01,-2.978156944179963794e-01
1.753123649181165320e+03,7.454928000135565753e+02,2.024131256321631099e+03,4.103697547627103287e-02,-9.467469467605830191e-01,-3.193527601936042570e-01
2.868328063348954856e+03,2.969711764636320368e+03,2.496812000396076201e+03,-4.974739417795381313e-01,-5.649168719634778402e-01,6.583225691265097712e-01
6.011288082851560830e+02,4.500718731995157214e+02,1.331150799773952258e+03,3.221795156848201169e-01,-6.221614286974360697e-01,-7.135233116824284405e-01
2.545595967968062268e+03,1.549020628685025258e+03,1.943340915384818118e+03,-8.415037557835226556e-01,5.402219916109736175e-01,5.623947199133737945e-03
1.026949105690757733e+03,1.297758380326237102e+03,2.616802018180019331e+03,-4.612172104469134393e-01,-1.642456988507498550e-02,-8.871352311184905748e-01
7.218407526510848129e+02,2.424267592877415154e+03,1.026129028708404348e+03,3.706945873092370447e-01,9.280369128368216591e-01,3.651042798894565955e-02
2.429568588686066505e+03,2.470812409713672878e+03,2.020588667495811933e+03,-8.101085266153867925e-01,4.177835507797552639e-01,-4.113162770945331115e-01
2.263387679645015851e+03,1.053792687507510664e+03,2.724603981828024644e+03,1.145806201551486658e-01,5.390513258030777966e-01,-8.344428977676097148e-01
1.237571964112805063e+03,1.407603241499667774e+03,8.381459388787999387e+02,-5.094127997138426789e-01,5.356328975798363423e-01,6.734953589431280641e-01
1.559751796493993879e+03,3.216814448056914699e+01,7.104413041426367954e+02,-7.731968980700221206e-01,-1.534062554767010589e-01,-6.153316809619937544e-01
1.782887938720689817e+03,1.379739301946502223e+02,2.294104504194471588e+02,-3.277899972604978590e-02,-3.019598022710512919e-01,9.527569548365349972e-01
9.213402747445647947e+02,1.458046441208210126e+03,2.239344777113572249e+01,-3.579942631158073429e-01,2.051952824010143950e-01,9.108979106664687464e-01
2.778170497798903853e+03,2.700258709089339845e+03,2.063906976709745322e+03,3.968707203170606657e-01,6.697899136628978622e-01,-6.275946963689744695e-01
1.997564789211692869e+03,2.901647087762718002e+03,7.743258276943588498e+02,5.985333026219908509e-02,-4.561666869935117608e-01,8.878792330795262089e-01
1.749023862469715368e+03,2.260194482945100390e+03,1.236269548089386717e+03,-1.473236146835799343e-01,5.662568769610819563e-01,8.109555486281885273e-01
1.648218865470689707e+03,1.773716871021434827e+03,6.167669753639725059e+02,-9.677766672099314960e-01,-2.515147304445907173e-01,1.219273445222013308e-02
1.285215719099804119e+03,4.987420533618641798e+02,1.476062876031242240e+03,4.453333702542504324e-02,7.261030411557175546e-01,-6.861422268872529040e-01
1.729422676852547909e+02,6.553710822774902454e+02,3.916598906088174772e+02,1.119936096034301054e-01,1.395998902985589596e-01,9.838543093551121999e-01
6.531164039427052330e+02,2.708079252117320266e+02,1.775237656468102159e+03,4.635189084914800861e-01,-4.579121921987883703e-01,-7.585951790688936214e-01
2.725746638259538940e+03,1.478797165904711619e+03,2.920428337071196438e+03,-9.341175968561360454e-01,-1.284753420633911458e-01,-3.330441438089133954e-01
2.417982404482803759e+03,7.509269153858057280e+02,2.517005598386745987e+03,-6.708717327280168397e-02,3.486935535492418498e-02,9.971376230187070089e-01
3.609246502961245255e+02,8.497764258612839967e+02,2.238810104440289706e+03,-4.725924559289579330e-03,9.187427061251632887e-01,3.948284508224701450e-01
8.793408919449179848e+02,9.718985326816437009e+02,2.092400971705791108e+03,-5.178580892951700765e-01,-4.333669001201778115e-01,-7.375744906324944727e-01
1.462391797828344579e+03,1.331291462525507995e+03,1.460486263536053002e+03,-3.801180959421429084e-01,-7.136771358560952683e-01,-5.883665344779225315e-01
5.946947567286175627e+02,2.731648960427271504e+03,2.764992857052513500e+03,5.781267780740093759e-02,1.802726324339273128e-02,9.981646718175769539e-01
1.108034949555361663e+03,7.688614905140557312e+02,1.590442217886512708e+03,3.515077502946418742e-01,-1.182293869405747072e-01,-9.286894602322434134e-01
6.920058212435202449e+02,9.985903172150437968e+02,2.245850165964281587e+03,1.644213757541377330e-01,-7.300803906583773761e-01,-6.632859371125156001e-01
2.119362837750202743e+03,2.414562875855886887e+03,2.921603200018159896e+03,-3.496370811597458439e-01,-8.511750578449016613e-01,-3.914778823647917516e-01
1.775018310365118452e+02,2.281379445534181798e+02,1.000119354602515386e+03,4.407534223292118858e-01,8.021747787462450985e-01,-4.028052197383993338e-01
2.174642300303827597e+03,2.506791370759089659e+03,2.599593512940713936e+03,2.042495713092450094e-01,-2.128273158942344534e-01,9.555033470528742079e-01
9.345798087479506648e+02,1.227550398703850306e+03,1.376297415693746871e+03,2.579096411903348054e-02,-9.723402717961241448e-01,-2.321405221266859276e-01
1.675203399888048807e+03,7.677945606441512609e+02,2.518165251176750644e+03,-8.379176182183336596e-01,2.478337672103325395e-01,-4.862843704147293278e-01
1.827888290876196606e+03,1.234820457657572206e+03,3.000000000000000000e+03,-4.456248693257680430e-05,9.649197558109886552e-01,-2.625449730233789247e-01
2.913160751094178522e+03,2.259864320565173728e+02,2.982675176060252852e+03,2.120042972543555448e-01,-8.268609398141576472e-01,5.209176174361305200e-01
1.186639992205887438e+03,6.940842692965260312e+02,1.343380853919627725e+03,5.506120781910606166e-01,-7.535493927665973812e-01,3.591512940408452259e-01
2.628596207268327362e+03,1.702268718917798196e+03,1.274410883597798616e+01,-2.913207050290283484e-01,9.384277003934778927e-01,-1.857032524098565507e-01
2.742772524433460148e+03,2.175338215226334341e+03,6.476716669785595286e+02,8.913332023784958924e-02,-2.427665331606907936e-02,-9.957238047406260506e-01
1.829671058384370326e+03,1.460825446176281730e+03,1.932737336035698092e+02,-5.457454788853870475e-01,6.038588750559001905e-01,-5.809615574996183085e-01
1.470657647626960852e+03,1.124131951487422384e+03,5.454390313833748678e+02,-9.850017686830447872e-02,-9.822766374033649051e-01,1.594688771154146867e-01
2.677686045391028983e+03,9.770655991996467264e+02,2.128788894737553619e+03,-8.015392976973934879e-06,6.329036138877199846e-01,-7.742305957940550654e-01
1.889326651459832874e+03,8.107755800281745451e+02,1.143142152356793531e+03,-1.043808528171601656e-02,-9.990473607527428079e-01,-4.237236538866447078e-02
2.743708643219795249e+02,1.342712248785740030e+03,2.980183440291077204e+03,3.868046986465278891e-01,-1.534203471964745756e-03,-9.221603826475497367e-01
3.238767293599130994e+02,7.365237555559245664e+01,2.233856124597545659e+03,-6.413614597447560815e-03,3.549226815405704533e-02,9.993493705652072290e-01
4.479365967339502390e+02,2.598801533397891035e+03,1.380552110165176146e+03,-1.510796167911939922e-02,-7.212853080456066435e-01,6.924732874930676907e-01
1.285883939868167772e+03,7.796949405255594456e+02,2.070857287610888761e+03,8.238809102378213955e-01,4.711967445298705925e-01,3.149505892837014542e-01
1.562058142342729298e+03,7.921559911544162560e+02,2.501198969562095954e+03,-1.847438675991538160e-01,5.825389217430986255e-01,7.915289685405673126e-01
8.723166674888599346e+02,2.225182043106153742e+03,2.073154568567664683e+03,8.267642168882003428e-01,-5.285386089103930596e-01,1.926340275348763509e-01
8.685613698513428744e+02,1.996602965136709372e+03,2.755974590332192747e+03,-1.671000152597382493e-01,-1.852146715239677832e-01,-9.683868598615245071e-01
1.973188263418648376e+03,5.687382357472333752e+02,2.549889023123924744e+03,-2.537007140762118085e-02,-3.912688000394076160e-01,-9.199266740303241319e-01
4.961106346558089513e+02,1.732222857809737661e+03,2.359997349606904322e+02,7.609701156299685243e-01,3.299731497839418215e-01,-5.586073787015141123e-01
3.708327331184315767e+02,2.730251904891423692e+03,1.814103481386178373e+03,-8.352062202389924639e-02,4.513505557511137134e-01,8.884295028418978113e-01
2.526367168015193329e+03,1.752817069884696366e+03,7.451251330615926918e+02,-2.932532253624736129e-01,-6.808210871297630806e-01,-6.711819374312406605e-01
