x,y,z,nx,ny,nz
6.860616997520005498e+02,1.083472154775931813e+02,1.099351551581943795e+03,4.794210883194029438e-01,1.326946262354272710e-02,-8.774846673511290662e-01
1.969887168155958761e+03,1.414784528268995700e+03,2.516661507248858015e+03,2.643966925277018917e-02,4.445382571067676425e-01,-8.953695783631927529e-01
2.565901454705485321e+03,2.386210650765103765e+03,1.672529742357764007e+03,-3.452832634361926445e-01,6.319118499534182032e-02,9.363686998878899548e-01
2.847230738425983418e+03,2.613303675658436532e+03,1.271858646389541263e+03,7.604965896470483600e-02,7.705028017855497513e-01,6.328837822317537887e-01
1.581080108982030652e+03,2.929933141344699379e+03,8.743365428159678459e+02,-1.879323996056592450e-01,-4.540668126920651693e-01,8.709217776529232236e-01
7.674609495791924019e+02,8.742714907158532469e+02,2.121908554622484644e+03,8.137210149046860685e-01,4.277115019011284436e-01,-3.936000267326829061e-01
1.292608538381532071e+03,1.517138681115995041e+03,1.669906251685207508e+03,-4.743308007819884570e-02,2.476717310601232735e-01,9.676821877806665029e-01
1.530519666822578301e+03,1.486754138363581660e+03,1.385981546042658465e+03,1.661708370249962330e-04,-8.708263913479891150e-01,4.915906513747916873e-01
8.671018200690475624e+02,2.622039601463821782e+03,1.032554815039780351e+03,-3.075196457738770817e-01,-4.905705687796411696e-01,-8.153356269109848231e-01
5.224408633234094168e+02,2.572138114014075200e+03,7.942017210303494039e+02,3.644160637982221673e-01,-7.401370467821564159e-01,-5.651531513018379638e-01
5.673675029011488959e+02,2.303201072435514618e+02,1.556567265779051468e+03,-3.622741013959646095e-01,5.735222673212752031e-01,7.347310285705987987e-01
2.774950620072899710e+03,1.211042367234195353e+03,8.513280533423779843e+02,-6.251759656567772439e-01,-7.304477276651166751e-01,-2.749565949636114670e-01
2.497091846541427913e+03,3.192483450693336522e+02,2.155296677798853580e+02,3.680755396255290801e-01,-8.651297396783692584e-01,3.406918411899713117e-01
9.877745161467857997e+02,1.575748283731277525e+03,1.096918075351447669e+03,-7.398422616241507876e-01,6.175209680103568299e-01,-2.670229989765183221e-01
9.276970585192739236e+02,2.611717905329473069e+03,9.873789515489635278e+02,-1.610523655088675482e-02,-7.030676031007585536e-01,7.109406211673336973e-01
2.710198762815999544e+03,1.726551862904492737e+03,1.462258728091955390e+03,1.627462349360039862e-02,8.821336824316761138e-01,-4.707178591785874389e-01
1.325148070882843285e+03,1.105551632784606454e+03,1.312411761420649555e+03,1.262303595279730059e-02,-2.930580378459338164e-01,9.560113207578797567e-01
2.395624783124772421e+03,4.575662826791831890e+02,2.883117516792800416e+03,-2.267318779150345187e-01,-3.728538523956091977e-01,-8.997625577289127818e-01
1.321677482553427581e+03,2.694579898432541995e+03,6.725059606589396708e+02,7.327593293385277207e-01,1.140021623559466096e-01,6.708705331474318356e-01
3.032768935070570251e+02,2.547749130878101369e+03,2.548833163151859480e+03,-6.462220942617748209e-02,9.778933307213717452e-01,1.988683076298007057e-01
1.969126619573627977e+03,2.773494107146881106e+03,2.778478456878922771e+03,-5.671699207471317394e-02,3.052838652038387113e-01,9.505708518864869339e-01
3.171487493950803014e+02,1.355350114232478290e+03,2.363230171987270296e+03,-3.563973151680393386e-02,-9.986856685095399921e-01,3.683402029460270538e-02
4.806471955885841112e+02,8.772640299595169608e+02,6.073797687388412214e+02,6.545656755365322765e-02,-1.809915601086705683e-01,9.813039758064386886e-01
6.320470617579023838e+02,1.084661653751800259e+03,2.777129932671227834e+03,4.898164675844531718e-02,7.021259870853370222e-01,-7.103660299734722017e-01
2.366936395570206514e+03,2.089984171260956884e+02,2.987131427580594845e+03,-5.071670327159523151e-01,-7.134150266183326705e-01,4.835499981607485065e-01
2.716802847753538117e+03,2.673270320233112216e+03,8.243547843617639614e+01,3.728788858021103159e-01,5.187729774450028711e-03,9.278655204191844641e-01
1.285315020604732354e+03,1.645222688552331078e+02,1.988415246582069926e+02,-6.499884235863281901e-02,-9.774783497231839258e-01,-2.007765581796801257e-01
2.938285657020921462e+03,1.095687927848397521e+03,2.168824130775612957e+03,3.996136617503981067e-03,9.997165410270222319e-01,-2.347058774509842849e-02
6.682833707653506963e+02,1.297939162623688844e+03,2.209444230135290582e+03,-3.631288130024521998e-01,-2.645028564427311379e-01,8.934067965384335785e-01
3.616356499564493561e+02,1.516591435557130580e+03,8.650474318562896769e+02,3.231641514972647400e-01,8.762136364538370970e-01,3.575116704100665399e-01
1.613781495529477752e+03,1.840850517277417339e+03,9.438108579613688107e+02,-7.141630932738352033e-01,-2.441814863231904498e-01,6.560079861880836471e-01
1.455041838456854521e+03,7.119104842290376212e+01,1.407682678370491089e+02,-1.561831732582705246e-01,9.541819123478962883e-01,2.552326282807287905e-01
1.565456880575150763e+03,1.655181187962165723e+03,1.549074150766419507e+03,-4.705785272946776815e-03,-1.300127347166600555e-01,-9.915011570323355450e-01
2.860117197125298844e+03,7.134722320533899165e+02,1.740871354966835440e+02,8.706941864638443329e-01,-4.228321781427702986e-01,-2.512062554657126245e-01
1.124098061032787399e+01,2.332036053277927294e+03,2.408301227606856173e+03,-7.329871064541566839e-02,-2.369969765628635872e-01,9.687413133121665076e-01
6.610155150155585488e+02,1.765043495966705450e+03,1.693633498892986836e+03,-2.128850523502485645e-02,-6.402799042471978286e-01,-7.678466277597745249e-01
1.144044904790707051e+03,4.123057474230761272e+02,2.296225089794462292e+03,-3.911363139511533915e-01,-4.838254108069983683e-01,7.828954947923408847e-01
2.813587357544027782e+03,1.743910522920514040e+03,2.330177256349521144e+02,-1.200187028655095439e-01,1.888573635287518482e-01,-9.746427074592255435e-01
2.844331566036931235e+03,1.712681074342607189e+03,3.210976294939156332e+02,-6.292518131956501915e-04,-1.586065405852109533e-01,9.873416679780852023e-01
1.158184687055674203e+03,2.979346296485720814e+03,3.927808856594879785e+02,7.723337855035037336e-01,5.722934073597713001e-01,-2.756461130913528401e-01
2.779172584105789610e+03,2.841783953973552343e+03,4.061767028245367896e+02,-8.257541829024295232e-01,-5.571623483860158599e-01,8.775048125293151424e-02
2.648031400618713178e+03,2.701697099372313460e+03,7.283617020798641306e+02,-4.981737591969461615e-02,2.562222299483365995e-01,-9.653333092444171815e-01
1.554168611318330477e+03,1.626983707457913169e+03,1.509829283116356919e+03,-3.295812640353438963e-04,-9.981831023788383384e-01,6.025268045114692828e-02
1.059984315330652862e+03,5.385075752621042966e+02,1.537422603972256411e+03,5.856212857858885679e-01,-6.356625425371290605e-01,5.029720088133287081e-01
2.792937846152103248e+03,2.080963556019447935e+01,9.181637902342735060e+02,6.838581329333512002e-05,7.502781383034263785e-01,-6.611223113065578527e-01
8.857900787652705503e+02,2.540394998795256015e+03,2.411209049343846345e+03,9.854590562524224717e-01,-1.532680563408383989e-01,7.334406148821148719e-02
4.007928656086107821e+02,1.928298668769871483e+03,2.609600067715923160e+03,-3.870316227015456294e-04,-5.771415430647758305e-01,8.166440408619488611e-01
1.532327381351972008e+03,8.461506848050781855e+02,1.131964231606580597e+03,-7.838378770130025597e-01,-1.258369726012241729e-01,6.080816054497191203e-01
5.215014093599404532e+02,1.481370658429747209e+03,4.260478153892962894e+01,3.534808201392287130e-01,-7.107660805458642095e-01,-6.081635376600346143e-01
5.270957501079557233e+02,2.837885326981102025e+03,1.895921986169851152e+02,-5.078772111670752931e-01,-6.890665653091219145e-01,-5.169603533640114712e-01
1.328663566596240571e+03,2.779837060670215124e+03,5.383281084851400919e+02,1.254594602943524253e-03,9.411768147653313266e-01,3.379121621672821485e-01
8.687253684706221293e+02,1.715152891980997310e+03,5.858170676405203494e+02,4.748129262673964623e-01,-4.181028813275039502e-01,-7.744305428345599207e-01
2.525605735219103735e+03,1.316896772933831471e+03,7.596953789283472815e+02,-9.132473947939665493e-01,8.623577559184165964e-02,-3.981740660943484666e-01
2.348128266143236488e+03,6.314290866163782567e+01,2.064996246984459049e+03,-7.119024225469785527e-01,6.276206847562371301e-03,-7.022503470980627771e-01
4.674782479525239296e+02,1.819175604964400236e+03,1.876237539985075955e+03,7.846773423336411701e-01,-4.010043146895060362e-01,4.727335486599331116e-01
1.247996921234173215e+03,1.954533004918962433e+02,2.446259844123218272e+02,8.562936601565226957e-02,-9.959739889171905780e-01,-2.652216198083212281e-02
5.040155916447457685e+02,1.004099817347463272e+03,1.854120469276803078e+03,4.521714561356436901e-01,-1.371648794066151512e-02,8.918255615392201019e-01
2.008000025478944963e+03,2.043197575425413788e+03,1.935385920590956630e+03,-1.174809365852304693e-01,1.742960365563898661e-01,-9.776600233106551574e-01
1.664645217775688025e+03,2.551324150045918032e+03,2.505097506261498893e+03,-5.888432175520119660e-01,6.026828574493298118e-01,5.385508689805491578e-01
2.847473728810625744e+03,2.649965496040856578e+03,7.374502065850002737e+02,-9.412022869001117620e-01,-3.373179743325631086e-01,-1.883717935828015805e-02
1.384170179442942072e+03,2.869497931123562921e+03,5.902614864500303611e+02,-2.711323220734713213e-01,-1.497178420010521855e-03,9.625409198490348928e-01
2.400240595350464901e+03,1.635927132450224917e+03,2.942313279198121108e+03,-9.452307577528518134e-01,-2.789102110592165396e-01,-1.695520827500298922e-01
3.033802708298276798e+02,2.384696457426972529e+02,5.280380590222705450e+02,-2.805549792262657886e-03,-8.844076553711416322e-01,-4.667067901919611517e-01
7.257177208213327049e+02,1.199354353132591768e+03,5.517421391034338285e+02,5.320970925108861049e-01,-5.949496955414631527e-01,6.024180806687178258e-01
1.935470671285908566e+03,2.099357913179419938e+03,2.305893011309630765e+03,-2.739679150826361265e-01,-9.149031784603375295e-01,2.964688104142581548e-01
2.292275994828192324e+03,2.565814090964577645e+03,1.731867546715539902e+03,5.772165550209353707e-02,-7.130056346818552937e-01,6.987783449692916982e-01
2.268633186770301108e+03,2.463055387303705629e+03,3.015094375576769608e+02,-1.066854721660376454e-01,-9.291694652446430558e-01,3.539241654446525498e-01
2.321098088983688285e+03,3.725638150586463127e+01,2.890947806702898561e+03,3.292013918441742404e-01,8.550317881934706987e-01,-4.006832724066909379e-01
1.916508156885008930e+03,2.241587911819623059e+03,4.779673945699244086e+02,-6.284045446345931651e-02,8.410860974599749795e-01,-5.372385447288525739e-01
2.237991643600053067e+03,1.428810902694019447e+00,1.874959188870596108e+03,6.905019865882564001e-02,9.940785998612453600e-01,-8.390355989517253588e-02
4.380059872975867847e+02,1.309554426851576409e+03,1.505517920189133463e+02,2.508968770035168161e-01,-5.523509142548078676e-01,7.949586307675136077e-01
2.844222774031047720e+03,1.720662795446074597e+03,1.358506424034863471e+02,-2.721676133006566967e-01,4.090109036649307028e-01,-8.709964815964649221e-01
7.533438534109159264e+02,1.088265191017366078e+03,2.247460438933876503e+03,8.877266872954405752e-01,-4.234539963412198849e-01,1.806323383176813291e-01
2.546750212554985410e+03,3.517567588811153314e+02,1.980336481617825939e+03,6.207308732838576204e-02,9.017617147246592690e-01,-4.277531317084247164e-01
1.590535880028824749e+03,2.902020974688611659e+03,5.860121023182366571e+02,8.124557696140467522e-01,-2.424435382855922583e-01,5.302233049993272385e-01
1.931688248128135911e+03,1.303493147550312869e+03,1.504964151335870611e+03,1.750918317035427690e-02,5.679990913669147323e-01,8.228429137515047564e-01
9.938599253835718628e+02,1.424269988786385511e+03,1.903703632308478859e+02,-8.209745777473776984e-01,-4.929262734796995837e-01,-2.881396043690132025e-01
1.578249406700346981e+03,2.330354147561146874e+03,1.289793912866553228e+03,1.492625520262900185e-01,6.300351849267307180e-01,-7.620868430283648243e-01
6.634704289019133228e-01,1.434478422503796764e+03,1.453106339094447776e+03,-2.362054030911951014e-02,3.146929509448569973e-01,9.488995819901719919e-01
1.762790908498488989e+03,1.063318583253468205e+03,2.053667977354972209e+03,1.885050290020087727e-01,-9.672698540726559768e-01,-1.698672524155695474e-01
1.888070128318070601e+03,1.620298926378461374e+03,4.658772284672971296e+02,-2.208149088091587806e-03,5.934367397495607932e-01,8.048776055979051103e-01
6.498942226369476884e+02,3.957429171022527612e+02,2.119853418990616774e+03,7.891276459683962963e-02,1.818837650527077299e-01,-9.801484946649334784e-01
2.145595644668413797e+02,1.383397485070601533e+03,2.043059661208688567e+03,4.553188019380178565e-04,-4.407007533167152658e-01,8.976539637916541858e-01
1.677536653624523979e+03,2.204238666950329389e+03,1.497100942616688428e+02,-3.386846803427128183e-01,6.927082507871912265e-01,-6.367479615927358338e-01
2.823308232283231064e+03,2.003651969804477631e+03,2.686189868772651153e+03,-5.301135765437635650e-01,7.144265565918749283e-01,-4.566993444272235969e-01
5.303645219924719640e+02,2.077684631681695009e+03,3.769346955100471064e+02,-5.138725673181541130e-04,9.988412540586654176e-01,-4.812364414191026146e-02
1.394352038225694059e+03,2.595312371972636811e+03,2.097061110479311083e+03,-4.035798951353111903e-03,-9.979354024717338456e-01,-6.409871153465343530e-02
1.241388652475919372e+02,2.947982491854593718e+03,2.113893321558164189e+03,-9.262869217330263125e-03,7.730172792341908350e-01,6.343173379777914400e-01
1.483378724231776687e+03,2.276343311767316209e+03,6.198512515209914682e+02,-2.172210061602792563e-01,6.970019886466979342e-01,-6.833763694372700925e-01
1.186417730120729402e+03,9.839436985614688638e+02,2.344818863044583281e+02,-7.116702969559688396e-01,6.739309701689324417e-01,1.983492774823358840e-01
1.198933830045446257e+03,1.547540411702685333e+03,2.903845439630851160e+03,-8.437244805869889008e-01,5.365553231484525565e-01,-1.540733783868852846e-02
2.171480738422794161e+02,2.219071836431834072e+03,1.032396099421845065e+03,-7.757405975028368594e-01,-5.938663845851744894e-01,2.134226854054537270e-01
2.627514680763740216e+03,1.415317500230542464e+03,1.168887060090210213e+02,2.307244793331940935e-01,-7.610112016819285952e-01,6.063234825990606591e-01
2.772725617887374028e+03,2.835915164926128455e+03,1.882834394958323628e+03,-4.360980006312849544e-01,4.979348639534957877e-01,-7.495861558920424716e-01
3.000000000000000000e+03,1.711969831060983324e+03,1.875606068772477556e+03,-1.336939399154067447e-02,-3.641364384391159170e-01,-9.312496515463375424e-01
2.724554873339041478e+03,1.816619719432480622e+02,1.069377985844374734e+03,-3.018950880541491077e-01,7.917952590490122677e-01,-5.309610377007762949e-01
2.058875952507554302e+03,2.040730868507749392e+03,9.868431524575266849e+02,-3.046427246175975947e-02,-4.429683564909921989e-01,8.960195105303483398e-01
5.750346757823105008e+02,3.503135887033259621e+01,3.036785902989771557e+02,-7.719497737712700536e-01,-1.725674182564684578e-01,-6.118120895591899755e-01
1.554237103253774876e+03,8.399389159971883601e+02,2.518507531415341873e+03,4.640513641776088105e-02,-3.483858354113698041e-01,-9.362018334733013258e-01
1.028009203298092416e+03,1.538419710440638482e+03,1.561285534403151814e+03,-8.224478146213546337e-01,5.549472786939076974e-01,1.249524313280239302e-01
1.996895275634388554e+03,7.926425004810627115e+02,2.278420833116840640e+03,-4.458371507588027201e-03,6.321959938223390418e-01,7.747956816596782703e-01
2.258681344511503539e+03,1.468718793296947752e+03,6.829852859721486311e+02,-9.640482784527317772e-01,8.052336693507745891e-02,-2.532329050296642237e-01
8.850155984156851900e+02,4.663437197586816296e+02,8.529458070949501689e+02,8.960361150713853640e-01,2.807792925111178839e-01,-3.439218943084827451e-01
3.176947705182586645e+01,4.780418865336728800e+02,2.368963311421959588e+03,-3.006243677822210691e-01,-6.137074533349550221e-01,-7.300603750489844668e-01
3.278581947273369224e+02,1.059321306183511751e+03,2.532889496536772185e+03,4.681481467040117805e-01,2.440673425625570082e-04,8.836499607699483949e-01
1.943018706191161868e+02,4.535574516324564343e+02,1.293990134509240988e+03,1.188738717056489758e-01,9.874621707286752592e-01,1.038627171102386448e-01
2.278582904693507317e+03,1.793084815771340345e+03,4.748787983894944205e+02,1.826725840528593825e-02,-9.497751830086688385e-02,-9.953117995320677203e-01
3.947452134378322057e+02,1.396618623605005951e+03,8.865923025743087464e+02,7.140934122649637006e-01,6.629332809057091325e-01,-2.249223502175206335e-01
2.242572948130291024e+03,4.098740131406621003e+02,2.801588087464537011e+02,5.703926016546324584e-01,-8.199280078070462219e-01,-4.868615810708699226e-02
4.365659771934035120e+02,1.737260989446254200e+02,2.544052228074457162e+03,-1.737090020722042438e-01,-9.832954224005098220e-01,-5.436262397348046865e-02
1.014571948657988628e+03,2.394317571032796423e+03,1.892264371605053157e+03,-7.128189988393687226e-01,3.769029165102983914e-01,-5.914670459287407756e-01
1.243678783207260949e+03,2.401688316790419321e+03,1.689979320392735872e+03,-5.800774021233765509e-01,-4.821136770279310646e-01,6.565642466418668555e-01
2.447198919276988818e+03,1.294029504747492638e+03,2.240594084652765559e+03,2.170805538596102813e-01,7.456488366980650317e-01,6.299871788114637106e-01
1.202010587226937787e+03,1.216835207383183615e+03,7.246431632232788616e+02,-1.945315200384356222e-02,-1.713836088130286928e-01,-9.850123011959486252e-01
1.923655257333288091e+03,6.892957883279467524e+02,4.890624262132162130e+02,-2.543912893180095836e-01,3.504817149764921091e-01,9.013587739553311495e-01
2.702096599676563983e+03,1.248896604668487811e+02,1.002598687728559526e+03,-9.445516922488548378e-03,-2.760936922115094644e-02,-9.995741618015528962e-01
2.858523145634044340e+03,1.413537474783367315e+03,1.094619038947374747e+03,9.852063175998535538e-01,-1.565371077423377832e-01,-6.974701184280474031e-02
1.375693881162079379e+03,1.177530393887307582e+03,2.210198197609497129e+03,-1.103443862048818364e-01,-5.439372549017934544e-01,-8.318391546224361832e-01
1.130027865533632621e+03,5.817243379113454012e+02,4.365882559339717091e+02,2.820065691256361529e-01,9.586095000268826105e-01,3.924438084870045945e-02
1.841283097669451308e+03,2.496415526205934384e+03,2.951438420123828109e+03,-4.225028818927195062e-01,-9.029539036581295530e-01,-7.852109691600196728e-02
1.823067616344966609e+03,1.924761898008001708e+03,2.136479726063920680e+03,3.981351394714900405e-01,-8.607116203415664524e-01,-3.172757748820611567e-01
2.534131832579583715e+03,1.947428578237265583e+03,2.390777722710860871e+03,3.343802087912119414e-01,9.183128078934390537e-01,2.118760553427715410e-01
1.258289163036253626e+02,4.127470036242313540e+02,3.368990515472621610e+02,5.623523265224640300e-01,8.127506144203667793e-01,1.523033145210186401e-01
1.483985547122701973e+03,8.558819276119743336e+02,1.133423333725093471e+03,-9.296144827366428776e-02,9.574166172472888814e-01,2.733342096292034062e-01
1.675294480576832257e+02,2.310220716204940800e+03,2.648549337421343353e+03,3.113051031118759249e-01,9.135059347515966932e-01,-2.619084571947152273e-01
2.965546206296796754e+03,1.014455226907408701e+03,2.850093162709331409e+03,-6.077849140348149382e-01,4.519674037561823843e-01,6.529341193517066433e-01
2.715913142505143696e+03,1.995153461263029612e+03,1.671936948167579203e+03,1.219338323792149015e-01,-8.990143273217198194e-01,-4.206012123039983841e-01
1.886414855250979826e+03,1.136321050013280001e+03,5.428624085136298163e+02,1.572287954823485823e-01,3.799392677175987229e-04,-9.875621304593056315e-01
2.103960068578182359e+02,6.743009983805602587e+02,1.719063153919249316e+03,-7.725618263648609263e-01,-4.543346346341008979e-01,4.435406004140867720e-01
1.822814551823443935e+03,4.195030079819975981e+02,1.586071941065977853e+03,-5.035397297365890035e-01,-6.984046915435289105e-01,5.086045884641536841e-01
2.226177741044547474e+03,2.029193587859462696e+03,2.110580156211326084e+03,1.612668736865441599e-01,9.429825595262754101e-01,2.911647091950579913e-01
3.660729972969251094e+02,8.064798212080171425e+02,2.970575102624830834e+03,-2.030927859539360392e-01,6.451105159181449444e-01,-7.366041966655454409e-01
2.056714509193591766e+03,2.936467914486659538e+03,2.506294078094863380e+03,-3.629619334124347119e-01,2.250465083736533645e-01,9.042193892868779503e-01
1.953688587117850091e+02,1.837187673548101202e+03,2.241509219812725405e+03,-6.100421334074724866e-01,9.156540474138137597e-02,7.870605898672646816e-01
2.483043074687634999e+03,2.565961112393720214e+02,2.715087218156008021e+03,3.283903078759645155e-01,5.300445991749440583e-04,9.445419655821821747e-01
2.816518752049771138e+03,2.331779552460035347e+02,8.482578727294858254e+02,2.800563882700397023e-01,-9.271207058359727249e-01,-2.490293480683526128e-01
1.550356255268000041e+03,1.552137395072293202e+03,1.564730308568901364e+03,-4.194450303074071656e-02,-7.224268672691312732e-02,9.965047179416570700e-01
8.229961741884150683e+01,1.523449910633313266e+03,1.199725083348828548e+03,-9.235771821694366279e-01,-1.264988089300473351e-01,3.619436971619240939e-01
1.045941972378112723e+03,1.535242575306139301e+01,1.424773362645243424e+03,8.548700407954462621e-01,5.498395136815680678e-02,5.159205156245836310e-01
2.005022369292059238e+03,1.935005176988258881e+03,5.057898456739169433e+02,-1.239345955533379812e-01,5.374381007739650329e-01,8.341465721691265767e-01
2.450496517197122159e+02,1.172838234386010825e+01,1.273598029906537249e+03,3.477210420404067137e-02,-6.604402420974286869e-01,-7.500730547003493509e-01
1.337031472025723588e+03,1.776835502763237400e+03,4.190658847715512820e+02,2.000639325128951429e-01,-8.816782096965054549e-01,4.273382237219609525e-01
1.003524264994733585e+03,1.121959550979540836e+03,2.813384577166583313e+03,1.875744258814980581e-02,9.990696579125597498e-01,3.883267935686759292e-02
2.491205411242779974e+03,5.425922925043046519e+01,9.876543725936707006e+02,-1.665475545480934738e-01,-9.667757572712137870e-01,-1.939240759336527953e-01
2.293978723592144888e+02,5.556552927821027197e+02,2.617051442160507577e+03,8.945159066142480131e-02,-8.800332166523624489e-01,-4.664117821374551554e-01
2.901194787369003734e+03,1.193550105116287114e+03,2.003037975436388024e+03,1.271639521260001238e-01,9.653534397265501887e-01,2.278641386612081654e-01
5.638560248770693306e+02,2.258292108408485092e+03,1.813533170002864154e+03,9.913786880732193552e-02,5.444341615373911036e-01,8.329244423832333766e-01
1.362040773411935561e+03,2.795682302430554046e+03,6.409513971813435091e+02,-8.454853550018623116e-05,-2.791989223107020357e-01,-9.602332813603617900e-01
1.053508471123643098e+01,3.680093127558099582e+02,2.661405627504301719e+03,-1.594936106804397680e-01,-4.052264688337112730e-01,9.001962547737452081e-01
4.328535163093346796e+02,8.474618447567879684e+02,1.709887612876786079e+03,6.883602435834906830e-01,-5.043673931886816925e-02,-7.236133707861940323e-01
4.031230450253915478e+02,1.602406232422626090e+03,2.099451392144047531e+03,-1.998746585064148651e-01,6.301447624238437628e-01,-7.503117347321321962e-01
2.090401642984779755e+03,2.981299853064729632e+03,1.804386149583039469e+03,3.400248364180836758e-01,1.017014124718464418e-01,9.349010286228627287e-01
1.786091302278293369e+03,4.827130431451655568e+02,2.650938746726672548e+02,3.776511424041506526e-01,-1.996009785652466395e-01,9.041786681826972094e-01
3.413085330255750591e+02,1.872119587088756134e+03,4.463218670324185382e+02,-6.395417544240193930e-01,-6.751464590016617029e-01,3.676460298245647906e-01
2.858618053592735578e+03,7.078889138983106477e+02,2.355123079220212730e+03,4.039349113938475178e-01,-6.307583095355305813e-01,-6.625560672947794494e-01
1.336822317480060065e+03,2.746010654207081643e+03,6.341949989821988538e+02,7.187817743619013822e-01,5.844340701077401778e-01,-3.765495698343817588e-01
4.690267328607559989e+02,2.595615741041465753e+03,6.104527019052760579e+02,-3.251675137589824655e-02,6.635244771126200813e-01,-7.474476096372120182e-01
1.634755613000814037e+03,7.988617105454459306e+02,1.460659284093938595e+03,1.436095007631663367e-01,-9.664339122063624332e-01,-2.130300556918183486e-01
1.483442693305470812e+03,2.067504627174232610e+03,5.903231361351106443e+02,1.496076555149678244e-01,9.828420936491351068e-01,1.078840505482601270e-01
1.404134866702057934e+03,2.794657854061287708e+03,7.193468404437552408e+02,-3.963205020143303610e-04,2.190107307608573639e-01,9.757223697044435928e-01
2.368312642664242958e+03,2.614143377559463715e+03,1.191678276971462083e+03,-2.382501770996479362e-01,1.513059358163883553e-02,9.710859479211166878e-01
2.174601683591079563e+03,2.190696555361670107e+03,2.508271802973756621e+03,-5.444387258931580043e-01,4.959594672702846707e-01,6.764692754093198923e-01
2.315748849917845291e+03,2.796855049949784643e+03,6.372759545389244522e+02,-8.046629640082222368e-01,-2.669744692455746637e-01,-5.303226820762491078e-01
1.655649003568144053e+03,1.341810655947564783e+03,3.484807952774360160e+02,4.998320659820176814e-01,1.240127847897782715e-01,8.571981888833131169e-01
2.913227708740443632e+03,2.183096261843810680e+03,6.885365041371338748e+02,7.663108518754365717e-01,-1.260299164038785058e-01,-6.299874113576986456e-01
1.024709590194888960e+03,5.464122134370451249e+02,2.538910503148812040e+03,-1.193606880913651996e-01,-3.717913573151600537e-01,9.206107824504918824e-01
2.038479745807153677e+03,1.929449536062547395e+03,9.892696809200689358e+02,1.787909548649790070e-01,3.991966373651383015e-02,-9.830769119990727667e-01
1.319114579907247389e+03,2.337331177071988350e+03,2.982028173829092793e+03,-2.792120377818677751e-03,-9.757925659904893578e-01,-2.186802968296233107e-01
8.255345848338930637e+01,4.818048925776766964e+02,2.339249323679752706e+03,5.180136670337184140e-02,-6.482697929330589748e-01,7.596465585903694473e-01
2.234006357105710777e+03,1.614110387893663074e+03,2.237794467284819348e+03,-3.917267713210804136e-01,-8.024705529863407349e-01,-4.501012644063093204e-01
6.048638938649955890e+02,1.473514489529241473e+03,1.027502309557385843e+03,1.074846593574150660e-01,-8.244320711714617778e-01,-5.556606950529741074e-01
1.329248189679991583e+03,2.563949764207705812e+03,7.248283574681454411e+02,-6.237303178008114790e-03,9.883785974680578956e-01,1.518843116195359721e-01
2.751398556248951991e+03,2.428722700827504013e+03,1.131797865316962998e+03,3.866366866476360631e-01,-7.103101567524298110e-01,5.881934662612942066e-01
3.755558171390567281e+02,9.273793703167453941e+02,1.067715600936271130e+03,-1.579312781238359498e-01,-9.846512973439852656e-01,7.429356653828356194e-02
5.844991809252694566e+02,2.659331750914489589e+02,1.527831803669843794e+03,-5.246329039162780372e-01,-8.076145916362200694e-01,2.692934969594233952e-01
4.387382364701883830e+02,1.408825300315919094e+03,1.397543991602423574e+01,8.129743650919145359e-02,8.666436071950938125e-01,-4.922596722512520562e-01
2.258427835789615074e+03,4.392718491992174563e+02,2.179951876510437614e+03,5.466323682978312393e-01,-8.608698118881503991e-02,-8.329358232174317589e-01
2.026207096365065581e+03,2.476694363938471724e+03,2.302151079910430781e+03,-9.074856293081885461e-01,-4.200468795028221569e-01,5.518298565921676314e-03
2.567844915564725397e+03,2.907075465465320576e+03,1.337155208450257078e+03,3.085678199174129444e-01,-8.280784346270750884e-01,-4.680512863105795174e-01
1.835406865752327576e+03,2.530430388693618170e+03,2.942967844352149314e+03,1.268343747249069953e-01,-7.003190623007188309e-02,-9.894486209490234163e-01
1.211934033220218453e+03,1.284481784185742754e+03,2.735857850910776051e+03,4.464333586705730994e-01,-5.660387572009740742e-01,-6.930349064891956345e-01
4.566489053625695647e+02,2.605731985172296390e+03,5.974230932043822122e+02,8.519369721290576125e-01,3.551616213375042297e-01,-3.847903562311412173e-01
1.078350979807614522e+03,1.185955329151449405e+03,1.665450236425333060e+03,5.378264022295118352e-01,-3.899750302064806662e-01,-7.474371123247185444e-01
7.211929054742560083e+02,1.048306358572315048e+03,2.239032105391076584e+03,3.419122831611698388e-01,1.989972668023910207e-01,9.184204257466697108e-01
3.799259916495735467e+01,1.156649022363062841e+03,2.504947232365486343e+03,2.262358219488867436e-02,2.421493774438272448e-03,9.997411214392312173e-01
1.380663017175723098e+03,1.200503651173315347e+03,1.587690863825814404e+03,-8.944581450417049551e-02,-9.956769595765546654e-01,-2.503674172238756768e-02
2.916788174588076345e+03,4.462949415085490728e+02,6.870475075688671041e+02,8.181098484177008467e-01,-4.176879641157767997e-01,-3.952632547490142478e-01
6.563247397747886680e+02,1.491264184445504725e+03,8.896177018233328226e+02,-2.653804043338411217e-02,-6.613675265131023773e-01,7.495923740833393412e-01
1.144880884744419234e+02,4.639962006843388167e+02,5.175479773206992604e+02,-9.509842062938590468e-01,5.471752683196586670e-02,3.043600362022451655e-01
3.000000000000000000e+03,2.802875502863003021e+02,2.046172525415339805e+03,-3.462139977469031599e-02,4.258979552074474983e-01,-9.041085611959197577e-01
2.630152547581194540e+03,2.899864769503339176e+03,4.951411972445231982e+02,9.882342515335489352e-01,-1.440577810145711180e-01,-5.138501556956254906e-02
6.061507803341693261e+02,7.382212599853352231e+02,1.128530593588242937e+03,7.570276809379104799e-02,-3.923256617182831474e-01,9.167058776184698887e-01
6.001969969016893174e+02,1.052984177162818241e+03,2.804016181753302590e+03,-8.401488373905768858e-01,-4.325131696400452697e-01,3.272343030905890959e-01
2.608556005404140024e+02,4.864306160642158829e+02,1.542574369146352183e+03,9.646599604317012133e-01,-1.218450605011884950e-02,-2.632160681877595554e-01
5.146802064502626308e+02,7.696186348987698693e+02,1.088356025404614002e+03,-1.431187228311648144e-02,7.135613457758195333e-01,-7.004465547965477157e-01
2.427613674247486870e+03,2.748917179901303371e+03,1.175193028376161465e+03,5.743939530738308985e-01,4.079579044916911180e-03,-8.185688387099976371e-01
2.858062378858466673e+03,4.514699343184944951e+02,6.527706974006383689e+02,-4.696003078468478087e-01,-3.022845829964303510e-01,8.295176801930264077e-01
2.796920740280553218e+03,2.374274121245471633e+03,2.117285635337109852e+03,4.909521858956370499e-01,3.132312264915367295e-01,8.129281333026330270e-01
2.644531737478070227e+03,5.757881472166367303e+02,9.878310348572111934e+02,-2.229104757843096141e-01,-4.140143550029462549e-01,8.825548332183712485e-01
1.489307487040172646e+03,2.939317136930107608e+03,2.733967023519102440e+03,-4.576481473552492241e-01,4.263812448112131448e-01,7.802289454355999521e-01
3.673542905221432306e+02,4.043763226266934225e+02,1.767817114215210722e+03,1.334537744011840832e-01,7.874709189165486345e-01,-6.017305393270351299e-01
1.124659529683261553e+03,2.929272906663727554e+03,2.538608706836323563e+03,3.321725853690336017e-01,-1.305027679787783834e-01,-9.341468841028852665e-01
7.959322651194594300e+02,1.854041247312396536e+03,2.907666046033318253e+03,6.837487739200657222e-01,2.928472885233683598e-02,-7.291296310114216972e-01
1.128411231545803503e+03,5.580530793933648965e+02,4.803331497460581545e+02,1.008810636916473852e-01,9.940658192030207285e-01,4.069592216265825041e-02
1.351366691196468992e+03,2.034007600045467143e+03,1.240041940206003574e+03,-5.044791457461126477e-02,9.646890490472814772e-01,2.585150799534226551e-01
1.568831374568358797e+03,1.821401826981001705e+03,5.090329016846306587e+01,-4.777410101159492717e-01,4.580053268188303828e-01,-7.496630228702552134e-01
2.746090710958923410e+03,1.739999347670117913e+03,2.235344014945487743e+02,2.596058186823940184e-01,-1.837102515336177522e-01,9.480798291218408558e-01
2.694967370559982555e+03,2.006942761143735424e+03,1.630250586767963796e+03,-5.285251973284885163e-02,-9.045070231474613420e-01,-4.231709539120174779e-01
2.069992651409078917e+03,1.464946654557905731e+03,2.150710582690290380e+02,5.386398090766940649e-01,8.339746223297331840e-01,-1.198060323514707898e-01
2.869562796506173981e+03,4.057630649028102994e+02,2.321521611510180719e+03,1.021840777208010143e-01,6.442051603157963324e-01,-7.579961251107081299e-01
2.091972142675087071e+03,1.366433973625790031e+03,3.902578404853126699e+02,-4.654859450768863427e-01,-2.499818179151251651e-01,-8.490182127891763297e-01
1.138203639908634386e+03,2.882157777246495243e+03,8.492466557361316291e+02,7.387801444908212445e-02,8.074218829922991114e-01,-5.853306260962526375e-01
6.556744995884439220e+01,1.661979676632003702e+03,1.699823253000005934e+03,6.602815612890556893e-06,9.699554871871988171e-01,2.432824548376774643e-01
1.236008737156913412e+03,2.006555598839439881e+03,2.496480827959669568e+03,1.158950687220021078e-03,6.763128058455711855e-01,7.366136337881586948e-01
2.826238075055588524e+03,1.364151402112086316e+03,2.739024746495805175e+03,7.055854239516609616e-02,6.098617950157625422e-01,7.893605532804522928e-01
2.776126989010479519e+03,1.327561967132662403e+03,2.867086817810232333e+03,-8.384042408849197159e-01,-5.226040162865682737e-01,-1.548010692060300120e-01
9.849994232869984216e+02,2.499308955785673788e+03,2.259892527807222450e+03,-5.417296428448608037e-01,-1.763032710902882882e-01,-8.218553100552699053e-01
2.895600985655856221e+03,1.112932887864925306e+03,1.157214403416346158e+03,-2.488272151568743373e-01,7.477165699376626673e-01,6.156337775316840233e-01
1.276258451375222876e+03,2.846327566379933160e+03,5.196023111700702657e+02,1.251867023456293970e-01,-3.721988212887838293e-03,-9.921262199738347665e-01
2.604049214994923886e+02,2.337518193540592165e+03,3.088957502898215353e+02,7.632814643638485830e-01,-1.729325908441728954e-01,-6.224915462739240013e-01
1.386131239285585934e+03,2.799311123789665089e+03,4.330772565957197457e+02,-1.570452304341228176e-04,8.256928984253874004e-01,-5.641198567916912987e-01
2.030451110900332424e+03,1.466460894569641368e+03,2.193977597635810639e+02,-7.616170450675057157e-01,-6.414423725551575695e-01,9.214748696221511381e-02
1.777688801295945950e+03,6.551619299728150736e+02,1.104094784273737105e+03,3.624715520845142591e-01,1.179762871454823475e-01,9.244976850164687843e-01
1.433613324389738750e+02,2.335013925376022144e+03,1.842002009726829556e+03,2.210468151179001972e-01,-5.010656016723512574e-01,-8.367027957088212231e-01
2.151552071252736766e+02,4.592063932523197423e+02,4.855279043743075249e+02,-2.672165179944838709e-01,8.282006759843912880e-02,-9.600709186898088721e-01
1.399288979184648724e+03,1.444846971953106447e+02,2.681325297371081433e+03,2.953199203609376267e-01,-3.632872522640447910e-01,8.836337006817076567e-01
2.907973846129957110e+03,2.048220186376618130e+03,1.576841242992680918e+03,8.877182869578752276e-04,9.976354543053821411e-01,-6.872199261616922239e-02
6.333003792169668031e+02,1.534692995630731730e+03,9.289959230149071345e+02,1.680921976729876990e-02,-6.615070652787572447e-01,7.497505269868776079e-01
1.757217988057523598e+03,2.887922732325342849e+02,2.928867243183585742e+03,5.605427269018312675e-01,9.855145614665375420e-02,-8.222405133589765214e-01
3.258391796378114122e+02,2.536744779907465727e+03,2.493371362283206963e+03,9.458726005683318339e-02,9.912639129793633375e-01,-9.191901359230407464e-02
2.695100502494812190e+03,2.035491048528008378e+03,1.705221070639789104e+03,3.131067879935277021e-01,-8.602288513004915371e-01,-4.024555412745771665e-01
1.470303613968545051e+03,1.429928988102233916e+03,1.416052393326530591e+03,1.554145215785400760e-05,-4.669423449764857903e-01,-8.842877621149825007e-01
1.414926748608013440e+03,2.670007509244041557e+03,7.407029449727721158e+02,-1.640936972020973434e-03,-9.999823464254982142e-01,5.710881123695951168e-03
1.055675234207213407e+03,1.581360330191019102e+03,1.573762112604691993e+03,2.643575627111248161e-01,2.448293836937967538e-01,-9.328309878630476337e-01
1.567697528613827899e+03,1.359950490656341344e+03,2.278961942777665172e+03,1.809317829605253392e-01,1.184915753526617072e-01,9.763316221884703605e-01
6.914011482239571933e+02,1.500923101154892947e+03,9.289122068774447598e+02,7.945076400904756142e-03,-6.379183026622566866e-01,7.700630590344463844e-01
2.535318386898131394e+03,1.355125219520297378e+03,6.680264406102446628e+02,-1.114475221349564144e-01,-9.225269734037931657e-02,-9.894791001549263498e-01
1.418351275450703952e+03,2.324746198321363863e+03,1.283492849135629967e+03,-4.495434991027786320e-01,8.451374490069131218e-01,-2.892288621498855239e-01
1.510828893147514236e+03,1.140243678138482892e+03,2.220197743483075214e+02,2.303979453091397067e-01,-5.465143659796981579e-01,8.051328055514413995e-01
2.612325299956339677e+03,2.406114000707370451e+03,1.674128655771153035e+03,-9.149047642888311627e-01,-6.839403223118338537e-02,3.978335438808023872e-01
1.889408279764159715e+03,2.432944089196492769e+03,2.073174751584656406e+03,-6.942446489144903088e-02,9.408553571208903010e-01,3.316194214026947917e-01
2.634162162697836720e+03,1.382302166805040315e+03,2.891713321722524483e+02,-6.342654698570886485e-01,2.545460230872259033e-01,-7.300093395823399334e-01
1.742419051223170072e+03,9.587862974859895075e+02,1.291477266362679302e+03,9.293067405363715228e-01,-1.320368683301171298e-01,3.448988944534912005e-01
1.223245104782718954e+03,2.491743148144620790e+01,2.108886506552534229e+03,-3.028465880528156962e-02,-1.849645614121649406e-01,9.822784485382203279e-01
2.236214468171838234e+03,2.346177572358654288e+03,4.379391744102980510e+02,-2.400370141705681082e-01,-5.256022191196813020e-01,-8.161645294207198198e-01
7.901481615332590991e+02,2.839059594143927825e+03,1.710117385842089107e+03,7.901697426086939924e-01,2.854131617950222966e-01,5.423754280384378568e-01
2.758908652012812581e+03,2.724220050833665937e+03,2.735124383990931165e+03,7.592580548606594482e-01,-3.798790404858033987e-01,5.284118854916051156e-01
1.365996260288391795e+03,1.815526031851016796e+03,2.299664295178474731e+03,9.511025482663576502e-01,2.592895456738829596e-01,1.678477708683445979e-01
1.652383276877853575e+02,2.074822274167382147e+03,1.026536596557924213e+03,8.788159656209957316e-01,-4.325549341396940917e-01,-2.014416231096294585e-01
1.579619946244454013e+03,1.785520202352707884e+03,2.749368350232362445e+03,-6.646737919881964274e-01,3.344326028269821449e-02,7.463848193698043865e-01
2.610397928110208341e+03,1.791740446091869899e+03,2.081971404962316683e+03,-3.527330660900196424e-01,2.776585260465371241e-01,-8.935799499767205223e-01
2.731887439636336239e+03,1.001862791498750084e+03,2.691537350916402374e+03,-1.753639270669753170e-01,-9.827001104086293681e-01,-5.956497365496238316e-02
2.702464418049290998e+03,2.602360933915639180e+03,2.847158366071744695e+03,1.892059188559881422e-01,9.808872314541187132e-01,-4.540219642413224205e-02
2.033824465966392609e+03,7.390431024158637001e+02,2.530953426151766337e+02,9.990674790127060945e-01,1.500566302349373368e-02,4.048459529773618809e-02
1.499775622130921420e+03,1.427037640660130592e+03,1.428324524822006424e+03,-1.727869623663666433e-03,9.881275752529450340e-01,-1.536258750708980880e-01
1.335357996139120814e+03,1.984060078843253223e+03,1.219621375245854779e+03,2.402349087058010778e-03,2.126121474717710402e-01,-9.771337183140831328e-01
2.700383425771896327e+03,5.732802302750246781e+02,7.543086527854702581e+02,-2.847325079633896902e-02,6.499273076878782085e-01,-7.594628158841449928e-01
3.000000000000000000e+03,2.509527748531811085e+03,2.070490944043138825e+03,4.348578344144002350e-01,1.047935782204189453e-01,-8.943807745094810580e-01
2.746478594968163634e+03,1.668419029961017259e+03,1.339744750209053791e+03,-3.225610551743016141e-01,6.425654129209027454e-01,6.950280971317857048e-01
2.072296088748707007e+03,1.163071695771338000e+03,2.339677218819215796e+03,-1.387127543028697507e-01,-7.137582398041858456e-01,-6.865187156264147550e-01
5.396362110202704088e+01,4.895928801411363906e+02,8.004382990951403372e+02,4.223628389763296465e-01,-7.342532149138283025e-03,-9.063971091489060328e-01
2.875709889192383798e+03,4.192464593516448872e+02,1.705879779149277624e+02,1.598255729559066793e-02,-9.241533142695455005e-01,-3.816873191329624992e-01
2.956639304326849015e+03,1.257764455874447549e+03,3.713141652052058816e+02,-4.849488353882671077e-01,8.710215068131348382e-01,-7.839745993678359781e-02
1.185772720819785263e+03,1.019906148047831380e+03,2.909304074991599919e+03,1.549470664336442260e-01,2.733372181579191706e-01,-9.493567147143890939e-01
1.362539427163562777e+03,9.365015573365176351e+02,5.176107874861986602e+02,-1.362088432221140316e-02,1.708182114470130075e-01,9.852084094993934782e-01
8.473847275425467842e+02,1.971481239448408587e+03,2.536480496104972190e+03,-6.759133902309708009e-02,-9.423488146945325772e-01,-3.277348353972682760e-01
2.834372703886250747e+03,1.522557167866207465e+03,2.793369977002524138e+03,-3.093943157441756964e-01,9.475699132003240210e-01,-7.991506105061696452e-02
2.598699633220835494e+03,1.321591557795615472e+03,2.685917222175274674e+03,1.281174587832960808e-02,6.682041073183987434e-01,7.438676832141392081e-01
2.612031677591975949e+03,1.053470690927934896e+02,9.056193001059953076e+02,9.783023696101929149e-05,-6.073356196296074705e-01,7.944453634822004062e-01
2.694950450928495229e+03,1.711330659469467491e+03,1.434937120867962449e+03,1.473092438110510383e-01,-7.778058377074794638e-01,-6.109975986171979345e-01
6.529323619012724293e+02,1.822731683386929035e+03,1.273250888371784185e+03,-9.195442832250450005e-01,8.537880168319919583e-02,3.835997541856344673e-01
2.690325821159381576e+03,9.797455746275887805e+02,1.854622121416610753e+03,-4.782398931559926347e-01,2.421072682780374685e-01,-8.441982440405162436e-01
1.724661267239330755e+03,3.850669174120599791e+02,5.662434517165636407e+02,-2.448799298027705129e-01,-9.331512758447969569e-01,2.631777277221953870e-01
8.799783031493565204e+02,2.064518880349541632e+03,2.340154899874501098e+03,-6.935386376224130789e-01,6.766596398962558823e-01,-2.472567286451810009e-01
2.236478800713668534e+03,1.896009709016467241e+03,5.473781507758230873e+02,2.344275873323283799e-01,-8.385245563270213864e-01,4.918539160504016849e-01
1.533014817520093857e+03,1.564809011247850094e+03,9.255239267713149047e+02,7.562251651580909062e-01,-4.733819459899478166e-01,-4.517001580610620626e-01
1.212152479144700919e+03,1.938577005770442611e+03,9.239363990186619731e+02,9.086704656682556003e-01,1.897303000928659555e-01,3.719145036818363170e-01
2.400202772815570711e+02,3.018512535275641540e+02,2.089224186253331482e+03,5.672572696874718101e-01,7.533687700877467197e-01,3.326479914912920943e-01
2.135217789583525700e+03,2.342983500057971924e+03,2.332847695498920075e+03,9.269487092308184017e-01,1.717431960497945720e-01,-3.335721287306865346e-01
2.729153427850282696e+03,1.899549041458315060e+02,1.540378155431891969e+02,-8.345227303729145785e-01,1.635364545765146671e-01,5.261441252313658890e-01
1.712603885054905732e+03,1.040760158229944182e+03,2.029355695716548780e+03,2.596743110101678523e-03,-1.862763602237448302e-01,9.824939564938879322e-01
2.398267536111859954e+03,2.691137145688639521e+03,2.984346811193677695e+03,-4.085342725422628487e-04,-2.678618174423821330e-01,9.634572537773599121e-01
6.938203328314071996e+02,3.805429561141143608e+02,2.143605000831408233e+03,3.221888116959030902e-04,-9.824638258529284629e-01,-1.864530157567749480e-01
1.465823054062284882e+03,7.720530797519367070e+02,2.025701617064180482e+02,3.644447504022640949e-02,-9.575883622179777177e-01,-2.858256965070383182e-01
7.680009272862588432e+02,2.270653207198626205e+03,2.307992684072345583e+03,4.297164826869431242e-01,-5.030473209056305350e-01,-7.498580781966877051e-01
4.665553297797028449e+02,1.576624428516631724e+03,1.806111348232798491e+03,1.796458358274126699e-01,7.711642068401193262e-01,-6.107643897269389166e-01
2.759771226798735825e+03,2.387641177152572709e+03,9.283568014965833299e+02,-2.940000445525485784e-01,-9.194549606603303893e-01,2.610872442694394668e-01
2.714204119704863388e+03,1.656671221258607375e+03,2.579969847456958973e+02,-1.739146227572835879e-01,-4.954225522234212420e-01,8.510641566530829927e-01
2.698499063585989006e+03,4.268449052554906871e+02,2.050224956361571913e+03,2.045521593267691507e-01,-9.162476697509744916e-01,3.444540924283889805e-01
5.005019191874102376e+02,2.173118887499510947e+03,3.363730609817635582e+02,-1.464832156473781510e-01,-3.457852000603836573e-01,-9.268091836795772087e-01
5.888964848758247399e+02,9.479787159810329058e+02,1.171508627205073481e+03,3.430875068971200176e-02,-7.987638092928938116e-01,6.006657028581012803e-01
2.029505805499791904e+03,1.845038639539876613e+03,2.857940590534446073e+03,5.836907526848724714e-01,4.203602609241351672e-03,-8.119651685603703761e-01
2.637163134160186928e+03,4.659927392053574522e+02,2.380279629127239787e+03,5.138689554732142062e-01,-4.103522937096569789e-01,-7.533589394492450353e-01
1.504227685935186400e+03,5.241339226290613169e+02,8.436918996076037729e+02,-7.738192885676732358e-01,3.494765446267838471e-01,-5.282706251499733607e-01
1.409762298799722885e+03,4.132096844004083778e+02,1.895191665367953192e+03,4.028641607923363205e-02,-5.990335227524159478e-01,7.997098494443604100e-01
2.547317537560711116e+03,2.525081281259084335e+03,2.618511165703812821e+03,-2.676152842541711374e-01,-9.577543611376311272e-01,-1.053026274857726957e-01
2.994981154237366809e+03,9.723673201032293036e+02,2.349365739622855472e+03,-7.246166265699445219e-01,-6.785853645252706290e-01,-1.202191646556372978e-01
2.809475122074596129e+03,4.147696690534809818e+02,6.522325147916145625e+02,6.076107825367848408e-02,9.707740024977019599e-01,2.321765006283846855e-01
2.886285903276726913e+03,6.541999419954501036e+02,5.048193586097091838e+02,6.012222027117191531e-02,2.380221646410597136e-01,-9.693971156183872617e-01
2.140048906494462813e+02,1.429618135797785271e+03,2.009075340000163578e+03,2.148792424447649452e-01,4.304063039449163575e-01,-8.766854194583370008e-01
1.261642092665833843e+03,1.658290621797233598e+03,7.781155021136800087e+02,1.272200835208746050e-01,-8.596345346181333280e-01,-4.948166501248792426e-01
1.840024940007116356e+03,1.880546894543908365e+03,2.524403515026109744e+03,5.436346266885955236e-01,-4.336424161071479322e-01,-7.186206562699868350e-01
1.708158983337538530e+03,2.608934962937241380e+03,2.707893478341878563e+03,-8.869022759563812697e-01,3.633537082868013579e-01,2.852690582198167957e-01
2.933085714324534621e+01,3.984054912579747452e+02,1.353886916909254751e+03,6.489882354210847470e-01,-6.590185598374059817e-01,3.801431415596736585e-01
2.904244436880246667e+02,2.023242124394293342e+03,2.888743791836534911e+03,6.165678442396951286e-01,7.872100394797636458e-01,-1.201861855140004716e-02
2.210351361172514771e+03,5.924672613897652127e+02,1.216591760897044423e+03,4.751731950837050911e-01,-6.818722692759449089e-01,-5.561120777922525793e-01
3.227497210052751484e+02,1.597275312333011698e+03,1.379131715820327145e+03,-6.503541932190061436e-02,-9.700547019043195274e-01,-2.340176693050043388e-01
2.566719050456832520e+03,2.123629589314591612e+03,2.381887899134054805e+03,-2.721108922101163063e-01,2.224565930716707329e-01,9.361990848850256786e-01
2.765350824053958604e+03,1.606338357726562435e+03,2.470999354131476480e+02,5.573150054837707314e-04,-9.212459267631307736e-01,-3.889802460566925135e-01
2.490399267468007110e+03,1.821203371836931638e+03,5.058518256628604490e+02,1.745995536693333572e-01,-6.693579191329892542e-01,-7.221322399342271492e-01
1.172415878368315362e+03,1.774603544331422427e+03,2.552747893751664833e+03,7.981030872320075131e-01,5.174328131792729213e-01,-3.086984709973835117e-01
7.732219712813461001e+02,1.484205260636800176e+03,2.615618563647177325e+03,4.909484986150967623e-01,8.226870438072069192e-01,2.866279812916758818e-01
2.827577630117123135e+03,2.893859418550878218e+03,1.324579969390970973e+03,5.476414220415157935e-02,5.439755941035844256e-01,-8.373120336817665432e-01
1.236916808240547880e+03,2.602309482457811100e+03,1.292253072504397551e+03,-1.043539461256366430e-01,-7.066508679285782302e-01,-6.998248386444959612e-01
9.015832372516182431e+02,1.653576686734217446e+03,2.037835113838384302e+02,-2.785716781929974406e-01,-3.833886456336220716e-01,8.805742254392607826e-01
1.148519524972761246e+03,2.925970723512343739e+03,8.808189908591212998e+02,7.251507408770169194e-02,8.075028714298124743e-01,-5.853893376742207444e-01
