x,y,z,nx,ny,nz
1.511079086486113965e+03,9.666876601043614983e+02,2.482943059086286212e+03,1.778698711448624512e-04,-9.895899975182502750e-01,1.439152708163324301e-01
1.641541266965615705e+03,1.787595292497449464e+03,1.428992205178767790e+03,-5.764926120046193897e-02,9.153233898880551722e-01,3.985720193476712248e-01
2.696332996181592534e+03,2.339622468137032683e+03,9.371318798885354227e+02,2.490383211200665470e-01,-1.250253964320384437e-02,-9.684129290319127836e-01
2.371461382401020728e+03,1.548592955554357786e+03,1.605189576156728435e+03,-4.249560384863750040e-02,-6.656697787327843230e-01,7.450354819304820797e-01
1.374519966239566429e+03,2.643578651926001726e+02,2.879364314733838455e+03,-2.864794356552883330e-05,-7.699085916503678462e-01,6.381541817478300072e-01
1.915921352165543794e+03,2.896080784533917722e+03,7.247036622897152256e+02,9.575640654781714112e-01,-2.880228064716782166e-01,-1.067349320019328474e-02
8.324448995173530648e+02,6.331248741230665473e+02,5.317670762565398945e+02,9.942040217190152296e-01,-4.834109320813920890e-02,9.602865148057526667e-02
5.387132701767350227e+02,2.651599081013235264e+03,2.823311649768310872e+03,-3.286636101382433006e-01,-1.162124144843735829e-01,9.372699216824409429e-01
2.792376986607792787e+03,2.706564832562816264e+03,2.524519036782327476e+03,1.031508115264367226e-02,7.215793162342338807e-01,6.922549309927303884e-01
3.363136141875842213e+02,9.120687262497746133e+02,3.542400095860561464e+02,-6.698681918811288938e-01,-1.155648266801472326e-02,7.423900950405055710e-01
1.461006362854947156e+03,1.360981258979975564e+03,2.871297365157352488e+03,5.235637514635570477e-01,-8.186453953286555452e-01,-2.360099889000382423e-01
2.429997878705201401e+03,4.324737027817462263e+02,1.809608709994906235e+02,-3.190004589457249434e-02,-9.972516567356626283e-01,6.686942657074589069e-02
2.080556086113518631e+03,3.221794395026481652e+02,2.674343964833023165e+03,-7.724400658531549446e-02,1.980777954041549327e-01,-9.771379382740583708e-01
4.088806927290669364e+02,2.384402253219400336e+03,2.306460348358637930e+03,-9.496919882558562120e-01,-2.640215361555277029e-01,-1.684569852772932474e-01
1.590354877408597360e+02,1.234057428874337347e+03,2.603940995275720525e+03,-3.978277754422800960e-01,-4.511409572440978066e-01,7.988772732926665565e-01
2.826912312278941044e+03,9.580295048527257222e+02,1.215441720471686153e+02,-1.018399581107736068e-01,-6.069265493218455321e-01,7.882060559652364073e-01
1.453153195840795661e+03,2.415909186616659554e+03,1.174127431749960124e+03,8.172705568503001172e-02,-5.225162888172918407e-01,-8.487033735585480798e-01
4.416772704056000407e+02,1.621384531101339007e+03,1.177134009130270215e+03,5.061767550357317881e-03,9.552595130865592088e-01,-2.957256180429690962e-01
2.882795292173820485e+02,1.382279064946840435e+03,3.306529165375822004e+02,2.048583168462034341e-03,9.945469788912115749e-01,-1.042694110723077078e-01
1.703015944810907286e+03,2.700406519470976946e+03,2.838020122276178881e+03,5.371080050024665820e-01,-6.388500447841354291e-01,-5.508045127280445374e-01
1.911779687412269141e+03,1.030700700734046904e+03,3.448805564069467096e+02,5.697867804633943711e-01,-8.190356035182647654e-01,6.725849372853542896e-02
1.302966178702308298e+03,2.947367125932701128e+02,2.855914600735056297e+02,1.599551427821040150e-01,5.572065897712116245e-01,-8.148221699322455436e-01
1.808803585614887652e+03,4.183042247828790323e+02,1.651630523555677655e+03,-7.862596899736193912e-01,2.855742795388243604e-01,-5.479443683335647464e-01
1.693052316803742542e+03,2.712024496189498223e+03,5.578008654487917966e+02,-2.156149829958920461e-01,-1.010037086143982799e-01,9.712406653110334798e-01
1.601058092500539260e+03,2.367529089655953612e+03,1.771818867899043425e+03,2.217367621346443829e-01,6.014688027156197547e-01,-7.675077118035251722e-01
1.245080673773777420e+02,2.207460816031815739e+03,9.982343498000749378e+02,-2.859851002924687080e-01,-9.447416665649301937e-01,1.602364061841907994e-01
1.187134264702756809e+03,2.137807972783875812e+03,2.726043690188668734e+03,-5.410001758884985801e-01,-7.881570472257820592e-01,-2.934744939461522706e-01
1.544428107587649265e+03,0.000000000000000000e+00,3.405012690662016439e+02,3.461621554566739232e-06,8.493281795255995803e-01,-5.278651754489473991e-01
2.288586509317281525e+03,2.552375505184365011e+03,1.713088052322526892e+03,7.843024642793757772e-01,-2.808494721005621031e-01,-5.531665378040634407e-01
1.095323207148466281e+03,2.065594457783163307e+03,1.325781561134437425e+03,5.751346715075209559e-01,-5.182128470008905419e-01,-6.329893797159376057e-01
1.900663100508116031e+03,6.203881179750111414e+02,4.446541712705234772e+02,5.154213676117120778e-04,-5.322786089947464383e-01,8.465690856317821256e-01
1.333492263697352428e+03,2.525142152502033696e+03,1.918943796594380728e+03,9.935071557432310074e-01,7.333117179920009554e-02,8.698316348323809066e-02
1.850724737856681031e+03,1.883019649148286589e+03,1.229870746963446436e+03,5.088079391331457035e-02,7.273945296580305309e-01,-6.843305802273660365e-01
3.124594481110574407e+02,9.611268752035330181e+02,1.310049675120322718e+03,2.739144061896324756e-01,-5.766046438804607321e-01,7.697389055629630938e-01
1.151686245962748671e+03,2.027825478424565063e+03,2.637615393284573202e+03,2.789888779812306832e-02,2.660171870675175909e-01,9.635644805846224070e-01
1.948884419575323363e+03,1.460016538481208499e+03,2.213139076716036016e+03,-8.882397262305034014e-01,2.980469005771149704e-01,-3.495686396150772257e-01
1.511460303501053659e+03,1.456369081307931310e+03,1.444720890971332892e+03,-3.556205054496604928e-02,9.764988795931436316e-01,2.125682918837439039e-01
1.289922907384678638e+03,2.577578848220355781e+02,2.527789848441877893e+03,-5.282916642032432775e-02,-9.426287693742447793e-01,3.296362879346426689e-01
9.551642615900153714e+02,1.413194978562642746e+03,1.176634622298411614e+03,7.333979545321136495e-01,-3.391536441242783417e-01,5.891538389634191075e-01
1.493509499227053539e+03,1.586500863666146415e+03,1.492481818522037429e+03,-1.053199109524677844e-02,6.023977565984688365e-01,-7.981265689154204424e-01
1.464406078243503543e+03,1.860053100473013046e+03,2.411019067255939262e+03,-9.160597452847429835e-04,-9.322101886470687271e-01,-3.619161850720958307e-01
3.344919178880643358e+02,5.371705789650959559e+02,2.738817177053603018e+02,-3.201724942346599878e-01,-9.134882262627044280e-01,-2.510554409188832103e-01
1.412037691980814316e+02,2.315800636129006762e+03,1.205660598611951855e+03,4.705958065152315850e-01,3.588315031775127784e-01,-8.060890392615727151e-01
2.569311091301842680e+03,1.676375941620359526e+03,1.718202035229019657e+03,-9.568940165121669894e-01,-1.223003549781331439e-01,2.634320867613422767e-01
2.745976774072807075e+03,2.658394357786456112e+03,2.665729027324789513e+03,1.055555280060122697e-01,-4.762880958065781045e-01,-8.729305128704780703e-01
2.867404551642571732e+03,1.455882692083708321e+02,1.317445238298725485e+02,-1.336235964881608562e-01,-1.573924472551648523e-01,-9.784540622883628469e-01
1.370044814162659350e+03,1.281970081112790922e+03,1.137722403790318140e+03,-3.789620415609591675e-02,9.437390139343193596e-01,3.285126348998440027e-01
1.749743873095292201e+03,2.067611691533500675e+02,5.900254526707367404e+02,-4.614793991889735159e-01,-6.561153104807372349e-01,-5.971176295144450252e-01
1.204364171580574066e+03,8.185366892807272734e+02,6.076867742813127506e+02,7.071708217034097244e-01,-6.897835316708671449e-01,-1.552678600579981971e-01
2.890791759548486880e+03,2.820564172544735811e+03,5.601937439332087934e+02,-6.508199898250633941e-01,1.833529202956830362e-01,7.367598302453449710e-01
2.504512145611547567e+03,2.730113496556095924e+03,1.830154358059480501e+03,3.222203767494842830e-01,7.151484470153487427e-01,-6.202714950237155911e-01
2.647643819792472641e+03,4.665475426597972159e+02,2.771331920183272359e+03,1.104702368490867621e-02,-6.848584536858025595e-01,-7.285923837666685721e-01
1.793979867395569727e+03,2.981028146666197244e+03,6.997478415590026088e+02,-1.603963805357975503e-01,9.867849255935805530e-01,2.298938303407394371e-02
1.506264062008119026e+03,2.496958519756365149e+03,1.170835216226089415e+03,-1.776014289460969564e-01,-5.159355205309592574e-01,-8.380144814326019320e-01
2.222164845774385412e+03,6.908723131255401313e+02,1.599305851726284573e+03,-1.039498930058089382e-01,6.786202274339238061e-01,7.270962843128896402e-01
2.694800703342015368e+03,2.529691337816859686e+03,6.506224988737759531e+02,-4.724988076401951398e-01,-8.752667453551145060e-01,1.032133773018744094e-01
9.392048227261582269e+02,1.907043571668406685e+03,1.127573410420212667e+03,-2.012302105514082173e-01,6.493776997709626020e-01,-7.333587153648679635e-01
2.433724923370471345e+02,1.813934809478256966e+03,1.461873497968292895e+03,3.208143732587358521e-01,-2.389925193569026468e-03,9.471390743540114565e-01
2.695572619044853582e+03,1.171969030381761513e+03,1.216804403499149885e+02,-1.995430132611953136e-02,5.015154527543057572e-01,8.649185374977403917e-01
1.217425546086758004e+03,8.790480111508122718e+02,1.951524791028684376e+03,-9.020970051399348003e-03,2.783150533596563947e-01,9.604474754887658561e-01
1.720007686168566806e+03,8.046121645583651798e+02,1.965662915751635410e+03,7.768129360454233412e-01,-1.423164485133487367e-01,-6.134392316073666862e-01
1.521113043770044442e+03,2.032377759825156545e+03,3.590655070728008127e+02,7.873824962465372224e-01,5.270857067346805813e-01,-3.197021463183723489e-01
2.546384912144714235e+03,1.678893970017460560e+03,1.699289128354927470e+03,2.250595691324368264e-02,8.664771218390806551e-01,-4.987092131020662844e-01
1.539615179535140442e+03,2.183139714977266067e+03,2.138760811773105956e+02,2.850907735969849155e-04,-1.872494456371567861e-01,-9.823123555325099510e-01
1.894188222876939790e+03,9.818791541628451114e+02,3.590855842988799509e+02,-1.770375130176628925e-02,1.072522434815798703e-01,9.940742092308869626e-01
5.815420651891025727e+02,2.932885870698091821e+03,1.706484344784298173e+03,6.734363275048996789e-01,7.373504385371938419e-01,5.289464609694838337e-02
2.518383111338216167e+03,2.102328337023704989e+03,2.584153991029844747e+03,-3.346274786757837405e-01,8.983040846846654728e-03,-9.423076755987036535e-01
1.119003839635127406e+03,2.248128315280089282e+03,2.272245462473520547e+03,-1.295701854001493902e-01,9.824715426101700011e-01,1.340195322203590056e-01
8.228234423496867294e+02,2.861881015456679052e+03,1.793039110402222605e+02,-7.618745377971157806e-01,-6.361479757671784085e-01,1.219136644669196468e-01
2.190779300848376351e+03,4.945276192250958047e+02,1.434728125740767609e+03,3.289838079349059474e-01,9.418060024991270485e-01,6.907320589970677993e-02
1.050040365739560912e+03,2.925126446461583328e+03,5.374741601111551290e+02,8.883330624033732859e-01,-2.567774534279101961e-01,-3.806963483566947470e-01
2.679037379478246294e+03,2.839369601417234207e+03,9.766328312319836868e+02,-3.603850115833299311e-02,-9.884319203964219147e-01,-1.473212991244045034e-01
2.138287608994834500e+03,2.524879184660114333e+03,6.662303740208686804e+02,8.635140904123961292e-01,-4.537586897188632951e-01,-2.201055818553279142e-01
1.079233025992546800e+03,2.991694759838069331e+03,2.057276213316466055e+03,3.022578880679305247e-01,9.407278625341716216e-01,-1.538546643836425087e-01
3.338240330086833296e+02,5.937706840707290894e+02,1.782421235215947945e+03,-7.519690910519614135e-01,2.742447920041562459e-01,-5.994433085464245803e-01
4.127773261338033421e+02,2.862628559977768873e+03,2.749737021019119311e+03,2.495583390469888890e-02,-1.673126701951637429e-01,9.855879852891296089e-01
2.041460312207773541e+03,2.261066497042188075e+03,2.888164965847352505e+03,5.462168209770069949e-02,9.600188909086533329e-01,-2.745545500321146526e-01
2.442139025432803919e+03,4.413615875496021772e+02,2.318293766364158728e+02,5.731777303477198632e-03,2.450000988671086621e-01,9.695061104934049601e-01
2.749627822613048011e+03,2.154035433117454886e+03,1.929077038200259722e+03,-1.304976963165109805e-01,8.056149147867057714e-01,-5.778883632063309683e-01
9.337838142989089647e+02,1.585190901969115885e+03,1.734157790802155660e+03,8.510941535167568794e-01,5.250055530063825193e-01,-2.812678804588353721e-03
2.809551755480978954e+03,8.131001890138988983e+02,1.140199970645552412e+03,-3.153733323949508560e-01,-7.760028684707593882e-01,5.462226737689099831e-01
9.867809385615040583e+02,8.643488814565066605e+02,2.412129312409295835e+03,8.959508679775922690e-01,3.100602010297818234e-01,3.180168453204488266e-01
2.753040610414152070e+03,2.651381746836495495e+03,2.843597587806993943e+03,8.796005155424938549e-01,4.202514531221046568e-01,2.229162380943539024e-01
2.304682254805434241e+03,1.555588539942878242e+03,1.588724165633844905e+03,-8.526226316361517066e-01,4.956269893340483068e-01,1.654948200564305694e-01
3.104828472919811588e+02,1.477090304297874127e+03,1.218133208730256456e+03,-1.940514151858260539e-01,9.760898557690794730e-01,-9.794203249410249335e-02
2.851648711444356650e+03,2.319070192711822529e+03,4.308600307182042002e+02,4.256628360469960626e-01,1.868820520595069340e-02,9.046888420858347768e-01
2.101846371515765895e+03,1.073642836537944731e+03,8.444925993368383388e+02,3.427174950835527589e-01,7.981850575786323398e-01,-4.954243962723781092e-01
3.103038313195694009e+00,1.318242709689073081e+03,1.045538260914574039e+03,-8.738040325914093742e-01,4.718962860375996993e-01,-1.173899819018262569e-01
8.082366895144699583e+02,1.672744208249043595e+03,1.993355208329348443e+03,3.923260035106853651e-03,2.566853462650485196e-01,9.664870620155704417e-01
1.626971824103759218e+03,7.873151421558366110e+02,2.886553801739667961e+03,-2.308500464799232432e-01,2.402032308531909244e-01,9.428736203372677371e-01
2.798489743582346136e+02,2.854795648923615317e+03,1.029179730659466941e+03,9.352873360973765759e-01,-2.171004849371419854e-01,2.794726791225410900e-01
8.888563732225410376e+02,7.829916937144914755e+02,2.377693471615800263e+03,-3.870703474020009693e-01,3.416665040300231188e-03,9.220438560947612494e-01
2.678737158926495340e+03,5.079652355241009900e+02,2.462301982069359383e+03,-8.622558811690307357e-01,2.217126553614059137e-01,-4.553661096766126182e-01
2.697855924486213098e+03,2.475329575391040180e+03,6.629678687543286060e+02,-1.176031068844129862e-01,-1.044251680692332707e-01,9.875550078475860971e-01
1.279531131864233885e+03,1.983656221825408011e+03,1.179717000500416816e+03,-5.630007998546988912e-02,-3.339513837852556843e-01,9.409074206645107186e-01
1.218842602059732826e+03,8.143379742050342429e+02,2.014663066368577347e+03,-1.137796367716201879e-01,9.292915766917204667e-01,-3.513849167877506341e-01
2.395793965392459995e+03,1.786725600574327927e+03,1.546882498304066189e+02,-8.307471039638969490e-01,5.524900151659510872e-01,6.792666926565149588e-02
4.216599061392917065e+02,1.818433462669893856e+02,1.154315251389063093e+02,9.139252596929896555e-01,-3.168822132439742534e-01,2.536262656443568630e-01
1.758940340616340734e+02,2.001302730676789906e+03,1.688163853023194406e+03,-1.938236810136666557e-02,8.735522679627213405e-01,4.863442802624175498e-01
1.503928644740864911e+03,1.366870612508459999e+03,2.911183818724924095e+03,-5.337329717032636145e-01,5.312855580368385233e-01,6.579245935046722504e-01
1.612218508754183176e+03,1.086262104201212651e+03,1.525483779390711788e+03,2.308820413457157716e-01,-7.923341619478981857e-01,-5.647123681967283204e-01
1.362789354204167694e+03,8.960497457268533594e+01,2.419561470772254779e+03,4.332122471003039266e-01,-8.605836692066594074e-01,-2.678113090537966867e-01
2.543691842665689819e+03,1.725352535944299689e+03,2.102123154227537725e+03,-4.698982362936886259e-02,-9.986911023595472781e-01,-2.019996393939982315e-02
1.560056900856361324e+02,1.882115504624965524e+03,1.773099895780432234e+03,-8.926464959553788159e-01,-4.501869201588153957e-01,-2.267091035896795850e-02
2.397317077560079724e+03,3.354932045559332323e+02,4.614987089571631884e+01,-6.969614824064037650e-01,-6.959355228630323964e-01,1.729694772473624464e-01
7.783835359054402261e+02,1.436748875462284332e+03,1.861043164544801584e+03,-7.956403473141363536e-01,-3.058936648150901161e-01,5.228627961060470231e-01
7.857977899867538554e+02,1.749471742123730110e+03,2.072470306623813485e+03,1.647310197735738510e-03,2.000056485748464563e-01,9.797933592892266175e-01
2.755417535838194908e+03,2.679845298300510876e+03,2.878777568912437346e+03,-9.878142429979842598e-01,-1.374922718917825359e-01,-7.293076511565821374e-02
2.524005232296528447e+03,1.837212472823074677e+03,1.872007435382882022e+03,4.791718668258487801e-02,-5.284777636600593992e-02,-9.974522824444259639e-01
1.853453166511725613e+03,1.014282164116967806e+03,3.427048025512134473e+02,-9.625691302216654067e-04,9.985907738517811882e-01,-5.306166072382565574e-02
4.027632984708517938e+02,2.549201371507338081e+03,2.387765456711826118e+03,3.289495649800347477e-01,4.232168744637301860e-01,8.442035660127225061e-01
2.729797062729318441e+03,5.767842298736699149e+02,5.137308499218185176e+01,9.173061898427978811e-01,7.111313413788053484e-02,3.917809033492785087e-01
1.615078256995906713e+03,3.741371376909755782e+02,1.400024979114802591e+03,3.978748455182780086e-01,3.063853011969333226e-02,-9.169279621518318102e-01
1.760326226300497183e+03,6.967178692691358037e+02,3.704407645992429252e+02,-5.889903478757531063e-01,7.933281077708892459e-01,1.540158548002761307e-01
1.785901364487840965e+03,2.441662775309183871e+03,1.134042561227184706e+03,-5.562837941306719713e-01,-6.693004165906827341e-01,-4.925294841317855443e-01
1.524221695295935888e+03,1.567886899240734238e+03,1.432297662092197015e+03,7.640177106815480672e-03,5.572100104355790506e-01,-8.303364570848124071e-01
1.633000273016765050e+03,1.909623351458256366e+03,3.734304579255696126e+02,9.572405630788793571e-04,9.997982082645601176e-01,2.006555360511354247e-02
1.388819673295470011e+03,2.419125816222202445e+02,2.884220180086786058e+03,3.257432435776320134e-01,-6.168194856768144385e-01,-7.165368527528180875e-01
1.624396038290903732e+02,1.086182186240276224e+03,3.174630012282524376e+02,-7.559840605156248339e-02,1.817481734016588302e-01,-9.804348435605619860e-01
1.951422683595723583e+03,1.579722137259610236e+03,1.437114699325331912e+03,1.136154385529446753e-01,-8.846376743395371056e-01,-4.522252948050975441e-01
1.275254516129030435e+03,8.254249193727498550e+02,1.638731895523807225e+03,-2.685242756941769171e-01,6.512506861085149978e-01,7.097656354079888708e-01
3.039137757399745965e+02,2.571449021994149462e+03,3.984972958830223888e+02,-7.272487014949710615e-02,4.236951103452192280e-01,-9.028806935200748285e-01
2.543352868909642893e+03,5.597082644795320903e+02,2.114911518465433801e+03,-2.733147983138191073e-01,-9.166714062754226511e-01,-2.915691237763617938e-01
1.297918722371415186e+02,1.899462167746028399e+03,1.808240545262472551e+03,-2.025950855887167501e-01,-1.511570918944328823e-01,9.675261055213542072e-01
5.661772217109776193e+02,2.455305010212480738e+03,6.715393921781836752e+02,6.448720602271068580e-01,3.648243206016721363e-01,-6.715975290573774625e-01
2.945315190292071293e+03,2.856165004327398492e+03,5.190540087344407993e+02,9.033365424801741428e-01,-4.289246525072888949e-01,-2.594897197605113785e-03
1.464975499148765948e+03,2.217254439933091817e+03,2.301850576269564499e+03,-8.170438877685430867e-01,5.442142802098444143e-01,1.904471125424205269e-01
1.492050135362137326e+03,6.121142026399422775e+02,2.905194998525530536e+03,-3.729422738224349443e-01,3.832107929540600200e-01,-8.450228094907690224e-01
2.576784439210035998e+03,2.975350100151390052e+03,3.078753998645144065e+02,-1.698806197650460370e-01,9.830058734693648548e-01,-6.957030798390140269e-02
1.933212347437535755e+03,1.272653898693385486e+02,1.032596269179220599e+03,-7.480887884129693299e-01,-6.278679068924434281e-01,2.148140036061841063e-01
9.577465533267969704e+02,1.252812786840304170e+03,1.820392767866915392e+03,4.367552127108978444e-01,8.793046844511258620e-01,1.899161817017301079e-01
3.504501667529071938e+02,1.692094012225308461e+03,1.852929364800799704e+03,-6.298643586732625144e-01,-6.151929731667777901e-01,-4.741397425225395978e-01
2.157238885237386057e+03,1.285842295983207350e+03,2.710592888552317163e+03,-4.683639293886118771e-01,-5.835700329179324131e-01,-6.633861969681180693e-01
2.584541491607240914e+03,7.064770080950428337e+02,1.031063008745191155e+03,8.428497850171543515e-01,-1.042427407586806326e-01,5.279561448602103635e-01
1.248655515165753286e+03,3.126164462452447310e+02,2.953368382933613248e+03,-1.096444595947094064e-01,-9.610957282462558871e-01,2.535213869222543437e-01
5.354376743023898371e+02,5.813149371061560942e+02,5.468697724813881678e+02,-4.778808390429259423e-01,8.784129315058950560e-01,-4.541523846556921352e-03
1.930093706075173714e+03,2.897564532419531588e+03,1.870882404084473819e+03,2.867606493034857706e-01,-9.113277474708121328e-01,2.953812226611891578e-01
2.786452332097830549e+03,1.723057454331672943e+03,1.658554483897875116e+03,3.169635250475072996e-01,-1.472996273195840145e-01,-9.369295296771096293e-01
1.361590713042723110e+03,2.110178107284976704e+03,8.396043685426884622e+02,-3.436075284262926372e-04,-8.205580088749405698e-01,5.715631513709219513e-01
1.810942193807569538e+03,1.506233576762080475e+03,1.606971858330375014e+01,5.674863479662940469e-01,-4.500159628630653330e-01,-6.895251105219493137e-01
1.635387764161468340e+03,1.981556458625262394e+03,1.921956017002688895e+03,3.530165520825593456e-02,8.866116824968344190e-01,-4.611653907219080417e-01
2.846849009220086373e+03,2.362591218671088882e+03,1.755317311416722987e+03,-5.388948360852467007e-03,1.638517429479415810e-01,-9.864702557951181561e-01
1.479403876002630568e+03,1.203840685787360371e+03,1.576336038685928088e+03,6.719445287168217540e-01,-6.820839293778544477e-01,2.885343369722129792e-01
8.664893125135289154e+01,2.769476291948202288e+03,7.282627540306929177e+02,-1.852890721946357511e-01,6.021513773840770495e-02,-9.808374467323296431e-01
7.852570591297010196e+02,1.632671635353399779e+03,2.013501720112331213e+03,1.051027554417749699e-01,-2.552656249077710493e-01,-9.611414420047611484e-01
7.852789062150131940e+02,1.168871496363740789e+03,2.078815089062085917e+03,-4.818469665838213262e-02,6.022928761400011544e-01,-7.968196322624995220e-01
1.022800605366358695e+03,1.539745342353108754e+03,4.544931510649877850e+02,-9.917863102796309338e-01,7.774378168251995513e-02,1.015668211160343226e-01
2.326214917294043403e+02,1.059546047541315829e+03,3.517449260176587131e+02,7.113654244940274297e-03,-9.557388849670302999e-01,-2.941302087261030151e-01
1.842544926246054047e+03,1.552574193711124053e+03,5.556967223174342507e+02,-5.427865232241383493e-04,-9.598971208097452079e-01,-2.803519624399868904e-01
2.277749560612689038e+03,1.574548318781903845e+03,1.535947675881616306e+03,7.709082493248844425e-01,-6.041556240286548585e-01,-2.017336191054639460e-01
3.416713331190039753e+02,2.986908425457747398e+03,2.957320593316226223e+03,8.148228367353882451e-01,8.932264822185335962e-02,-5.727872286016246761e-01
1.558971502319242290e+03,1.378411473900022202e+03,1.458617484834614061e+03,-4.941703630387885997e-05,9.348951599895071185e-01,3.549239881807801922e-01
2.826284846163266138e+03,2.646337120050623525e+03,5.993230959023818514e+02,7.098600812843620933e-02,7.679136023479847806e-01,6.366079531225876664e-01
2.592681041924419333e+03,1.972111403311870163e+03,1.519926478829656617e+03,8.151097367351159972e-01,3.825465665748820632e-01,4.350336095997405228e-01
2.471977158682191202e+03,3.241246204904344381e+02,1.952887895636884252e+02,7.134924761933028776e-03,7.349078677882919797e-01,-6.781294262244546012e-01
2.667428810515791156e+03,2.402359882678678332e+03,1.360843940202109934e+03,5.880635757587103774e-01,7.445858624353264288e-01,3.158688403868304406e-01
1.449624256364098756e+03,1.177377323643786667e+03,2.883188648077798462e+03,-9.953605230267437848e-03,-9.035329708959598527e-01,4.284029601284761180e-01
1.881839582428806807e+03,2.438918315628089204e+03,1.260460973657540151e+01,9.801234116400133756e-01,-8.222052829283928166e-02,1.805488373886336984e-01
8.948073105928606310e+02,1.654922994280481362e+03,1.999939515599334072e+03,5.629583243321089475e-03,-2.101124751050906514e-01,-9.776610126202840423e-01
2.914488879670214828e+03,1.036083364288309440e+03,3.258383888343120134e+02,-2.913888323319032900e-02,9.995344115328175238e-01,9.049068773448890393e-03
1.828114934795688896e+03,2.415292600781341207e+03,2.991307613201518961e+03,-6.757054305630763036e-01,-7.369583148728415800e-01,-1.773734048129282925e-02
1.863192858028297906e+03,7.441324139609574786e+02,3.220098413680895533e+02,-1.123977920256192392e-03,9.855457236433641244e-01,1.694059127714039881e-01
2.084016981090294394e+03,1.139179691051524060e+03,2.045112967908627752e+03,-1.901007007215440858e-01,-4.197672444709319994e-01,8.875005262277080309e-01
7.926399285881267360e+02,1.699527377346561934e+03,2.082787862407595185e+03,-1.085464454851370504e-03,1.312390378836789384e-01,9.913501584719112136e-01
1.842973926177479825e+03,1.509596360893384826e+03,5.731293995648137525e+02,1.446883574577938480e-01,3.887438816539695030e-01,-9.099139924700412330e-01
4.924977310884468693e+02,2.300683170328464257e+03,1.589352004097132522e+03,-1.058801096381890156e-01,-8.140206055578358413e-01,5.711040676709100428e-01
4.901481953432463001e+01,2.759868719573733870e+03,1.128731752446988367e+03,-4.752144384450457948e-01,5.518838640029029019e-01,6.852703394621609823e-01
2.429439478850018531e+03,2.785527930799773458e+03,2.903313220913964869e+03,-1.702196705622159069e-04,9.680408797786868025e-01,-2.507923964209635148e-01
2.255333384096977056e+02,1.107428842343362930e+03,1.803657991111919046e+03,-6.708003922985682488e-01,3.396802539190230674e-01,-6.592754801974628487e-01
1.783042565909714085e+03,6.817469125992538466e+02,2.147726414200762065e+03,-7.910264850621444577e-01,6.072719236123168551e-01,7.414789762647090721e-02
2.396068577356314222e+02,1.637259066195702871e+03,1.091529041350012903e+03,1.184035529364641931e-01,-2.853526144022993649e-01,-9.510806927415752510e-01
2.394951531288983460e+03,5.444371413271078382e+02,2.065911259222033038e+02,-2.032819843456284969e-01,8.589726647795939973e-01,4.699387151554413333e-01
2.272959554659192918e+02,1.029202240596259799e+03,2.309494340581019060e+03,4.479765980998895447e-01,4.853175745817990827e-01,7.508553917745347528e-01
1.581093476479791434e+03,2.629262426546892584e+03,9.140464071291893333e+02,-9.675307701667986704e-01,-2.121732347575034650e-01,1.373562056587865066e-01
2.353787755930098058e+02,3.735070815793753809e+02,1.270461459368669921e+03,7.242106008764885861e-01,4.942379333296277877e-01,-4.808823877375565381e-01
2.142703603282242511e+03,1.234259951233721722e+03,5.459790174402501606e+01,-9.971566082965533928e-01,-3.693409399906187607e-02,6.568539587292071547e-02
6.580391078652297665e+02,1.820758529222656534e+03,2.554465716156229064e+03,3.350067379503954279e-01,4.872657056708337708e-02,9.409549441118879587e-01
1.789781349365784990e+03,7.363172234487303740e+02,3.511809493495198922e+02,-4.244213187560694905e-02,2.472517364659587713e-01,-9.680213036170338681e-01
2.883427083725557623e+03,1.123538475203779399e+03,2.238150945947546461e+03,-9.773678827375726907e-01,2.101367976873092513e-01,-2.438335601998398161e-02
9.178153751426505096e+02,4.475352400073877561e+02,1.559792862697184319e+03,8.183945707249783430e-01,5.744133441079688485e-01,-1.672234189875071789e-02
6.665880031819972373e+02,8.163163155626233447e+02,4.029248226478164270e+02,6.544666616808426582e-03,9.844009837756622083e-01,-1.758177194721373127e-01
2.535354388973411005e+03,2.595036740338477557e+03,2.642952656981078235e+03,-4.694287887032111972e-01,8.194526467791479751e-01,-3.288373032721272349e-01
1.741503700432912183e+03,3.512262970428069480e+02,1.002776582522674516e+03,-4.265621189352907239e-01,-9.032191082355921496e-01,-4.732865102172922889e-02
1.544498472302789651e+03,8.737551293889104045e+02,2.508913201186513106e+03,-4.838185402680121316e-01,-8.205812526336486723e-01,-3.042466563811708213e-01
1.421608029164809750e+03,2.449389558199166459e+03,1.199820970153526559e+03,1.556488254392896300e-02,-9.354790577073297531e-01,3.530391862419809401e-01
1.658132988633622290e+03,1.801740703546895020e+03,3.177780567326134928e+02,-1.290544404233079923e-01,-2.052518834691340888e-01,-9.701631902620300174e-01
3.000000000000000000e+03,2.836844961162468280e+03,6.221291549121517619e+02,-1.994546783139596047e-02,9.978926023107298482e-01,6.174570889143991825e-02
2.502554875519646885e+03,2.219365098195646169e+03,2.591070185670502724e+03,5.183402882294564640e-02,-2.616728779951043582e-01,-9.637637357660544524e-01
8.359889524355235153e+02,1.433836345274172800e+03,1.831607021415576583e+03,-2.362303783702879301e-01,7.333950864926267466e-01,6.374377267180718620e-01
2.260109233200529957e+02,5.619003877172116290e+02,3.228065372107803910e+01,2.157166501624664667e-01,9.354541608506291572e-01,2.799854278171087785e-01
1.139978906811734078e+03,1.367570468960737344e+03,8.444150098991128743e+02,2.933101885449335700e-01,8.691714849339943552e-03,9.559778174145638907e-01
1.577730734978189275e+03,1.873836263529152575e+03,1.522738934071356425e+03,6.301280782805733782e-01,1.673476458723144322e-01,-7.582436088642132699e-01
1.756100366289413159e+03,6.819269634395149069e+02,3.400043615379023549e+02,-3.813733758560115539e-01,3.910907438217258170e-01,8.376170833293448137e-01
9.541414785080064576e+02,2.581700873042963849e+03,6.784190058157770409e+02,-3.024154524818964754e-02,1.715104237108730847e-02,9.993954626105658878e-01
1.576976723420356166e+03,1.526755417596077223e+03,1.529847116567788589e+03,1.618687975267860124e-02,4.096476116303022219e-01,-9.121002243226680184e-01
1.952742663082283059e+02,2.651926770793434116e+03,7.562039676729425537e+02,6.109994614102822741e-01,3.517884586183251533e-02,7.908489786047487868e-01
1.389087533913389734e+03,4.186284458977273175e+02,9.538922826887089741e+02,-4.501684413973907062e-01,-7.227140961036305766e-01,5.244356105976749616e-01
3.096561427842251533e+02,2.607943986899969786e+03,2.598221358770096231e+03,1.900260947590269034e-01,7.471460617321588060e-01,-6.369166709615620148e-01
1.162890502836025462e+03,1.174626885409614715e+03,9.470900516848743109e+02,3.287680235949735352e-01,-1.562690658949057385e-02,9.442814127429907112e-01
1.537488361773027464e+03,0.000000000000000000e+00,3.000744459778631494e+02,-2.887100425469516627e-07,-5.968626564166559234e-01,-8.023434235881600207e-01
1.938290690111633239e+03,7.064828090246994634e+02,4.378138416779932527e+02,-4.422160350187318567e-01,8.965606455047379075e-01,-2.497973787771567977e-02
2.441776686418271311e+03,1.590565526356816235e+03,1.881467656187339571e+03,3.340384206258607547e-01,2.052808805487568722e-01,-9.199337441505814894e-01
1.132830287712615700e+03,3.477211584139745355e+02,2.561273984086364180e+03,6.854812142419615117e-01,-7.137659838136162227e-01,-1.437136920127888295e-01
4.652156191869306099e+02,1.982640729333822947e+02,8.494820476166486856e+01,-3.230184462058696138e-01,1.945686785020591877e-02,9.461926409057540566e-01
1.027217409765967204e+03,2.890694577983521413e+03,2.659630718759099182e+03,6.001258247851764399e-02,-9.797863992062404437e-01,1.908326541101623974e-01
8.945485545696010377e+02,2.624711383552015832e+03,6.566712702614025829e+02,2.931180384095142810e-01,-1.133899565878306037e-01,9.493284643915237409e-01
2.984773398913590881e+03,2.761981283319643808e+03,2.585737803556629387e+03,-2.294513955165152497e-01,9.290234894219686623e-01,2.902884999405817568e-01
2.988813372413108937e+03,2.339371141685391194e+03,2.194904257733368013e+03,-5.320103481577759252e-01,7.592394438677285695e-01,-3.748605825216413390e-01
5.545525280943920734e+02,6.377353598888879560e+01,2.282124634244146819e+03,-2.228895772160017774e-01,6.594865529340905308e-01,7.179120578925966001e-01
6.166740809923372808e+02,2.047328965511508613e+03,4.207918247682573565e+01,6.319031242159401929e-01,-3.457125190918361457e-01,6.936723259214763182e-01
2.358556325194844248e+03,2.064859696103701481e+03,2.323444450224960747e+02,8.509403431697631914e-01,-2.018954973605647241e-01,-4.849110645382881390e-01
1.263396989394031834e+03,1.317977809142410933e+03,2.122906068761845290e+03,2.239599993782325771e-01,-4.876391370642818579e-02,9.733776242540888024e-01
1.614477029140486820e+03,2.846842871519346772e+03,1.595220916880596860e+03,1.604839851834021641e-02,-3.456827223976737806e-01,9.382142102636952252e-01
1.264776861357511962e+03,2.709044799516436797e+03,6.585322567284454180e+02,3.725154809110747256e-01,2.967010179510901069e-02,9.275515627398072116e-01
7.162127795314634113e+02,2.937482808563205253e+03,6.303034385587434372e+02,9.171215579232563364e-01,-8.079153364985641739e-02,-3.903341851323343659e-01
4.884386589566104249e+02,2.869754752387124427e+03,2.463792986582329377e+03,2.117961095128290672e-01,8.608234823386752277e-01,4.627367937062560888e-01
2.713685132182724374e+03,2.238798466124911556e+03,4.705880556548478353e+02,1.922843638998300575e-01,1.741884725586893001e-01,9.657562318863432971e-01
1.519919385516173179e+03,0.000000000000000000e+00,2.506165821718610971e+02,3.656734634182881027e-01,-3.284925149522620047e-01,-8.708476248873919801e-01
1.877219555129679065e+03,2.222440148554014286e+03,1.320331209850904770e+03,-5.672850734760621627e-01,8.181575982537238056e-01,-9.383917002487329739e-02
2.632817255184333135e+03,2.092553442167650246e+03,9.940405020836909671e+02,2.801663033071847414e-02,-7.055626576542896045e-01,-7.080934998633497957e-01
2.440156634921653222e+03,3.801777126767569257e+02,2.557664447911964487e+02,-1.720262532495079044e-01,7.387659280223423108e-01,6.516378379024835299e-01
2.563092037774139953e+03,2.050852409593206175e+03,9.996450468843248700e+02,8.931726899377453455e-01,4.286413388916044953e-01,1.360483316420491029e-01
2.451908701846372423e+03,3.947497846157946810e+02,2.766794722105741471e+02,4.324707062276522684e-01,-7.692646201860986466e-01,-4.703201381876957465e-01
1.236674870896506263e+03,6.281627075506731899e+02,5.832285161820484518e+02,7.840817528845339668e-01,-5.573476438747001493e-01,-2.730923079488641325e-01
2.736188838572563782e+03,2.298976984624532633e+03,1.900560778718352140e+03,7.646272204222211988e-01,-6.441622058338390966e-01,2.000665800854251053e-02
8.285204730490570455e+02,2.082818488221464122e+03,2.422938127566560070e+03,2.786544310277089265e-01,9.537310523741926449e-01,1.129105300928072708e-01
1.970275178661664768e+03,2.554514139703960154e+03,2.576695156419993509e+03,-2.609138585286808198e-01,-3.508864549206742178e-01,-8.993345618738763925e-01
2.407806322137793359e+03,2.132796357154285261e+02,1.220777977110698203e+03,-1.175693884782938459e-01,3.907244126730734513e-01,-9.129687137214077541e-01
1.454559923953248472e+03,1.842721574510230539e+03,2.352023739067476072e+03,-4.575544012151377959e-02,-9.312342489861515915e-01,-3.615372915958806055e-01
1.143316466901570948e+03,2.018499146400529071e+03,1.438769983838261624e+03,-8.548721530956889803e-01,-3.512561691076116488e-01,3.818542988174755681e-01
1.074157727752997062e+03,1.208918703829202968e+03,2.992790479683875219e+03,6.515312679829972087e-01,-5.036159746556699845e-01,-5.673428918318160763e-01
1.907003741233983419e+03,2.363714199877903411e+03,1.116906299524258884e+03,2.751568259417925821e-01,-9.603869342712494372e-01,-4.410960914255390719e-02
2.809623493436330932e+02,2.744748779112002012e+03,2.943719109426903287e+03,1.690567658005855955e-01,-9.187061000753382611e-01,-3.569298413153605409e-01
4.502093789912262309e+02,9.795273420724356583e+02,6.455171042293293340e+02,-3.135098022461168532e-01,4.946297579307720182e-01,8.105880621283209075e-01
3.040405509528754919e+02,2.455472244046661217e+03,1.515047968197604860e+02,-7.131407371897507952e-02,3.444814324903391900e-01,9.360805764243846916e-01
8.779098869647930314e+02,7.097203797469433084e+02,3.256348190590678087e+02,4.277741406744940515e-03,-7.215168317404967446e-01,6.923836815260833166e-01
9.812087579305056124e+02,9.514258450683266233e+01,2.504158670211841581e+03,2.918249820538487693e-01,3.132563082257961984e-01,-9.037193509082428466e-01
1.601904055958206982e+03,9.177420264254492395e+02,2.496842454382421238e+03,-1.220447330904685795e-01,9.719012989701198979e-01,-2.012782854285824763e-01
1.833921851999728688e+03,1.517899365143778596e+03,0.000000000000000000e+00,3.213474755886286949e-01,-5.175572298607467037e-01,-7.930134385694141974e-01
2.213924405143462991e+03,2.990888541891603381e+03,6.393070053817662028e+02,-6.553958601346163704e-01,2.636117836400705960e-01,-7.077888767453944796e-01
1.379269967065401943e+03,2.123903394720513916e+03,8.119395242993489319e+02,-6.448217554071951525e-03,-6.843091575648587721e-01,7.291634915183622390e-01
2.922249398413180188e+03,2.446482716753383102e+03,1.563254841805029855e+03,1.090147098041825552e-01,9.856420349547708737e-01,-1.289401875930396291e-01
1.716337920939299693e+03,2.527253456916951563e+03,1.013663107055312935e+03,-7.228284643276841059e-01,5.830000658871964392e-01,3.709850864026835726e-01
4.439496299872542977e+02,6.239148955616146850e+02,5.853181928149363102e+02,3.705759653907755857e-01,9.174947563098596603e-01,-1.444881518277745525e-01
2.032890090241379312e+03,3.729824868920590575e+02,1.087746399496163804e+03,7.912343041799038135e-01,-4.517230805978252883e-01,-4.121826468255960219e-01
1.909922139627582737e+03,2.832982094523015348e+03,2.106385970950903356e+03,2.449077301801672601e-01,-8.005286320987989868e-01,-5.469681095713205821e-01
1.797105197661058810e+03,1.744723234612257784e+03,2.219383579451680362e+03,2.188420402063316617e-03,-6.532313030267022924e-01,7.571552519544327842e-01
2.526080067444680026e+03,2.214028645243331994e+03,2.046181949602804480e+03,5.266928383252778012e-01,2.336678124524422528e-01,-8.173090036703090089e-01
1.753672047055332541e+02,1.618238253560838530e+03,1.858245677829022952e+03,1.627873113341846978e-01,1.785218252560287489e-01,9.703763440932817730e-01
1.711564503709983001e+03,1.884766898781266264e+03,4.631426220530860292e+02,1.314902070753735767e-02,6.950536991968179201e-01,7.188375744820606483e-01
1.363868104038020874e+03,2.129151187119539941e+02,2.878746735783127860e+03,1.264014018361707958e-01,6.125867169842965330e-03,-9.919602609808864102e-01
6.895286444309931539e+02,1.932143163187884511e+03,1.101756538926238136e+03,1.101006656682682605e-01,-1.614039105029963783e-01,-9.807275978036638087e-01
1.649605964948073961e+03,7.704712999986162458e+02,2.840732966273446436e+03,3.345285560184834556e-02,9.240113224384631785e-01,-3.808989136996906444e-01
2.890179907648326889e+02,1.974862708949357284e+03,1.981017003240179747e+03,4.039141133443260867e-01,-9.137617161548539091e-01,-4.350764451223643192e-02
1.262671903011787208e+03,2.423197445311247520e+03,2.977883322252951530e+03,-9.136829962053456544e-01,3.650675506402923376e-01,1.786310888807436659e-01
2.376046585239701471e+03,8.241522493884842788e+02,1.393606030738498873e+02,2.655406670659101187e-01,-5.973919714085981214e-01,-7.567106359968387430e-01
2.139483556360423336e+03,1.109453468822098785e+03,8.376813115356451362e+02,-5.148603080214587679e-01,-7.283748311952077392e-01,4.520939819389340197e-01
1.892032405078588681e+03,2.746228896016747512e+03,1.475215445189639240e+03,-7.241012666434833989e-01,-2.797476188835723576e-01,6.304114730668173294e-01
2.431962742800795240e+03,2.809834297943079946e+02,2.968568366452033729e+02,3.961549811632307794e-01,7.696441890463554536e-01,-5.007085511220457086e-01
1.411216374264547994e+03,1.458497006653536118e+03,1.462023535185383480e+03,-2.765942766334205868e-02,-6.553067652851950475e-01,-7.548562773354876576e-01
2.640048120861100870e+03,3.238843260772425765e+02,2.528088704217239410e+03,-9.723168853213191021e-01,-2.189708019469641664e-01,-8.155772442725674198e-02
1.607333773061235433e+03,9.650605631438270393e+02,2.536988586840699554e+03,-5.396686291253038111e-04,-8.507247189393003506e-01,5.256112264244544585e-01
1.513649309063801638e+03,2.071750448774849701e+03,3.197683836050184709e+02,7.630190548821534635e-02,-4.650872784952027050e-01,-8.819704318177528091e-01
1.585975011426345418e+03,9.121870108267532942e+02,2.468595990089654606e+03,2.930120204557123978e-09,-6.252650152098018221e-01,-7.804124939765421098e-01
1.254411586454616838e+02,1.115612553860763228e+03,1.782364949088844241e+03,-5.831067898770997404e-01,-8.117649481830619962e-01,3.200219524617953226e-02
2.873195144173242625e+03,1.395881816169069452e+03,2.935834319259593485e+03,-7.116673241443848864e-03,4.587305976207831093e-01,8.885468990258498234e-01
6.237044918564226919e+02,8.822364820042093925e+02,2.707107470133364131e+03,-2.770315888614496846e-01,5.587183624187082032e-01,7.817207239603269908e-01
1.469926107308381688e+03,2.000663003721018185e+03,1.646467312735596522e+02,-3.055599464639536800e-01,1.649849406299544186e-01,-9.377702748980030201e-01
2.988204046232987139e+02,2.291261325908713218e+02,1.349431537875435424e+03,5.911827885068676736e-01,7.940449638962168155e-01,1.414054662461812217e-01
2.429247422962092969e+03,2.659026920372331460e+03,2.908083477867045076e+03,3.553578334862146637e-02,8.883556265502354776e-01,-4.577788646042303955e-01
8.057991163821000100e+02,1.550559946936022698e+03,1.285730027834393695e+03,-6.785472184824563602e-01,7.218872196420466070e-01,-1.358400324175361717e-01
2.974148281371297799e+03,1.184155622474469055e+03,1.511335550032179071e+03,-8.461665514727446658e-01,1.924753686534708963e-01,-4.969460731612973525e-01
2.142098940887306526e+03,2.239324662432950390e+03,2.863046853597554218e+03,1.379274423267229654e-01,9.282842976155873949e-01,-3.453466134965623158e-01
1.316743212299755669e+03,3.152720584080530557e+02,1.741926902691825489e+03,7.180313449178709062e-01,-6.931019168209544556e-01,6.356666276085487510e-02
1.031145441851419491e+03,2.368545166548773523e+03,2.345337682046002556e+03,9.190684075117762086e-01,2.853101265961787703e-01,-2.718665002817379772e-01
1.595738077915244730e+03,9.284863756194021107e+02,2.437823629674970562e+03,-3.828153379097278951e-05,9.268736308898323228e-01,3.753735085160153084e-01
8.375494536503521203e+02,4.105727339914591312e+02,3.040944788755651871e+02,-9.264721889871666560e-01,-2.337658376036693963e-01,2.949623979472344448e-01
2.855009402344589489e+03,2.129697149731544414e+03,2.917272759228882023e+03,-7.542691112814843279e-01,6.212356332158666117e-01,-2.124721059092731512e-01
1.847941177773202298e+03,2.736081154135291854e+03,1.491233844163189588e+03,-9.007192315540497596e-01,-1.761982981386843172e-01,3.970629995878655616e-01
1.925063272410888828e+02,1.803629780446393397e+03,1.447929070201070544e+03,1.714084911661513944e-01,-2.485956895667774426e-03,9.851969088331815616e-01
2.210092191705917685e+03,2.159461669117481051e+03,2.709522302005314032e+03,-7.805018419645232131e-01,-3.298399429448800602e-01,-5.310578939514079000e-01
3.642386170809263604e+02,5.167355217123681541e+02,2.111106392845474033e+02,-3.649806573087381600e-02,-9.801133077564297968e-01,1.950533136264413214e-01
9.631013433308407912e+02,2.601500443938922444e+02,2.955702735895204569e+03,8.891890847363862482e-01,-2.665615813038220080e-02,4.567627620761085527e-01
2.406332607108720367e+03,3.242458972582651882e+02,3.354574207314525438e+02,-4.291573412302431695e-02,-9.544863617347816298e-01,-2.951508513065502770e-01
8.595564065148813597e+02,1.581409429431573926e+03,1.982889442864299099e+03,3.772452338697686591e-01,3.996136630740803608e-01,8.354609229683092053e-01
3.531930248778368195e+02,2.551620706096822687e+03,3.874364321278488887e+02,1.067470483223574747e-02,-9.576634737280224074e-01,-2.876920606550034121e-01
1.910105166287958355e+03,2.485809930859758424e+03,6.160139975397322587e+02,-1.474977914617502384e-01,4.046342945078525988e-01,9.025051186680541626e-01
2.561489369070792236e+03,1.270822730448326411e+03,1.720424053309815235e+03,-4.160884961622385303e-01,-3.260903654943362318e-01,8.488435880026525826e-01
1.864944254728954547e+03,2.169207233052919491e+03,4.929315943229768209e+02,-5.132472028059098350e-03,7.784623020077992006e-01,6.276703769364929686e-01
2.231581226487511231e+03,1.188780502769679060e+03,5.199052473902511338e+02,2.820384077915930598e-01,6.407630995731999901e-01,7.140567111621656249e-01
4.727496970685029964e+02,2.271380894863863432e+03,3.202408608422664429e+02,5.370741792441233731e-01,-7.374311278799994263e-01,-4.095688679854503356e-01
2.346008716987954358e+03,1.708511578212068116e+03,1.489219310629604479e+03,-7.761523936789385125e-01,-6.178405316257107316e-01,-1.259386329404661720e-01
3.766174254109403705e+02,1.660014862172896983e+03,1.968724837197822808e+02,-1.898284680937529778e-01,-8.130303742392053223e-01,-5.504059985734502947e-01
2.301531902001287108e+03,2.449089620146845391e+03,2.138291306789179089e+03,-9.497459126213705360e-01,2.939704435585367981e-01,-1.075364113823651518e-01
8.638335014464275901e+02,3.675308080017104544e+02,3.480882701904916416e+02,-9.528511902405670808e-01,6.847024043919962451e-03,3.033607217799899614e-01
2.584678753368476919e+03,2.251763444874790821e+03,1.451166046030669122e+03,-1.126327434083989193e-01,5.919006706275485863e-01,-7.981024127409690472e-01
1.698981416223691667e+03,2.383846207827652108e+02,5.514766997315851995e+02,7.770676687593849928e-04,-6.719675704078841294e-01,7.405801647937670928e-01
2.891790775952792046e+03,2.598265119688289360e+03,1.398984727709433571e+02,4.153680687599985433e-01,6.189374868819069730e-01,6.666226479702728192e-01
1.597208399354108224e+03,3.934588956703526037e+02,1.450210974289743262e+03,-5.876951043784899714e-02,-9.930048334673952093e-01,1.024087171743034569e-01
8.747067873330216798e+02,6.822196130817641233e+02,3.216128744659327481e+02,-2.102942935616262943e-01,-6.228232485433943255e-01,7.535698449176889691e-01
1.335463175984453983e+03,8.584888507596084537e+02,2.187610806501948446e+03,-5.650669918276397530e-01,-4.845242380310033625e-01,6.677840650295105984e-01
9.988938283007795462e+02,2.504155547985616010e+02,2.488857178491692594e+03,9.401608284029894236e-01,1.492807553824713751e-01,3.062888715070196111e-01
2.757060569144393412e+03,6.281177062592648781e+02,3.125814083699307844e+02,-6.244972726474695701e-01,6.388347277698688265e-01,4.493254355710010195e-01
1.512394267198350008e+03,1.517054974968979650e+03,1.524884453996236743e+03,-1.094292551592902611e-02,7.404525837063564708e-01,6.720195113713097745e-01
1.793236379694171546e+03,8.550265875030715890e+00,5.600024079069188474e+02,8.974814808243077868e-01,-3.406543920938061576e-01,-2.801456348483890579e-01
5.980339975429299102e+02,3.529994854418683303e+01,6.567055204155745969e+02,-6.856150431857117589e-01,-5.868746184256068421e-01,-4.307089444221621211e-01
1.514056001697706279e+03,2.042109898067979429e+03,2.224784016688119209e+03,-8.673837974562066677e-02,-8.092904236058826584e-01,5.809694172148097691e-01
1.194408413339229810e+03,5.992916321527321770e+02,5.600475101861443363e+02,-7.147632795213975099e-01,6.280278826056260311e-01,3.077246056423027509e-01
1.876148171008560666e+03,6.777901338604220882e+02,3.592439911195234572e+02,-7.275526431870359134e-02,-4.230276647155428033e-02,9.964522805748244894e-01
2.972445586396238923e+03,1.243481478046896882e+02,1.950191085728916732e+03,-1.136699828493133385e-03,-4.755156910674141479e-01,8.797065052971811960e-01
2.778452109186074267e+03,2.783798492319203888e+03,2.664920492099177864e+03,-1.869619746857704712e-01,6.467161644620617045e-01,-7.394615761789633535e-01
2.885304131436515490e+03,2.272257038699918212e+03,4.184135045022725876e+02,6.939428124296874445e-02,9.894579421825069332e-01,1.271118184227202630e-01
1.643029763199219133e+03,1.828141862173815298e+03,1.629107849022190294e+03,-7.470407471817074319e-01,6.204945696525745458e-01,-2.385720249355794131e-01
1.872965220813051474e+03,2.730360236990005433e+03,2.339566388743347488e+03,-4.940836001695538271e-01,-1.342308727751634068e-01,8.589897955374734551e-01
2.814139764865754842e+03,3.567403081093333412e+02,2.013890485979083905e+03,5.516478929292496503e-01,6.959782911234304592e-01,4.596725144182851608e-01
2.850564557960729417e+03,1.414683591974432602e+03,2.894575101916426775e+03,-7.809765614799958622e-02,4.556954613270027821e-01,8.867031085037195837e-01
