x,y,z,nx,ny,nz
3.569755882352886260e+02,2.074888192928369335e+03,2.804552069429380481e+02,3.305195680361182331e-02,9.523231691654217013e-01,3.032954823636183073e-01
1.037048236261363172e+03,1.809611432036517726e+03,2.671013613787549275e+03,-5.007520580158779655e-01,4.831032248060779799e-01,-7.182330057682054791e-01
1.264721402278551352e+02,1.316093622142597042e+03,5.952632611066665049e+02,-1.479528798583013560e-01,9.852967164675783263e-01,8.544194438239194334e-02
1.520306663566020461e+03,3.564549129245110635e+02,2.599142108009414642e+03,-1.113473357202763581e-01,-9.931921683337905371e-01,3.422115702923519964e-02
2.893864904671643671e+03,2.386314102079912573e+03,4.737043431404798639e+02,-5.872779877807681858e-04,2.815027586566621887e-01,-9.595602388455110043e-01
1.992025622904511920e+03,1.881940416968291174e+03,1.736713216610649624e+03,8.457884695018326460e-03,9.995559131596891689e-01,2.857342566066902248e-02
1.356325938060233966e+03,1.069488534418472909e+02,2.106091144215889699e+02,-2.895145480707058128e-01,-4.848585776972945127e-01,8.252838821210382036e-01
1.182120087577057120e+03,8.466663704607202590e+01,1.556263211790221703e+03,-5.326238096914640563e-01,6.047146201412479938e-01,-5.921419640062485223e-01
1.872081311759229720e+03,2.080005073244072378e+02,2.628724344306821877e+03,-2.776383076543532114e-01,-9.131272003510139124e-01,-2.985225051850297628e-01
2.804893959257537517e+03,5.749872123161244417e+02,2.469832243875913264e+03,4.849487041890505612e-01,3.714014261949045159e-01,-7.917611602786231995e-01
1.996675183980946485e+03,1.289369864928793277e+03,2.599336846468273507e+03,7.492165160208809176e-03,8.864809074939422606e-01,-4.627045149011718705e-01
1.511350829312843871e+03,1.232483508720920781e+03,1.041263246240069975e+03,3.527353476380530942e-03,8.596690283654059295e-01,5.108392305282861701e-01
2.916437717084647829e+02,5.103557317280663597e+02,1.568345663359357104e+03,3.951947080748018093e-02,-9.986681157156518385e-01,-3.316935453165143627e-02
4.820662153095692588e+02,9.754178769401733007e+02,1.002616937514262986e+03,-3.664369714525330668e-01,5.044777931377572022e-01,7.818095050480990960e-01
1.061142381539417556e+03,1.001692849688655656e+03,9.660191506272395827e+02,1.598522673836017807e-03,9.996718237664465878e-01,2.556735208674829757e-02
1.254746864376785879e+03,2.193398827383524804e+03,2.976989548595706310e+03,7.210690430918760274e-01,-6.539919849013856590e-01,2.288097873328678589e-01
1.769253826123394333e+02,5.157691139376383944e+02,2.901003471172860827e+03,-6.908404402434421554e-01,-6.998427034490570797e-01,-1.815480006867663809e-01
5.895099936491725430e+02,2.808887435660248684e+03,2.118757010625507064e+03,-3.770156845065691237e-02,-4.950926094902683428e-01,8.680218313870204927e-01
1.515845509382831324e+03,1.487780983085124717e+03,1.546208939857134055e+03,9.341534452393168361e-04,-6.773088549777140921e-01,7.356982005728426310e-01
3.848128662455162612e+02,2.907767111318669890e+02,1.647368058375334158e+03,2.882054186245814123e-02,-4.796748492532015296e-01,8.769728703675345738e-01
7.668532893255055569e+02,3.848564951624693435e+02,2.591911296158647019e+03,-1.161033411467154164e-01,6.242125643175394645e-01,7.725792442996971543e-01
2.969603265244967588e+03,2.957763416758528365e+03,6.567610390548837813e+02,9.653554892540918697e-01,2.355158788283088500e-01,-1.123434474578837300e-01
9.966563584991802145e+02,2.119138770743314581e+03,1.019570828969537502e+02,-8.580237264790444018e-02,9.762122129578761909e-01,-1.991172220574512763e-01
1.804926101848805502e+03,7.100874680962723460e+02,2.344936486270408295e+03,7.784217993624822363e-01,-5.165686824912980590e-01,3.566739386981896409e-01
2.660363866429708651e+03,6.825875941955133612e+02,1.458187007326125467e+03,8.587814054737777925e-01,3.671134693387574366e-01,3.573824257606186272e-01
1.740259601915412304e+03,4.047246331721217985e+02,2.326999578043052679e+03,2.503614584960297401e-02,8.815774647829549560e-01,-4.713749728059979383e-01
1.487928539053045824e+02,5.293167497060304640e+02,2.863192300928038094e+03,-7.250906242574958194e-01,-6.665895775061404516e-01,-1.729217215217922488e-01
7.447826303187767962e+02,1.722627916551624139e+03,1.980685586771414819e+03,2.415628068978664666e-01,-8.990079289278164465e-01,3.652836624440546354e-01
2.204074046304025615e+03,2.095007413704052851e+03,9.453880279092498995e+02,-7.590619125750129592e-02,9.630897533414781719e-01,-2.582564174177104377e-01
3.984662014023622874e+02,6.004190425074101540e+02,3.483307475747666899e+02,2.085180508010822664e-01,-9.439458588639283443e-01,2.559031809567007820e-01
9.312066956708191583e+02,6.621067887151370996e+02,2.798921530774503026e+03,1.236227427851683269e-01,9.095729298472955415e-01,3.967297603599695410e-01
5.341515820937725039e+02,2.271167254999253601e+03,4.130473997960193628e+02,-3.650178139872635175e-01,-8.720525925161234371e-01,-3.260157532357411125e-01
1.293377697770073951e+02,1.138603526760264685e+03,1.502968508152661116e+03,-7.391744995062875523e-01,-5.680171611726597680e-01,-3.619082257879502329e-01
1.671875333079456368e+03,8.663535114196814675e+02,2.467408542761716490e+03,-3.015699271673890833e-02,9.659552606240242589e-01,-2.569455005697825478e-01
2.139090050241004519e+03,1.428473946766274139e+03,1.911293737850322714e+02,9.982573116464456362e-04,1.879805549701914430e-03,9.999977349041522245e-01
7.613933118925068584e+02,3.614571662570635340e+02,2.640872343323751920e+03,5.281992853791275637e-03,-7.237147619150630096e-01,6.900790128222392683e-01
2.257046600881567429e+02,1.190907486632230103e+02,2.111211548422695614e+03,-6.605510951475465076e-01,1.030105288197459557e-01,7.436807659551598615e-01
1.445182934101683259e+03,2.695332465608912571e+02,2.108076389238517550e+03,5.238062102022776889e-01,-2.613805001971025721e-01,8.107448971595441201e-01
1.271500287256006914e+03,7.801481450462588327e+02,2.495667176938536613e+03,-9.729473378034576847e-02,5.012792095566255268e-01,8.597981675049652939e-01
2.695480724997348716e+03,8.191392375404375343e+02,1.923419691408255630e+03,-6.268890650894363148e-01,6.811447518273782142e-01,3.782220606063480539e-01
6.955040513797733865e+02,2.311872272884256745e+03,1.017081235553779038e+03,4.634890513972257930e-01,-5.175239655643990577e-01,-7.192682700504717808e-01
3.407780405435593138e+02,1.202024006278737716e+03,1.894680477729547420e+03,-1.918537301188453711e-02,-3.707498108665117642e-01,-9.285345977425076835e-01
2.087726725711109339e+03,1.415082147334657748e+03,1.730068581423084595e+02,-1.347629963947053096e-02,-1.879635782140768978e-03,-9.999074238735072839e-01
8.818068932537639739e+02,2.702573170034190298e+03,2.698296666038450439e+03,1.240320094976274240e-01,9.915127144428901307e-01,-3.896918934328196665e-02
7.669677262080385844e+02,2.048908165381236870e+02,7.506574999528621106e+01,5.111498077548147717e-04,7.356519218072182786e-01,-6.773595711785729279e-01
4.825917427412390452e+02,2.435007217361815492e+03,2.709687776613476217e+03,4.325733178770520548e-01,-4.231120777790050580e-01,7.961510499260626705e-01
6.032428968918767396e+02,1.631736805375995800e+02,1.800791580409878406e+03,4.821914334960772375e-02,6.686482936279690703e-01,7.420137287429628969e-01
2.670417615327333351e+03,2.881006455131445364e+03,2.724294141239205942e+02,-4.814571604668192728e-02,-5.197872978343649475e-01,-8.529379549746871625e-01
2.136801283889744809e+03,1.970379415215275458e+03,1.100402471426737975e+03,-1.637459567956622009e-01,-7.859395177485171136e-01,5.962267488752088784e-01
6.518869609710984605e+02,8.943701893983271702e+02,1.294747611991773510e+03,4.512722877680953870e-02,-9.549600033693744772e-01,2.932830121021156033e-01
1.287247096142131568e+03,4.411994495062458554e+02,4.492317723974653063e+02,-4.158007939671458722e-03,-4.076900866110059196e-01,9.131108937303749062e-01
2.543893747049603007e+03,2.631481176470882019e+03,2.744469958140884501e+03,-8.937810011890401363e-01,-4.483932709908078906e-01,-9.949695657709201058e-03
4.108163742438615600e+02,7.002482597666288484e+02,3.000000000000000000e+03,9.356072653299381606e-03,-6.658074257845415511e-01,-7.460649674623975880e-01
1.536863636899839321e+03,1.546120858690286241e+03,1.597240612600890245e+03,-1.449405737871787723e-03,6.795582403920020775e-01,-7.336201313611376840e-01
3.896871786277889669e+02,9.225254213669052206e+02,1.853232777435124490e+02,3.273926194694863623e-02,9.262824741655595329e-01,-3.754050063343569166e-01
2.086781509014477706e+03,1.054263041390998296e+03,1.926422174233664236e+03,-9.627603355651294104e-01,2.694983256739149069e-01,-2.152181965995980661e-02
7.045581625073104988e+02,2.075542540146319880e+03,2.970177303450924455e+01,4.155799066611414738e-01,8.920464161821850535e-01,1.776134357418855947e-01
2.374743998574268062e+03,1.725141739708759133e+03,1.353561396221004088e+03,-3.082026857467458636e-01,-9.478819717386572918e-01,8.081381163717062110e-02
1.042576531152147254e+03,1.211223375520625723e+03,8.852134764717033022e+02,8.619267458743528065e-01,-4.285146143942324959e-01,-2.710304595373203007e-01
6.940902273367222506e+02,2.634734080753386934e+03,2.688063576176975403e+03,2.742343169544501080e-01,4.475106667455454046e-01,-8.511931288218224090e-01
3.118514867895520979e+02,6.270068195032373524e+02,2.708841709575315235e+03,-8.376070635695459510e-01,-2.327322608553081262e-01,4.942166547331032778e-01
2.837454044208702271e+03,2.544603530436643723e+03,2.138054867947699222e+03,-1.278184077449643907e-01,8.951369402785115392e-01,4.270741303220864094e-01
1.060683899619984459e+03,4.687321452342524140e+02,2.664759325863428330e+03,-5.967250605584432099e-01,-7.462056916777050353e-02,7.989686932280890552e-01
1.218907729972555387e+02,5.877181135898716775e+02,2.854110981650723716e+03,-8.115566351728593641e-01,-5.655541179081376990e-01,-1.467118523639277250e-01
1.236224066312371860e+03,9.299064128505881399e+02,2.903574274069931562e+03,4.715396501985726907e-01,8.798621151435300769e-01,5.910174807703427735e-02
1.869778030848505523e+03,6.110796028503060597e+02,2.941466430034871337e+03,8.229972890343553171e-01,-2.872286095291565200e-01,-4.900767165557340377e-01
1.210279083681351494e+03,6.757268064649545067e+02,1.849592736116983815e+03,1.636377938311853464e-01,-9.715340528601799086e-01,-1.713016537081175905e-01
5.358297879889439628e+02,3.697368350361477241e+01,2.801136316469650865e+03,7.259148794520184911e-01,-3.788322718148362175e-03,6.877741172806262071e-01
2.537760863870872072e+03,7.270475072051063137e+01,1.102466424263518775e+03,-5.919569822909757084e-01,-7.856525905383384689e-01,-1.798247427284667133e-01
1.382854979610561259e+03,1.348136573424003188e+02,2.973742399112654766e+02,-2.187563647372526843e-01,2.770387534251929074e-01,9.356255565062111534e-01
3.098008660918067392e+01,4.980859146684057350e+02,6.205634307800150964e+02,-1.733398815165032407e-03,9.691841263623965919e-01,2.463313308040731842e-01
2.602063228865759470e+02,1.182174879001191584e+03,8.044051931489062781e+02,-8.722079761965231826e-02,3.701307442117516278e-01,-9.248760807004614559e-01
1.272482172301805349e+03,1.241766407730576248e+03,2.411023336637658758e+03,6.218226488004281460e-01,-6.507037638867522178e-01,4.357995010350899090e-01
1.239662420782825393e+03,2.016471030194046307e+03,1.869217395609856112e+03,-9.050962772604836948e-01,3.345787468216372962e-01,2.624076810317801378e-01
1.713286185082356042e+03,2.494835249525195664e+01,1.142834821247211949e+03,-2.263029792355008563e-01,-8.974752711978745134e-01,-3.785830149088018626e-01
2.442179182905071684e+03,3.910552456802014945e+02,1.521092885020231961e+03,-2.788087703126208589e-03,-7.504109070610445187e-01,-6.609657306780587493e-01
4.887739428913226902e+02,5.877603296278389280e+02,1.795470179238956007e+03,5.216820180131681584e-01,-5.675236497196683993e-01,-6.369966868756662404e-01
9.003347941341338583e+02,6.076107779360138466e+02,1.484638006679912792e+02,2.237927852686689700e-01,-9.274653603455440543e-01,-2.995409731919853602e-01
3.171960306197238992e+02,1.340775657686433760e+03,4.844465119405416544e+02,6.206536636403204854e-01,-2.254948468719879858e-03,7.840815933416951378e-01
1.657599242128475794e+02,2.319447829788854051e+03,2.334582684510602576e+03,-4.387670232785265134e-01,-6.453535751211568749e-01,6.253017370531146479e-01
6.762532479845560829e+02,2.194212047762665861e+03,2.827096968917931008e+03,5.188792781482380878e-01,-7.547448966554851646e-01,-4.014030837959075004e-01
2.638632458312397375e+03,2.845165942366933905e+03,3.013780083559068999e+02,-1.001308979234702932e-02,-9.433590169070071862e-01,3.316225312807553061e-01
3.822097747758895707e+02,2.948371970666770721e+03,1.092759220491589076e+03,-6.103117189938617182e-01,3.618476962847327338e-01,-7.046884775219397490e-01
9.496866258050695251e+02,4.442522139499891978e+02,2.643559666730467143e+03,5.769726549117327741e-01,6.554341455683916351e-01,4.873485778240651545e-01
2.552316066131789739e+03,1.586485681127487396e+03,1.127461102916854998e+03,5.042123692714319816e-01,4.937571739514574620e-01,-7.085010514072362930e-01
1.472434656191251179e+03,7.558300175464464701e+02,8.324041611203061848e+02,4.398362698528934245e-01,-8.925537216330465817e-01,-9.945808021921066777e-02
2.551645944724612946e+03,1.834100808202300868e+03,1.750604384159519213e+03,-6.467896396958539712e-03,-5.157329877386480632e-01,8.567249568410889582e-01
2.697340690971351250e+03,8.703393225885257607e+02,1.941638045150895096e+03,9.948910650283759177e-03,4.745838069327771858e-01,-8.801540941074268432e-01
2.711551137019021553e+03,8.809623607092285056e+02,2.447174382322613155e+02,3.025183560183945537e-03,9.316007707074104305e-01,-3.634705659084186413e-01
1.201135015867766697e+03,6.146110250792670513e+02,1.842079825454144611e+03,7.762025230212407090e-01,3.219066589422275859e-01,5.421123003438611532e-01
2.995798138229329197e+03,2.878176767445629139e+03,1.331966983779949715e+03,-9.900811588792368667e-02,1.577714908756106815e-01,9.824996435903732284e-01
9.270791029476425820e+02,6.589563434799670176e+02,2.119674319712243232e+03,7.328906050858400301e-01,-6.664696973231577504e-01,1.367095590179772113e-01
1.160132487549564530e+03,6.575537124994860960e+02,1.841223196674587371e+03,2.677898921884021566e-01,9.181018088294680135e-01,-2.921945281243010784e-01
8.728586059537527717e+02,6.770554359293253128e+02,2.082532647300557073e+03,1.567127997885035817e-01,5.378343511581887976e-02,9.861787061631329676e-01
1.562459936826354351e+03,1.518176655334039651e+03,1.480289483774281734e+03,9.964477208070734483e-04,7.260095084511545283e-01,6.876839395612295291e-01
1.201948624566259014e+03,1.310833524656882673e+03,2.712451347650246589e+03,6.379057972965770373e-01,7.109360249859194569e-01,-2.960509451980157802e-01
9.942630572698542437e+02,2.399757571888605526e+03,1.347820543082798167e+03,-1.197615491942919871e-02,4.313178351027101010e-01,-9.021205555997808823e-01
2.287027935388214246e+03,1.083051463121301140e+03,2.080121892889455012e+03,1.974204428757150853e-01,-2.431157412569054932e-01,-9.496946378114714538e-01
2.280285466532361482e+01,6.957153924716528763e+02,1.318842589003893181e+03,6.931488556074348883e-01,4.564755117769005999e-01,-5.578304143000095694e-01
1.953695464836310748e+03,2.176604439271824958e+03,6.491006545129203005e+02,8.557011432576925314e-01,5.116261469073480894e-01,7.755152627910377738e-02
4.221447689879159952e+02,2.497087642456917820e+03,2.304165322145953269e+03,2.092729955732117453e-01,-8.358415837888386601e-01,-5.075171525507096160e-01
1.954951109372337214e+03,9.378261305845124980e+02,7.466254692382234452e+02,9.745044064481928059e-01,-2.087189950015002904e-01,8.232583396856196778e-02
1.071935331665887588e+03,6.718703616565395578e+02,5.856372430732087651e+02,5.145233609817214532e-02,-3.921378442255735869e-02,9.979052741725048525e-01
2.875387806068214559e+03,2.128025595167623578e+03,2.267142406292551641e+03,7.454514853590221701e-01,6.503298410802997864e-01,-1.461956934266521735e-01
5.619911579664860710e+02,1.839900778440195609e+03,6.862745885538397488e+02,9.515768580151608980e-01,1.237321344588031551e-04,-3.074109106397386881e-01
6.416373979518933766e+02,1.302961432744871217e+03,1.881206711059179497e+02,-2.871698864889816322e-02,4.863021408968764003e-01,-8.733187060415307235e-01
2.370442469480094587e+03,6.977892671723667490e+02,1.396763078220738407e+03,1.804817965028237825e-01,-5.427190568087227884e-01,8.202940609974960218e-01
1.148766742648395621e+03,4.308140622987147594e+01,1.061541852352347632e+03,-1.535225968969678723e-01,9.696673053401864140e-01,-1.902002344801735079e-01
1.895574036850783159e+03,2.439130413105419848e+03,2.395198246121773536e+03,6.743722545415441472e-01,-1.695361092689991744e-01,-7.186651306126412564e-01
1.053906534758315729e+03,9.172579777475914398e+02,2.414140536121142304e+03,-5.620944100940824528e-01,-7.125946634952643466e-01,4.198317754756735187e-01
4.352512860620145716e+02,8.603200171672223178e+02,1.134323851858814123e+03,2.707385294558197208e-01,-3.194171150725661490e-01,-9.081152764196951388e-01
4.104402826724935949e+02,6.687550221744262444e+02,3.858513168977518148e+02,-8.854310237755944057e-02,-8.663112371997410133e-01,4.915943035906855108e-01
1.837559067662108646e+03,2.710467617974316454e+03,1.663762340363502688e+02,-5.983290829784566195e-02,-1.255006331367102546e-01,-9.902876421358122183e-01
8.903210999185156425e+02,2.712061683554235969e+03,2.739716456919957636e+03,1.085207496362674195e-04,1.509825488271424598e-01,-9.885364222793748823e-01
8.430286089679551651e+02,7.007843968552380147e+02,2.102623591572841633e+03,8.567660380553596827e-03,9.999631914092883544e-01,-4.593714778708265448e-04
7.472703186031593248e+01,2.788003686415770517e+03,2.323028857881749445e+03,-8.033008465788941121e-01,-5.677965054163573999e-01,-1.797633953912876059e-01
1.465418333697171420e+03,2.710979680706389445e+03,3.000000000000000000e+03,-5.426015724887012226e-01,-1.901766037989255365e-01,-8.181787047462767415e-01
2.656036081056572584e+03,1.121067238914710742e+03,1.783997874369003057e+03,7.692804175213694418e-01,-2.757001992783535416e-01,-5.763653696536803483e-01
7.701290324572297550e+02,2.237375291037421903e+03,1.144930679295551954e+03,-8.098594994345958975e-02,8.136962444500692726e-01,-5.756211407511095945e-01
1.740811538695340460e+03,4.154809323479853447e+02,2.277295681203063396e+03,1.407871874415501934e-01,-8.730705161082580323e-01,4.668263507502098397e-01
9.213705870814768559e+02,4.867148274995503243e+02,2.662957871987207000e+03,1.269955996958798961e-01,7.263149689853136692e-01,-6.755284475769666175e-01
1.492838147607019152e+02,3.372298316054517500e+02,1.001768670287053965e+03,1.809746243891447934e-03,-3.626877377918749090e-01,-9.319089707015084656e-01
2.985129782242365764e+03,2.232921011377951800e+03,1.171910075679442343e+03,-9.023985973529072835e-01,-4.283373444398563268e-01,-4.694561591584012206e-02
5.890814820902351130e+02,2.291994057477338629e+03,4.211763485052657643e+02,-3.020014405304307092e-01,-8.929471237062688305e-01,-3.338271471618901587e-01
1.195733711840902288e+03,8.293522267598963253e+02,2.460004651501473290e+03,-7.334421402685668834e-02,4.277736987937361679e-01,9.009052607733558649e-01
7.898523166211851958e+02,8.970387117035411393e+02,1.649367793373262430e+03,-5.211315413982121197e-02,1.508704070166748124e-01,-9.871789804550248348e-01
1.184918060688534752e+03,1.526261247845491766e+02,1.361220368110606387e+03,2.379338921068830381e-01,9.018866538005326783e-01,-3.605383844798613069e-01
2.346123650898481173e+03,2.726929367274317883e+03,2.095266761447737736e+03,-3.899715444436572809e-01,7.573256337146753170e-01,5.238130191613168396e-01
6.070473483439393476e+02,1.412114517310728843e+03,2.951481484548867229e+03,-3.033197846354899752e-01,7.936282909251839435e-01,-5.274004589416392275e-01
2.709193675452733260e+03,6.276810844093813557e+02,2.036937388954369681e+03,2.668604738474465443e-01,3.283010530491534129e-01,-9.060926586529289839e-01
2.288001860438247945e+02,3.188541377448232765e+02,8.385105855167440723e+02,4.074173853169235637e-02,-8.420408284980951397e-02,9.956152786959617806e-01
8.861457587872802151e+02,6.575720722295337737e+02,4.942363771900356539e+01,-5.595572216787416840e-05,-1.669438162814944338e-01,9.859664086947018680e-01
2.920680190838433191e+03,9.176414987484530457e+02,2.986611403779800639e+03,3.421406836978988508e-01,-2.737521856692503031e-01,-8.988879203771973359e-01
2.356523723098808887e+02,1.394178387659651889e+03,7.792760378128912180e+02,-1.544868065635429388e-01,-7.202791464990360160e-01,6.762630979998973668e-01
4.105476553966356050e+02,1.403105274658712460e+03,2.128137468049051677e+03,4.065724534922663391e-01,-2.467005301906609882e-01,8.796804467901544466e-01
6.026562285304466968e+02,6.867653941887569999e+02,3.462779247065915911e+02,5.622866593471156360e-01,6.936866964877759223e-01,4.501471757504837967e-01
8.549674113761200260e+02,2.050675219216245750e+03,2.545506576408523870e+03,6.664585323441158948e-01,-1.178902756415545769e-03,-7.455411691208058134e-01
2.199122152326714968e+03,2.057475745918118264e+03,1.055799487588352122e+03,-5.934911901702476511e-01,6.682841207362205660e-01,4.485137023125597699e-01
9.889830782897099652e+02,5.932261709053190089e+02,1.446366608534779346e+02,6.733509591763846627e-04,9.653704068341568689e-01,2.608822036999463578e-01
2.729420407590944706e+03,1.246511479277927265e+03,1.210232547994687138e+03,4.704853225298578079e-01,-6.251324629680218292e-01,-6.227784237010065560e-01
2.811434137573618045e+03,1.411686118188890077e+03,2.659366459008472702e+03,-3.672595336649943643e-01,7.628003384939673337e-01,-5.322180742192620384e-01
5.673614377509002225e+02,5.453273479924608864e+02,1.714560667312301575e+03,-1.629866447251545059e-01,-3.953534246405925323e-01,-9.039529983722558448e-01
1.275464969426753214e+03,8.901262667508715367e+02,2.707397856665192649e+03,9.535044431899305506e-01,-2.698352762474538480e-01,1.342318908066222616e-01
1.779706546086454182e+03,2.419127408082053535e+03,3.510513399724403030e+02,-2.262318103572372174e-02,5.591430313344808445e-01,-8.287624884066077113e-01
7.483769610252162465e+02,2.378086990492478890e+03,1.358512502314733638e+03,1.008748425872484367e-01,-5.306712957046595402e-01,8.415534695122679487e-01
1.210561065161309898e+03,8.589101048154968794e+02,2.479667346660554358e+03,-6.452503932590067381e-02,3.217096474529568817e-01,9.446371906905238758e-01
2.131323083557641439e+03,2.972533629392715284e+03,2.065842559143996482e+02,8.717702315119492118e-01,4.661175290058686693e-01,1.508347194881394515e-01
4.113006658400339575e+02,7.311641949027862211e+02,3.227531828277114414e+02,-5.811401106518383416e-03,-9.006157020615239706e-01,4.345774784976868532e-01
2.838074826200370808e+03,1.591287870121702554e+03,2.463196671683355362e+03,5.242303128573809479e-02,-9.673464445915027632e-01,2.479771802545411852e-01
6.734340368466995415e+02,2.120001867101936568e+03,2.282630448120831716e+03,-8.200522514889083681e-01,5.461851932730867748e-02,5.696763310639336719e-01
9.725233140234356597e+02,2.977620711260575263e+03,2.519734660120312583e+03,-3.765850993858580464e-01,-9.028886213357334434e-01,-2.073060548633396394e-01
1.683911401376824642e+03,2.607374822895001216e+03,2.333945594889928088e+03,6.840514729964189966e-01,6.864081446552739996e-01,-2.468145887955854878e-01
8.412318060335235259e+02,1.543043711884069580e+03,7.939177123278202544e+02,1.845979553369295756e-01,-6.962091719398868506e-01,6.936976169716905227e-01
1.767134615752413765e+03,2.467244750954167102e+03,4.329247986221798215e+02,-8.566718635609940624e-03,9.682663830692239681e-01,2.497735429341168545e-01
1.462105466943668716e+03,4.514749231108316962e+01,2.360650521525766635e+03,-2.665697892270692260e-02,-9.622825894600843810e-01,-2.707427256579741925e-01
9.276874825301377996e+02,1.593073793166209043e+03,2.430056227367376493e+02,1.828298532203882221e-01,6.645530867782760698e-01,-7.245291157882314259e-01
1.823320518321360623e+03,2.059002865839238893e+03,8.509674423389127469e+02,1.677196535584027648e-01,-1.028676175271771992e-02,-9.857810610591442035e-01
9.648733355418738711e+02,5.577772728555628419e+02,2.423011728101911046e+02,2.716138920057875692e-03,8.907272915831807580e-01,4.545299930898491492e-01
1.527245594073782740e+03,4.888814009918038437e+02,2.575419764169186578e+02,-2.004556000668410165e-02,8.328103121164994738e-01,-5.531954081122123501e-01
1.049062027004820123e+02,2.023479737821049639e+03,1.081871358280984168e+03,-3.400579209143653747e-01,9.114664451912207754e-01,-2.314941245774475853e-01
2.546024156502677442e+02,1.213891393062461248e+03,6.637170883329850994e+02,3.654844020225185841e-01,7.001784162011530643e-01,6.133280829737759454e-01
1.157517964129169741e+03,2.212346121823065914e+03,6.469399836567032480e+02,8.880280600789798306e-01,-2.092000900925103102e-01,4.094404557657310151e-01
2.008540864017074455e+03,8.785627237269499119e+02,1.945977318033820325e+02,-9.992170657410706092e-01,1.202184795108768300e-02,-3.769258154658539084e-02
2.443988590712915084e+03,9.250729380399225192e+02,6.965201849556477782e+02,-8.121531665754792018e-01,-2.430111280309406319e-01,5.304270220063751484e-01
2.472020350627876724e+03,2.399180274574458963e+03,2.618328062829256851e+03,9.907325831553487339e-01,-1.234157106272339849e-01,-5.672310855995976731e-02
2.840900550434881097e+03,2.719594078580521000e+03,2.298220961138670191e+03,-5.875599650753224878e-01,-2.335989750708892532e-01,-7.747288598513134561e-01
1.439772187794604179e+03,2.573894162928287187e+03,5.920406116440968844e+02,-1.548803693944814618e-02,-9.792028363009269709e-01,2.022916856719089440e-01
3.837156554065218756e+02,2.272265107989295302e+03,5.150699544374735979e+02,9.460361471888195650e-01,-1.207819601885032068e-01,-3.007113671033354585e-01
1.805448843511348514e+03,2.250941528960075175e+03,3.301993247899567336e+02,-2.681689902623830557e-01,-9.261172984157084453e-01,-2.653151752856279799e-01
9.207552855139248322e+02,2.691657474927816565e+03,2.618379843608719966e+03,1.663534825798501926e-01,1.992430548387247313e-01,9.657270442169921809e-01
5.992687177506162755e+01,2.768973843241971281e+03,2.278535686073274519e+03,-9.028834204955847875e-01,-4.098360495414690163e-01,-1.297533872021678913e-01
7.288837751212003013e+02,2.201121893906073637e+03,1.093759649714309035e+03,-3.824843309133126312e-01,-7.623569623107228077e-01,5.220321815962715162e-01
1.921857571543544282e+03,1.292946792446599829e+03,8.923816443232136635e+02,-2.376409105174816239e-04,8.750673697254655048e-01,-4.840010764125977638e-01
1.075941871313347974e+03,9.636941305102110391e+02,2.413048635115900652e+03,-5.259505257011308499e-02,4.387071036884751529e-01,8.970896485961794564e-01
7.701433438566641598e+02,2.285001178415583581e+03,1.070579833341365656e+03,-2.024892276627186522e-04,4.654172945838259690e-01,8.850913517261281838e-01
8.975827396039469477e+02,2.426692441022197272e+03,2.429538606251443525e+03,1.440641751237697332e-01,9.117806256304316070e-01,3.845797760814868571e-01
2.299846235307327788e+03,4.859123916255534255e+02,2.929584400170899698e+03,4.784074309769142941e-01,-1.930316756612173723e-01,8.566592684244369593e-01
2.054965385903459264e+03,1.029399991619613729e+03,1.238876755560422964e+02,9.749425847128714295e-01,-2.059900884457828152e-01,-8.399428537397168881e-02
1.980286176717878789e+03,2.504326354680494660e+03,1.708667871099937656e+03,9.102508872427125253e-01,3.202643688262796773e-01,2.624386715675861570e-01
1.043562489822827729e+03,9.692459039180541822e+02,9.388358821817002990e+02,-8.018308325656850477e-02,3.441747528742990503e-01,9.354755008247866988e-01
9.328809671838102986e+02,2.635342797936372790e+03,2.760921466736228012e+03,-1.114288776524628505e-06,-9.987485410014719234e-01,5.001351663490041788e-02
3.237922638968245792e+02,1.599457141770339376e+03,1.981129023552852686e+03,2.098284670722540823e-01,2.500168786933001930e-01,-9.452320216616487691e-01
1.145085625079034799e+03,4.675485854617689370e+02,1.053649201504208719e+02,-7.473158310213070532e-01,-5.877446256809724101e-01,3.099601646793779808e-01
2.309636913656516299e+03,2.667322243169190642e+03,9.939856349077240338e+02,7.423580418268323558e-03,-6.768703609378167174e-01,7.360648102834990159e-01
6.160139275761840736e+02,2.276237757492374385e+03,3.800857804080231404e+02,-8.315820153889577973e-03,-3.746329780261741238e-01,9.271359009931653405e-01
1.294685189438430598e+03,5.353852434832732570e+02,5.041915788150335516e+02,-2.592296230240547228e-01,8.741450677494766452e-01,4.106950244111430837e-01
2.310845164960080183e+03,2.231551325006813840e+03,2.146730544954823927e+03,1.912776438691883851e-01,6.087948686003136212e-01,7.699231591021138410e-01
1.780402817561363690e+03,1.350356516974401757e+03,1.488727067935307105e+03,-4.811621700574683080e-01,-8.677691278598397284e-01,-1.243370694481784333e-01
2.236995726149912116e+03,2.983577890944882711e+03,1.715467876866870483e+03,-4.598675428343497185e-01,-3.188422250785095113e-01,8.287710652251818466e-01
2.740233603098759886e+03,1.114969369503741973e+03,1.600752235222045783e+03,1.750241516992698809e-01,9.656594996475624804e-01,-1.920111378602043228e-01
1.348313451603019530e+03,2.118024200795840898e+03,2.693002597469526336e+03,9.090198661195755814e-02,7.926360238715183248e-01,6.028805540827711917e-01
2.898162949355220462e+03,1.661672242331984307e+03,8.874299650485806268e+00,-2.422089145775796482e-01,3.682078032483159236e-01,-8.976401591541012248e-01
1.709412562830138086e+03,2.755126630715554711e+03,1.910988639022039933e+03,2.238020706757223588e-01,-9.581213550539129375e-01,-1.786507826764629492e-01
2.156231471777752631e+03,2.092373718966601245e+03,1.046674068965658989e+03,7.215089910093337444e-01,6.581187727976010038e-01,-2.151847038803478551e-01
1.480590411337766227e+03,1.440756972259565146e+03,1.528486850621203757e+03,-3.154041194850867313e-01,-6.847045762915473510e-01,-6.570387238338771807e-01
2.818727297240729058e+03,2.077755543403018237e+03,1.213217584054342979e+03,1.020355774760058759e-01,-9.762613760331636525e-01,1.910561870104491022e-01
1.403198636087920192e+02,1.087274208757360839e+03,6.146365499015439582e+02,-8.672235497708455920e-01,2.370723509713585156e-02,-4.973542819026521844e-01
6.539807795816900580e+02,1.488907185936797532e+03,4.372733217236271912e+02,-6.320706024405035005e-03,9.996627631461627583e-01,-2.518747018523338418e-02
1.743486987575026205e+03,2.744895433113437775e+03,1.994964618439635615e+03,-5.786762848333507625e-01,-7.923034184862064455e-01,1.933624845375703505e-01
1.136319768832836189e+03,5.578217857522730583e+02,9.347952526221201879e+02,-6.346809885725770428e-01,-6.771653282176038902e-01,-3.723266858613294428e-01
2.206791642066507393e+03,2.397125601135913257e+03,2.751981082325663920e+03,3.329314933851245106e-01,8.826899444708161124e-02,-9.388105268538757819e-01
1.974809807582893427e+03,2.247231721866387034e+03,1.805388828553962185e+03,2.494588636041052687e-01,-5.566936682339875819e-01,7.923777098818058917e-01
4.370446239268355839e+02,5.723457986490441272e+02,1.775313589791019695e+03,-9.442506489022048366e-02,-6.315946903352833708e-01,7.695271627829359806e-01
2.442299469291914193e+03,1.925583604895090048e+03,2.790149097729912228e+03,7.364608738932638676e-01,2.955852030592203694e-01,-6.084856357851101682e-01
1.922909224629629534e+03,2.845778576232323303e+03,1.301562774471486591e+03,-3.192111527429414841e-01,9.600661539890005883e-03,-9.476349863014339459e-01
2.132049743120338007e+03,2.280840407613917250e+03,1.277782653245331176e+03,-4.771798798047462431e-01,-9.628795597450245936e-02,-8.735147347605420887e-01
9.077875870297904157e+02,2.665956388563902692e+03,2.714759829344546233e+03,-3.204158638193831306e-05,-9.890439143865095151e-01,1.476215918771621172e-01
2.280220622889919184e+02,2.752865347714890959e+03,1.385682867981008712e+03,9.826528894890207422e-01,1.797636697479979284e-01,-4.558861499992450383e-02
1.890497341141144716e+03,2.454579808146602318e+03,2.447905044395438836e+03,2.647049578065963638e-01,-9.617183601756731370e-01,-7.091601380240167285e-02
1.567502626089908290e+03,1.408733105378954860e+03,2.656426745936418683e+03,-1.274106032223341345e-01,2.357251514821173122e-01,9.634314667610011096e-01
2.794256430810487927e+03,2.871887934637420130e+03,1.607917341857330030e+03,5.762380110194779137e-01,4.778297696240461079e-01,6.630448445748953201e-01
6.338530274283660901e+02,1.970086257571472288e+03,4.859099123405248406e+02,-5.805338337890318945e-01,2.251139280301227286e-01,-7.824986819369457169e-01
1.574270174437526521e+03,1.528537036980227640e+03,1.455979639427231405e+03,2.549500179347270984e-04,7.963125861824393859e-01,6.048852784519750392e-01
1.473420770316071184e+03,1.539308736646906254e+03,1.621877211890080162e+03,-1.588264635285204038e-04,-5.361577670568014042e-01,8.441177782743467528e-01
8.788742726162823828e+02,5.725621828326861760e+02,2.970661381733841608e+03,-2.333985938070205421e-02,-9.137383085976396035e-01,-4.056322895988604404e-01
2.794919742178289198e+03,1.317098515154631059e+03,2.310518594667304569e+03,7.104302427054189906e-01,-4.819956515243945527e-01,5.128050917854598545e-01
3.552659327879254647e+02,1.335228575353869928e+03,2.790902259508721386e+02,6.919254160433659928e-01,-5.844368654907013960e-01,-4.238782477181611275e-01
1.425986466609592753e+03,3.529544862020313190e+02,6.680434437215395747e+02,4.380718931250505710e-01,8.807046857771753112e-01,1.801451439921741837e-01
2.183269979119298114e+03,2.146663164470450738e+03,1.019027829274951728e+03,1.414527721576717134e-01,2.572900750636041012e-02,9.896105958515437617e-01
1.932026273955617626e+02,3.114089735865060220e+02,9.808220459857097921e+02,3.118191625751111640e-01,-3.591649649630758723e-01,8.796415962163390834e-01
1.370720395477888815e+03,2.639405321294349960e+03,8.502070152180277773e+02,-8.440278954747959528e-01,4.261983864078041501e-02,-5.346030873597913402e-01
9.623382045304158510e+02,2.380401013760322257e+03,1.409919903065959488e+03,1.342872623145280053e-01,8.457563318807792552e-01,5.163943824865240284e-01
2.754027794922109024e+03,2.053057566032573959e+03,9.978028852476827524e+02,-7.457408631714248504e-01,2.687185020735044505e-01,6.096400016728809046e-01
2.956617188671385975e+03,1.897763884281663195e+03,1.403674856848422905e+03,1.271211109804062656e-01,-1.725131377049992365e-01,-9.767699014928148404e-01
1.108126882373638864e+03,9.840671219992857459e+02,2.432697380863122362e+03,7.159717709557467114e-02,4.381877042856071047e-01,8.960275554048851010e-01
2.962214655065792613e+03,2.494210091421447032e+03,2.550520949354586548e+02,-8.638208587024595042e-01,2.822886469926959990e-02,-5.030076095531120783e-01
2.873925486932282638e+03,2.670513702748537980e+03,2.263438042555510492e+03,-5.274615124809357569e-01,-2.452613914234940962e-01,-8.134071567968499394e-01
2.383002259825276724e+03,2.346986798502018701e+03,8.488890025474701133e+02,2.366042049104632658e-02,1.706398255044886889e-02,-9.995744119382532489e-01
1.514766623272592369e+03,7.384012007499617312e+02,6.525065233493713777e+02,9.675861141961852319e-01,-2.004640648949837234e-01,1.535944995776428179e-01
1.788535064040416955e+03,2.429082568278249710e+03,3.994197131176731546e+02,-7.615176074782876916e-04,3.348655578906051256e-01,-9.422656091726723249e-01
9.487093759919958984e+02,7.135138815852270682e+02,2.820038592516156314e+03,3.449704764725708972e-01,8.603368596887258635e-01,3.752543913443641688e-01
1.477118049881585193e+03,8.525023473179493294e+01,2.614846890817991152e+03,-6.625442596682747931e-01,6.779357992741814609e-01,-3.184935730012375399e-01
6.273166603530431757e+02,1.331847823938469674e+03,2.578513442257378756e+02,-1.348629120458051112e-01,9.052148432226686525e-01,4.029864545662607545e-01
1.177292186233528810e+03,4.862468918342628967e+02,3.419783594114116454e+02,7.227200788448598923e-01,-6.893928288286739203e-01,4.912448670549426216e-02
1.114262039991201618e+03,9.596650781579265868e+02,9.948573389490663885e+02,-9.162086356069146014e-04,9.989722317736966506e-01,-4.531711273697642400e-02
9.319532942572972161e+02,4.551648207247909568e+02,2.708492070586729824e+03,-1.407911764444122298e-02,-7.573659859357432245e-01,-6.528388329395959921e-01
3.000000000000000000e+03,2.912994085931208247e+03,1.344911112282409022e+03,-2.081794175629411714e-03,1.585501652750442025e-01,9.873487282739905613e-01
2.958963323367785506e+03,1.378783015849762251e+03,5.429212783164949485e+01,-8.256901117514496846e-01,-2.649738982100155460e-01,-4.980207552133413262e-01
2.206934978401997796e+03,1.750807367154585336e+03,3.324401432259803642e+02,8.535601136991419757e-01,-8.970646658536578222e-02,5.132132910931637149e-01
2.837120878300025652e+03,1.330052328259919022e+03,2.304077432578146272e+03,-7.940573691771674048e-01,4.162987693924009580e-01,-4.429088270262946936e-01
2.369841378578235890e+03,4.244084948203352496e+02,1.978748593192295630e+03,-3.232249661435895177e-02,2.677842960818107576e-01,9.629365643616322190e-01
2.895749161878075483e+03,1.902858219999503490e+03,1.238840453780920541e+02,2.349250602165131249e-02,-2.351496885481259291e-01,-9.716752163848485502e-01
2.141834635313746276e+03,2.111628077443411712e+03,1.005826015434520627e+03,1.710190540799421191e-02,9.954398205285778234e-01,9.384608962257737219e-02
1.175143669246848503e+03,2.138903976655668885e+03,2.446384200604086800e+03,6.008086587459148253e-01,-4.688124174451608894e-01,6.474904422654894631e-01
2.160031975702242107e+03,1.592942984013256591e+03,1.188918817520511993e+03,1.105116558495738005e-01,9.917489757816794205e-01,-6.497032366684951654e-02
6.480302642414881120e+01,2.316146829306103882e+03,9.754904768880011261e+02,2.734115669546531846e-01,-7.938930701020899816e-01,5.431205283353589541e-01
2.896525157052879422e+03,5.638488005645938301e+02,2.628927853287866583e+03,-4.673318544221256587e-01,4.021810976972606255e-01,7.873063587304522937e-01
5.314414100312178562e+02,7.259963820000823489e+02,1.600895478226077330e+03,4.828226155217814064e-01,7.666948468368774139e-02,8.723554963769322157e-01
4.439077194518261535e+02,1.801044839090755431e+03,1.627209166252235946e+02,-5.704726297851240302e-01,6.794798413952902738e-01,4.613763364147276391e-01
2.379021195660412559e+03,2.003691929360087215e+03,2.367133043897605148e+03,-8.489953991396840260e-01,5.241926476282935399e-01,6.654983405004322172e-02
1.459681285616009063e+03,2.058356352901329501e+03,1.426029231762697918e+03,-6.330047432246052597e-02,9.475375079437702297e-01,3.133140931880675772e-01
5.139598303338532332e+02,1.812645110325943278e+03,1.194294744085207867e+03,6.705590187026715387e-01,-2.559087265583987782e-03,7.418517732733926895e-01
2.062344683767963488e+03,2.578464245913161449e+03,2.106985044193969770e+03,-7.143094599623449614e-01,-3.510533661337364997e-01,6.054118676855253511e-01
2.193127707308071422e+03,1.067681066902388920e+03,1.133231072826743684e+03,-5.805168946131242791e-01,-6.338152319174437110e-01,5.111539756845994154e-01
1.242400527649005426e+03,1.981003249465754834e+03,2.745919415805286008e+03,2.290600176410010624e-01,7.367293433167729777e-01,-6.362086002360710646e-01
1.184788355850601192e+03,8.549100426849020096e+02,2.453857854831107488e+03,1.990269100391447166e-01,-3.159319064905062868e-01,-9.276719891974448684e-01
2.726602038281905607e+03,8.604196835839920823e+02,1.899309418097584285e+03,2.723904535080668874e-04,-8.668741009632493499e-01,-4.985270492988310154e-01
1.233603392057895917e+03,8.130071059797345470e+02,2.494165263699573643e+03,-3.396475926949189816e-02,9.845402081125032012e-01,-1.718341460174739044e-01
2.630291637490953690e+03,1.308120004733940277e+03,2.927296027920578126e+03,8.318194686889770484e-01,-3.085665282446796720e-01,-4.613708585910181181e-01
2.934507912966343156e+03,1.199516007613434112e+03,5.429819997400208109e+01,-2.041205330153538500e-01,-9.760341956327110990e-01,-7.544572192732014460e-02
4.951832421792020682e+02,9.805243746679090009e+02,1.178913295020666737e+03,5.978326191035836512e-01,1.994656602613837926e-01,7.764081464746745986e-01
1.541652587142224320e+03,1.344614604353079358e+03,2.703747111558900087e+03,-8.457316937498363663e-01,-5.023932093730564263e-01,1.798303794214802243e-01
1.557265612983256915e+03,1.307067472984413371e+03,8.725819596686766317e+02,2.258848291865648283e-01,-9.727486266750996480e-01,5.230825216984458237e-02
4.633991872243757939e+02,2.891693915912913326e+03,1.777498564866085644e+03,3.198458397534891251e-01,6.586122355894327152e-01,-6.811230152654328407e-01
2.485994219320330956e+01,1.450890527588870555e+03,7.583367428209545551e+02,-5.078657211985553310e-01,-8.382112889654758092e-01,-1.986812630378285149e-01
1.683230893081127078e+03,1.820161180804007245e+03,2.516047686670003714e+03,7.660265864652791024e-01,7.004909387235659646e-02,6.389807456222871274e-01
6.175395797244639198e+02,2.824439069664562794e+03,1.115425809658946491e+03,7.116601171336200959e-02,-9.806094691864092328e-01,-1.825937231088801682e-01
9.143831528296784654e+02,9.186424869362413119e+02,2.492495076665525175e+02,2.457060445480366007e-01,-9.378868738508336911e-01,2.449423432787167787e-01
2.269487003315416132e+03,2.738746322043297141e+02,1.504401642325292698e+01,-5.448947745161316636e-01,-7.235412069932791734e-01,4.237662167843525562e-01
2.824748778260411200e+03,6.582213852439548418e+02,1.921573626161172569e+03,-1.871038674608757613e-02,-8.776799985634458068e-01,4.788817615544380679e-01
2.300562559171579778e+03,7.028643859654071093e+02,9.729234819033142685e+02,2.145323402821251724e-01,6.127878397448507375e-01,7.605701403775418923e-01
5.456953326421886459e+02,6.568650132231546479e+01,2.036756369059921553e+03,-1.845943445296563679e-01,1.863493971149317863e-01,9.649864404034742549e-01
1.584745904194512377e+03,4.838895592932210548e+02,2.422132014587094204e+02,-2.056348807095950137e-01,8.151759378855895077e-01,-5.414817505030987688e-01
8.607981335512138230e+02,5.779842172314769186e+02,1.676463333044667365e+02,4.306052459636436347e-01,-8.588583727691044833e-01,-2.773831603991057104e-01
2.480603404654696533e+03,2.596779608110379286e+03,2.313481507862643866e+03,-9.770821348503154757e-01,-2.008384855313462974e-02,2.119130500550749918e-01
8.012994097010506493e+02,9.099374114758003316e+02,6.448479741248499977e+02,2.606152245130607392e-01,3.868188691967111570e-01,8.845625287029654782e-01
2.785545672216570438e+03,2.090247782045446456e+03,8.821265072950393460e+02,-8.015402047127113683e-01,-4.837685911380261716e-01,3.514274469324130123e-01
3.094347230182935391e+02,2.982723630411384420e+03,1.861298538058325221e+03,-9.695987506153717073e-01,-7.675982180845168645e-02,-2.323492899947081636e-01
1.678718816215210154e+03,5.572860756875937795e+02,1.235810257400000410e+03,-4.161117420798555733e-01,6.471846029570789138e-01,6.387512096259042593e-01
1.722949550771737449e+03,2.378484522733939230e+03,2.213553676006450530e+02,2.426622863258713126e-04,5.164339056048324883e-01,-8.563270182919338058e-01
1.247227924871412341e+02,5.378550782830002390e+02,2.901057066492359809e+03,5.263419990298127266e-02,-2.134232185787861280e-01,9.755409631440623563e-01
1.188617971619041327e+03,2.968866320795418687e+03,1.202244445725189962e+03,-3.227434223797975288e-01,-3.470040431356788968e-01,8.805821241417903789e-01
2.738864026915613977e+03,6.768138640705649323e+02,1.540812903122206762e+03,8.290364511862374775e-01,4.606752931534053852e-01,-3.169808146916046621e-01
9.097659296412575713e+02,2.801031596937854374e+03,2.770452848610040746e+03,-1.221250071165352370e-03,-3.227410151982408881e-01,-9.464865269284463700e-01
7.040666318275639242e+02,2.104050069887287918e+03,2.322462113626565952e+03,7.007946022333266800e-02,9.871262829116933535e-01,-1.437726359212697924e-01
1.618545757297229386e+02,1.456053848053160891e+03,1.896026479948572842e+03,-8.596892646544702643e-01,3.454179390074554323e-01,-3.763254119106202999e-01
2.508953354332973902e+02,3.521186171413734769e+02,8.880665561815684441e+02,3.885248438386815131e-03,9.838714633054260750e-01,1.788346961241352173e-01
2.924861768320907345e+02,1.449368230555336936e+02,2.100346324949171503e+03,3.357872646460851040e-01,6.848892332814374706e-01,6.466634758795835047e-01
2.012867575266169979e+03,1.753512837655490330e+03,2.067662966101960592e+03,7.262579255421938162e-01,-6.846489219349140010e-01,6.168694578684608132e-02
1.306198426116347719e+03,2.200288465362526495e+03,2.974727123088155167e+03,3.105736167192396646e-02,3.017633082812566925e-01,9.528768787525125905e-01
6.492728444103597667e+02,2.289101869678197545e+03,1.089865295816954585e+03,-2.363625489455741802e-01,-9.710012079404024554e-01,-3.590821123685117300e-02
2.988382355437317528e+03,1.318027628749335008e+03,2.745567243968736875e+03,6.395850522887215339e-01,-4.158475148098513818e-01,6.465305911674279482e-01
1.872046844528475503e+03,2.452753225135108551e+03,1.545690096123597641e+03,9.824400673222151159e-01,1.067925972743301866e-01,1.529929909745026961e-01
5.527535849019690204e+02,1.134206558018352780e+03,2.118661922013908224e+03,-9.864455738117915429e-01,-1.458737636953565397e-01,-7.513970303692096842e-02
2.469753489371494481e+02,8.674424887316071136e+02,1.829764745816052937e+03,-1.237710434155944034e-01,-7.168151806596406717e-01,-6.861900069133197722e-01
8.625524649824305925e+02,2.041940284346706449e+03,2.495883837425302772e+03,2.033739556041322949e-01,-9.526608698373576489e-01,-2.260006665093219902e-01
7.513068128668811596e+02,1.647386821999107497e+03,1.760055617187620783e+03,-8.673731687457304496e-01,-1.832531071393035949e-01,4.626900526959508153e-01
2.214603727145708035e+03,2.010205563067079083e+03,1.049503152472610509e+03,2.114838471118146157e-01,3.642262417576784816e-01,-9.069806101708369761e-01
8.294484122933587855e+01,4.401993025028521060e+02,2.615653252710086690e+03,2.888403087308237804e-01,7.150590395907521213e-01,6.366017954356031350e-01
7.117112538687986216e+02,2.006487422048132032e+02,7.504311801200235266e+01,7.422474137140258610e-02,7.336227507535671988e-01,-6.754911896872658472e-01
1.156269320797155160e+03,1.667040783658735791e+03,1.449553082184379036e+03,-9.416657066707720403e-02,9.136661852886510671e-01,-3.954070798922129648e-01
1.049717755127520377e+03,1.828867415161446388e+03,2.718429553679953187e+03,3.272743259036548641e-02,-8.595603908674031013e-01,-5.099851464581299787e-01
2.128245855722495435e+03,2.320721390758857524e+03,4.482364794465131013e+02,-5.049550067542409870e-01,-8.631446928227530790e-01,1.296304647701918000e-03
1.570850616848924801e+03,2.241769484542574986e+01,2.820871902462514754e+03,-2.291354991220491411e-01,1.178711706924440716e-01,9.662314992597178520e-01
2.329567326913418128e+03,1.502461397299978216e+03,2.438615513902672319e+03,-7.071627119912868853e-01,1.881457149450519728e-01,-6.815585732106549388e-01
1.974082343192490043e+03,2.513240433245878648e+03,1.544207901662696258e+03,4.609637122527240893e-01,-8.607136766962605323e-01,2.160657833489443291e-01
2.020710262294132690e+03,1.780842674648334423e+03,2.688531819962844111e+03,9.282217800998782131e-01,-1.421279043819068943e-01,3.438080652693025763e-01
1.505231989580160871e+03,2.019688618866501656e+03,8.662310985872549054e+02,4.456807441855575314e-01,6.386139543482207692e-01,6.273283761906010003e-01
1.005633998300208987e+03,8.901249346277694485e+02,2.374323335383262474e+03,-6.887880296214970999e-01,6.427611722026201901e-01,-3.353045268988315009e-01
2.332929079528023976e+03,2.922800638780467125e+03,2.740129544065135178e+03,-2.544271210458700638e-01,-9.410591019538281365e-01,-2.228780085745672157e-01
2.860586511817136397e+03,6.446059003333753026e+02,1.959914012957327941e+03,3.999947569881508527e-03,6.555249262526514631e-01,7.551629436624218705e-01
1.291814632232533995e+03,1.084120304792662409e+03,1.375479896087564157e+03,-2.999117454872271549e-02,-6.509594553809822104e-01,-7.585198197142135612e-01
6.614049781255373546e+02,2.390317751835085801e+03,2.293555495150208117e+03,-2.955439430903032405e-01,-8.747475950400696032e-01,3.840187790645790411e-01
4.768101386129829393e+02,4.139187700141629875e+02,1.897830371930549290e+03,-5.851514692776058624e-01,-2.337636941246745183e-03,8.109206455972064465e-01
2.090246678827722917e+03,2.378731708284764863e+03,5.602722503031302494e+02,5.206439613251526710e-01,3.090374101338209667e-01,-7.958804839129010045e-01
1.711010979429559484e+03,1.877225146387724863e+03,1.645559249640898543e+03,-7.163458615461751888e-01,3.780692354519122333e-01,-5.864403293178895860e-01
