x,y,z,nx,ny,nz
2.153800797732927549e+03,1.005849051757639131e+03,3.541249229495058160e+00,2.736494457064768127e-01,-1.780005101976498555e-02,9.616647747776934096e-01
2.244537609849409364e+03,1.918238879721609010e+03,1.315502591273283542e+03,2.543805452968237249e-02,-9.990366917138556735e-01,3.575743267041479878e-02
1.691558627740324710e+03,2.980956658903014159e+03,9.851472914175584492e+02,-1.357382636614894444e-01,-7.982054447472138881e-01,-5.868928281671761393e-01
1.637768949494862454e+03,4.313853856607717034e+02,8.468233007603146234e+02,1.827244227209567640e-01,-1.434993874079585063e-01,9.726354461743792479e-01
5.607500851886659810e+00,6.799929549881744606e+01,2.737696859969842535e+03,4.837876179913742636e-01,4.774792265839316041e-01,-7.334596981832353091e-01
2.383244147221395451e+03,2.700612561818883023e+03,2.646864533378483884e+03,6.160602191484922940e-01,7.062179055841335540e-01,3.488926428216445053e-01
1.678718571490985596e+03,2.635817540806147917e+03,2.541984249593026107e+03,-6.199956102163856064e-01,-7.068534764085688815e-01,-3.405342951914427929e-01
1.701347048671290395e+03,1.464384251777358941e+03,8.091360509556421903e+02,1.010936100051969960e-01,-9.786345997901585436e-01,-1.790374321466699226e-01
2.827493535961020825e+02,2.847753719089341757e+03,1.645983380866103744e+03,7.051612012561629950e-01,-5.050956261747574505e-01,4.976204262910586262e-01
2.964360038063177399e+03,2.947890828070278985e+03,7.197454109949783287e+02,-9.222817106880769611e-01,3.425824286767353843e-01,1.789796795511267025e-01
2.629209232271255587e+03,1.593793551683726491e+03,2.162889226547682483e+03,8.079579531306434470e-01,-5.295947259614554037e-01,2.583280321737309593e-01
2.796132895001737779e+03,4.001880953753488370e+02,1.656702413263918515e+03,-6.599125160430344694e-01,7.296529091200473216e-01,-1.792264025817731365e-01
7.586716604984338801e+02,1.670228815621998137e+03,3.245805434015462083e+02,-3.167644815189215451e-02,-9.994902998340227107e-01,-3.967766396352878644e-03
6.129783564557915270e+02,1.921125146862383190e+03,2.318224509167552696e+03,-8.551554359586102105e-01,2.576380635122743068e-01,4.498130818240890783e-01
1.250332085436359876e+03,1.611980012260840567e+03,2.686268680462414977e+03,-7.908156226364961849e-01,-5.196319494348230483e-01,3.234088559712249844e-01
2.376174690741398081e+03,2.713006130343884337e+01,1.098431930505236551e+03,7.095679460094203583e-02,7.936643271700863367e-02,-9.943169025304439135e-01
1.811689203822990294e+03,8.126023508943526394e+02,2.835400321271688881e+03,8.807278707758398051e-01,-7.804878362225635413e-02,-4.671475195414633852e-01
3.240491120522343067e+02,2.243633432733431619e+03,1.728005203620761449e+03,-6.067095710759708993e-01,6.852232866960837887e-01,4.029547663624642451e-01
2.122219351714160439e+03,2.137661334177967092e+03,2.888966819707883587e+03,-8.932450799376906447e-01,-4.396115505035960158e-01,-9.410054107672793933e-02
2.411821988553627421e+02,6.900967854447978880e+02,2.289466231991065115e+02,3.570009637877160080e-01,6.459690600872483035e-01,-6.747401612951751115e-01
1.369580989070519081e+03,2.399069671408224167e+03,2.017404790251050372e+03,-5.918187038006759160e-01,7.480317752302327872e-01,3.003316251705678841e-01
3.330517960736681289e+02,1.501004845322043138e+03,2.405471526269566766e+03,9.952763441511989218e-01,1.627002019526069959e-02,-9.570937893367677252e-02
1.099174755460247297e+03,4.834718951908267570e+01,1.424843246771695249e+02,-8.049127793265596909e-01,2.991474776621625975e-01,5.124706862691359444e-01
2.362204589576579565e+03,2.957353634974373563e+03,1.385248519810276321e+03,5.484866757130493764e-02,-1.576198214604265790e-01,-9.859754639687723365e-01
1.854617739811556021e+02,6.764953814219733204e+02,2.430654625064186405e+02,-5.261234161704269469e-02,-8.096506519496284859e-01,-5.845491966525258043e-01
2.820166763929845274e+03,1.146834390552309287e+03,4.113554344793631117e+02,8.787429478703499830e-03,6.598825085374327402e-03,-9.999396164722395008e-01
6.428056756542969197e+02,1.994912788023999383e+03,2.272196902888920533e+02,1.027963813921868169e-01,-6.022754567177975860e-01,-7.916420770828445086e-01
2.015640742696221821e+02,5.241294619975012665e+02,2.902960385065061928e+03,-1.171517908570643418e-01,5.697675098943790761e-01,-8.134128364906354491e-01
2.500669493753417100e+03,1.492014712809065486e+03,1.350783060782490338e+03,1.108760959213019075e-04,4.825470926416351447e-01,8.758700195175060932e-01
6.896326066700629553e+02,1.518501574598730258e+03,1.019593946806729036e+03,-7.390015122937675374e-01,6.417968910460746246e-01,-2.048743894954114797e-01
1.563581689756057131e+03,1.590080700866816869e+03,1.522881829698756974e+03,-3.692291392131605288e-03,2.258835510640029923e-02,-9.997380322853897106e-01
2.318723651674205030e+03,1.569251155402962013e+03,1.020077351807366881e+03,-9.394227165478153951e-01,-3.427419047610331115e-01,-3.598104320611029017e-03
9.262747617456634543e+02,2.250421392254784678e+03,2.174374322153110370e+03,4.465888678757469477e-02,9.989789751777882199e-01,6.825758831856766108e-03
1.802118113522472640e+03,1.444160291461115548e+03,1.324768997828897454e+03,2.130305477928814972e-01,-4.330052302339865711e-01,-8.758564130592851882e-01
2.678822250795652508e+03,8.738602013286674719e+02,2.804294751148602245e+03,-2.474288874426679510e-02,-2.678602762823729666e-01,-9.631400011662477612e-01
2.145516431072902833e+03,6.532948558850383733e+02,1.769505486490813382e+03,-4.880040100922840018e-01,-2.393720055986114925e-01,8.393766312386521378e-01
3.570077763616925495e+02,1.837386347767317375e+03,2.663185784776621858e+03,2.943013310815599803e-01,4.549142003545032786e-02,-9.546293821304581151e-01
9.391324510597308972e+02,1.837436890599947674e+03,1.643845745615945589e+03,-2.085567953632657401e-01,-9.145800982094786091e-01,-3.464784366550761607e-01
2.953422466790816543e+03,7.233488613921758770e+02,1.069577709576978805e+03,2.649348857132422519e-01,-3.982920537544780148e-01,8.781645325610407671e-01
2.208094260016604494e+03,1.141039760319524021e+03,1.388871735954489168e+03,4.215743433784049227e-02,9.962359176027201224e-01,7.574131770914041550e-02
2.892361059163324626e+03,1.420179134532595981e+03,1.051542628528782643e+03,-8.665875453014537655e-01,-4.166332900493370794e-01,-2.746683963456040822e-01
1.723924294940784421e+03,1.790148320154778276e+03,2.981129344745443177e+03,6.222069319822146755e-02,-3.826782050587138051e-01,-9.217841269575941521e-01
2.983583854950887599e+03,2.288615176143664939e+03,4.454349250134466729e+02,-2.910011855234024072e-02,1.465099090274942506e-01,-9.887810827766655430e-01
1.803442933603469328e+03,1.150919432541225206e+03,1.433787621304134063e+03,-3.019404111988082118e-01,2.073445343577662026e-01,-9.305053638518456793e-01
3.323126130327158876e+02,4.585469921141134932e+02,1.795692316329094410e+03,7.191708954073906535e-01,-6.160709465731988299e-01,3.213250877029910635e-01
2.565386369721418760e+03,2.399059408667063963e+03,9.786413866099707093e+02,-2.857121544538138158e-01,5.106723747533738894e-02,9.569538662098594495e-01
2.044646431516197026e+03,8.508608175962526730e+02,6.482921902783319865e+02,6.897927938358693334e-01,-6.134255556414597299e-01,3.845711758024414895e-01
9.587452123058561710e+02,2.497503724128608155e+03,1.604870002090488242e+03,-7.321661652285194055e-01,6.258753972429552670e-01,-2.687241961947926527e-01
0.000000000000000000e+00,1.038528910469077573e+03,1.888816650552882493e+03,6.854065220533096456e-03,4.728039649657807542e-01,8.811409833293361027e-01
1.945485342814900605e+03,2.922418743062389694e+03,2.543478821200425500e+03,1.924125314829388811e-01,6.537966080687530601e-01,-7.317973852140498003e-01
2.232570577872822014e+03,2.685432880432500156e+02,6.488252168241136815e+02,6.751227149178486986e-01,7.039007012694835641e-01,-2.207557984612915636e-01
2.226558041531977324e+03,2.086619005441653826e+03,1.361225895172712171e+03,-8.047447320744995081e-02,-1.835326168719811912e-01,9.797140591550710376e-01
1.942415575856924079e+03,2.981778644401390466e+03,2.178555342666083106e+03,9.825516832192356109e-02,-6.820388833636805703e-01,7.246853686104433034e-01
1.410027687532319533e+03,1.229604239302446331e+03,2.889798308713934148e+03,-4.465913563229895744e-01,8.882378974917771730e-01,1.076549948538376850e-01
2.149842912589582511e+02,1.190161735510221490e+02,2.114214869438830647e+03,1.867050872753208690e-01,-5.469377677630902213e-01,-8.160884073308742881e-01
1.552866878163911906e+03,2.511192587383997761e+03,6.940178693682419180e+02,-9.596622011576498856e-01,-2.385500050062751565e-01,-1.488030738283332433e-01
5.355476863599643593e+02,1.782730157800096777e+03,6.980697930484732296e+02,9.997592210365096044e-01,1.630658108156402344e-02,1.468316607213560054e-02
8.697811117262780272e+02,5.377988213413037784e+02,2.037196155396465883e+03,-2.002337861686054321e-01,-9.941319308345661354e-02,-9.746914629345722059e-01
7.072797300132840803e+01,2.829006289635342910e+03,1.150591379030845701e+03,-6.345455644154551766e-02,9.456245366461208945e-01,3.190105875352978182e-01
2.251473066004224165e+03,1.013444768608951563e+03,9.853414731329249889e+02,9.039972376542143584e-02,-1.392499021871448361e-01,-9.861223832182323124e-01
4.372800015237228308e+02,7.190738102573168078e+01,1.974354609445001415e+03,-6.410696373576132423e-01,7.291200816796531425e-01,2.396114073862809779e-01
1.086922548518331979e+02,1.942670221513077877e+03,2.544132388410730073e+03,-6.064031641533201844e-01,-5.092173570244612479e-01,6.107150610635568855e-01
4.977789332409159329e+02,7.914835658553553230e+02,1.084268716838194905e+03,-1.724778290116958657e-01,-2.551394385311386293e-01,9.513964817075095670e-01
3.713880232061277979e+02,5.050653210630811145e+02,1.825101140788243356e+03,4.257009693726499200e-05,6.954389465530903536e-01,-7.185851861852668998e-01
2.209281760971098720e+03,1.245257834671498131e+03,1.459924591778740250e+03,5.124021825621884879e-02,3.022010002585127086e-01,-9.518660596301401489e-01
1.907127890541785746e+03,5.251790559673293046e+02,2.680416532005595400e+03,-2.383409906752359253e-01,-9.908333055980873827e-02,9.661138989628100804e-01
2.698937420212160305e+03,1.070396749048330065e+01,1.161220767849656568e+03,9.386960089549684083e-01,-2.106037090696688818e-01,2.729393348312263989e-01
2.658008149962909101e+03,2.462875224225702823e+03,1.999253745268410114e+02,2.874723540213744433e-01,7.168063598987114426e-01,-6.352545065421957293e-01
2.168063592342658012e+03,1.296032894379653499e+03,1.518885101413095299e+03,-7.832089575288396499e-02,9.430208383456940568e-01,-3.233845013822557735e-01
2.498823236415087649e+03,2.697343027795235685e+03,1.435503270864632896e+03,9.405763103136043080e-02,-5.142561842493229562e-01,8.524633358720449250e-01
2.225381926189167189e+03,1.153518250356141380e+03,1.932926271964700618e+03,1.183949513490097648e-06,-4.294184050310226319e-01,9.031056601634223080e-01
1.007632564466441977e+03,1.742000375051710307e+03,2.253332959982124066e+03,1.110679472617396857e-01,8.490639420303979223e-01,-5.164826555024518706e-01
2.154170998471828170e+03,1.275501848989335258e+03,1.455607311288654728e+03,7.459996482159088338e-02,8.606475329770667537e-01,-5.037069279145427458e-01
1.338403949661023717e+03,3.185166005115579537e+02,1.844473697561590370e+03,6.026326310629578353e-01,-3.507942149228849837e-01,7.167826244788400025e-01
1.740212548708707573e+03,1.807455172497575631e+03,2.768563330803522717e+02,-2.543177872024682956e-02,-3.469801318310966609e-02,9.990742077104528551e-01
5.371332236018331514e+02,1.225305904941672566e+02,1.926258661095698017e+03,-8.473806504044235632e-01,-4.384000132176825160e-01,-2.995854831778601568e-01
4.511627861726412902e+02,2.469359213909393475e+03,1.709271603137955253e+03,1.630526074166841963e-02,9.048087161528980404e-01,-4.255059642894453154e-01
1.972612220974066531e+03,2.747349771665479693e+03,2.086637258763465979e+03,5.082742881147153113e-01,-3.009538791027855931e-01,-8.068977696675492250e-01
5.186733496505186167e+02,3.645387358142041876e+02,1.198634516906101055e+01,-7.073031403908924819e-02,-8.339787052675687873e-01,5.472446818710635652e-01
1.011239507728346666e+03,1.048187705775975928e+03,1.982931720715903111e+03,-1.533294279797186854e-01,4.979490685268778138e-01,-8.535436788288148779e-01
1.868213600758561554e+01,2.131676458339666624e+03,1.084522873434902522e+03,-6.842174048821879628e-01,6.033211814801356931e-01,4.096951242493582779e-01
1.077729784757377047e+03,3.106866320843595304e+02,1.997352300625723728e+03,-2.404327555543550321e-01,-8.920069472375165009e-01,3.827736878842982193e-01
2.479202335656435935e+03,1.171218085843501512e+03,1.223696598799903768e+03,4.497382762753865393e-01,2.795286832896579643e-01,8.482919297454115659e-01
2.343548575275947769e+03,6.154375542945658708e+02,6.449573835771849417e+02,-4.270797003990361440e-01,2.872799075936723345e-01,8.573640908039248387e-01
1.144641047176079155e+03,1.942868710613287021e+03,5.830285658539107772e+02,3.614265417001352038e-02,-9.841217768984080738e-01,-1.737758233583336087e-01
4.850351543434175028e+02,2.731143560379006431e+03,2.096437884735093121e+03,-6.169818943962933622e-01,7.010056379935184490e-01,3.576652589901083701e-01
1.731555914341464131e+03,6.602079664155894534e+02,2.275656111665691697e+03,-3.768957068930878229e-01,-2.748791883045972884e-01,8.845287208240133481e-01
2.107310573211687370e+03,8.236485546582109691e+02,6.974129769654722395e+02,-7.637200027171960233e-03,-9.373165648531007754e-01,-3.483953651065522239e-01
3.147108050029146966e+02,2.793264627872893925e+03,6.218144982787982826e+02,-8.109584345148752593e-01,5.471411780975751205e-01,-2.073232951676693692e-01
3.719267098203506521e+02,2.276959951557431395e+03,1.431904158022119645e+03,-2.838940774576615214e-02,-9.461611341197057046e-01,-3.224486777909887358e-01
4.751169784550013446e+02,2.793708180936560893e+03,8.321715180162667593e+02,1.370389854178422767e-02,6.693786474823859578e-01,-7.427950117356794113e-01
1.912812787641247496e+03,2.716019665133741455e+03,2.715860918584404772e+03,1.921952254810749272e-01,-8.611939335406062490e-01,-4.705379943587304492e-01
2.913061844290339195e+03,1.564264357483514232e+03,2.661566579655210262e+03,-1.671604551654163034e-03,9.003534262883246264e-02,-9.959371681064682624e-01
9.208027367634808797e+02,4.170801205692253575e+02,2.044507991190151586e+02,1.237721747898003514e-03,9.973995194686043897e-01,-7.206015964922708739e-02
1.253566283418109606e+03,1.607753289410678235e+03,1.170641206795093012e+03,9.085960164080599810e-01,3.658454045537317678e-01,-2.015202692890241398e-01
1.490583488898786300e+03,1.858778181806590055e+03,2.772949172705528326e+03,7.879381860913888327e-03,-9.576282621739933276e-01,-2.878993345374513124e-01
1.379201928660222393e+03,8.712602796964831668e+02,9.511075681187139708e+02,-6.292348973388541822e-01,7.670482988124095458e-01,1.253010425333724864e-01
2.785307162269913988e+03,2.571697833217972970e+02,2.743920486931363030e+03,-4.099918908554953112e-01,-3.078359159451753424e-01,8.585707299267373305e-01
9.186625174158293703e+02,1.844827900592055812e+03,9.260981230015850088e+02,3.448031816459453669e-01,4.725667571631542163e-01,-8.110434180431610462e-01
5.324109306309080694e+02,2.213510879302302783e+03,2.591432988927606857e+03,-5.561564640677442162e-01,8.295468157393511843e-01,5.041892474425591075e-02
1.134732036250400370e+03,2.720397400872564049e+03,1.608261508609831480e+03,1.046287616181253016e-01,-4.764912083433805456e-01,-8.729312404844511430e-01
2.243305661327387043e+03,8.876387224880867279e+02,2.080254050225006495e+02,3.527437976870506642e-02,-9.730780447405629197e-01,2.277604815937487592e-01
1.566895092934871627e+03,1.444936286373949088e+03,1.546948683153670117e+03,-2.515626934691052585e-01,5.761417702924804748e-03,-9.678238565568744178e-01
1.723292372191091772e+03,1.518027898371173251e+03,2.999682087727601356e+03,-2.259701296439767249e-02,5.033850207696238810e-01,-8.637666906461791694e-01
4.506259970361191449e+02,1.005828145548054636e+03,1.994506416046923789e+02,4.461956733574833356e-01,-5.884463257638132827e-01,-6.742702297833788050e-01
7.841539370709349441e+02,2.664053923492196191e+03,1.450673012416334132e+03,-1.340632386284230093e-01,5.686019818407188620e-01,-8.116149544551685135e-01
2.226731730785449145e+03,1.132381353429354931e+03,1.438086852048292485e+03,-8.566074991943395389e-02,-9.179236491478228732e-01,-3.873995486037441482e-01
2.357162010934638602e+03,2.776432166224647517e+03,2.063450452026825587e+03,2.672094991521937746e-01,-9.577088647123619403e-01,1.067371257538476115e-01
1.012135886550750229e+03,2.493149276100957650e+03,1.728026474659862060e+03,9.003122662259624431e-02,2.227866239848472762e-01,-9.707010345138533669e-01
1.618876938688029895e+03,1.298150850727942725e+03,8.636119824219228747e+01,5.826613471350985396e-01,-6.760792956266201692e-01,-4.510238802765607624e-01
9.396053991914367316e+02,1.941801137294145747e+03,2.436172028642542045e+03,7.723700755157278941e-01,1.623017847025186866e-01,6.140867993453418272e-01
2.271259261072058052e+03,8.319275689717914020e+02,2.737345928127729621e+03,-9.805070647591234145e-01,-1.998883308833884070e-02,-1.954644277335764735e-01
1.762936265803122524e+03,6.122576670150020846e+02,2.138948615291054466e+03,-1.549108577735219539e-01,-6.747057709833492734e-01,-7.216472467526193757e-01
4.158198526268552655e+02,8.818427467302790319e+02,1.833464135464327910e+03,3.847994068675464341e-01,5.449886692453279613e-01,-7.449273567728540435e-01
1.348581541478043846e+03,1.505950971486883645e+03,2.007220258809395773e+03,3.831276726711666525e-01,-8.719894763332631804e-01,3.047089424313256800e-01
1.435641404594088499e+03,1.757240768790999709e+03,8.202140910627828134e+02,7.783109237370702260e-01,3.932367859324083226e-02,-6.266464348366184156e-01
6.119589741919576227e+02,2.509073887730156912e+03,1.265652196393672568e+02,8.979649010205443815e-01,4.323501267284363125e-01,-8.205123066151491507e-02
7.757948689866566383e+02,2.489665287179044753e+03,1.709599497252289439e+03,1.316888727927358060e-01,-9.785975075131193579e-01,1.581295641924336248e-01
1.920731530907158344e+02,5.562733814060762825e+02,8.703414583044418578e+02,-9.970583241224669768e-01,-1.282273302623027599e-02,-7.556636696199969805e-02
7.268937296827577939e+02,1.900163898439841716e+02,3.360419209713472810e+02,3.770371237948608178e-02,-2.482277457274582044e-01,-9.679676731812221213e-01
1.170979103499326328e+02,8.923045404052988943e+02,1.219055680819491045e+03,2.144105549647380704e-02,8.985784482488229363e-01,4.382887786402184793e-01
2.332065462225290048e+03,1.186963768677277585e+03,8.588835812864515447e+02,4.743699347354372042e-01,-5.291014007382051354e-02,-8.787341361848108878e-01
9.604447777444740950e+02,2.000143570348387811e+03,1.736485648586939305e+03,-5.530438653795464177e-01,7.846132233590243921e-01,2.802223629480913303e-01
1.562077723270674369e+03,2.910427365884315350e+03,1.944973182256338305e+03,7.865526984697672475e-02,9.968333182889786981e-01,-1.169119644360420117e-02
1.921516703556204675e+03,1.726807518036433748e+03,1.228727814018316394e+03,3.873261956390261496e-03,-6.275559428704347020e-01,-7.785618385265340446e-01
1.945221972064491865e+03,2.648624433884800510e+03,5.340730234863771102e+02,-3.319405063662304034e-01,-1.848841352712952274e-02,9.431191222738412039e-01
4.718761007334194915e+02,2.742018527151045873e+03,8.317632299301999410e+02,3.816160710184462643e-04,-7.239363148282536020e-01,-6.898667019374554732e-01
8.966180973766790885e+01,2.145862926491584403e+03,2.280190578879134137e+03,5.744470102318636195e-01,7.405716352334087427e-01,3.486607025797261450e-01
8.614950715504274115e+01,1.904503485247013714e+03,2.527422347493841698e+03,9.625950438878684567e-02,8.391371424658575773e-01,5.353344412132102770e-01
2.143212628264753221e+03,2.519253200657676075e+02,1.138496610455957352e+03,1.942090110697273220e-01,-1.854414246367436193e-03,-9.809584196932719102e-01
1.677852248521939373e+03,2.105808466303457863e+03,1.537946269388847213e+03,7.441074412598185361e-01,-1.300999812056697902e-01,-6.552694947516251034e-01
7.047967890465491791e+02,1.967013125905835409e+02,7.372094130255817390e+02,-6.231482598545414753e-01,-4.356543387532236800e-01,-6.495317878023740832e-01
1.362902239273861369e+03,7.385983593929957181e+01,2.059027611263639756e+03,-6.025502511599681865e-01,7.568413121261505783e-01,-2.532280061253618375e-01
1.703127321847354551e+03,1.060843345862002025e+03,1.029684882816572554e+03,7.277954752100760372e-01,-1.081506843255628653e-01,6.772127994535042106e-01
2.186709681499993621e+03,2.198758989206088245e+03,1.245997939484691415e+03,-8.129170814227628661e-01,-5.514766222081468605e-01,-1.871880174823969956e-01
1.972054436072696944e+03,3.253831090722503632e+02,1.399419616192584954e+03,1.107160707217895402e-03,7.241552933311223850e-01,-6.896360528102374321e-01
2.764047080796485716e+03,3.195639834358803455e+02,1.411774655695380488e+03,3.310954691882267431e-01,5.174263790794485507e-01,7.890790407277072926e-01
2.651394734791549581e+03,2.715465527974074575e+03,5.458113166307090296e+02,2.786103400362517357e-01,-9.031392681930118238e-01,-3.266737526534316260e-01
7.181876719944255001e+02,7.665366705918752643e+01,1.332559683280747436e+02,-8.402451720534326318e-01,-2.831685374913078257e-01,-4.623890463840286125e-01
1.180291230250109720e+03,8.381258260879028512e+02,1.248267564222359454e+02,-8.876081232006002159e-03,-8.145053127159619377e-01,5.800881922082501418e-01
9.594215852468673802e+02,2.213221494673582583e+03,2.176931458842474967e+03,1.374606620706829985e-01,9.904841060855533730e-01,6.767715640585928588e-03
1.476152221055725249e+03,5.235267707488786755e+02,1.111459993644096812e+03,4.262771709749191285e-02,1.420182815438631417e-02,9.989900829398304927e-01
2.074087979619785528e+03,1.603290544388001308e+03,2.265022310384155389e+03,-4.872908241795601350e-04,-9.688684211802223167e-01,2.475757358615666148e-01
3.928815864299306782e+02,1.050583484659464830e+03,2.997706389968322583e+03,-3.593354390374729479e-01,-9.006185350768330933e-02,-9.288524666460800105e-01
2.006908198574981128e+01,2.012163451173649719e+03,2.778266972233914345e+01,4.953395377162359697e-03,9.537150621859360466e-01,-3.006709896779429236e-01
2.690500383281956147e+03,9.482085063216189837e+02,2.117859514209593726e+03,1.743557344574255263e-01,-8.152758299415364673e-01,-5.522005061342759591e-01
2.847988293856409655e+03,2.662066676797619493e+03,2.659954594328562052e+03,8.838948777675750268e-01,4.440489943559942643e-01,1.468003258432142299e-01
2.688748918087065704e+03,9.745088712063808316e+02,2.160890699655737080e+03,2.943709482654670653e-02,-6.903858020161123266e-01,7.228422385436135134e-01
4.931831895961873329e+02,2.406958376079105165e+03,4.223758798975041486e+02,-5.933464204073292114e-01,5.906588019768281850e-01,-5.468658016708551894e-01
1.184585519544561748e+03,2.879390324048490129e+03,1.681094516201021406e+03,4.057846967156655271e-01,7.455166961578413298e-01,-5.287188625926564356e-01
2.866442803593436111e+03,2.529789353666530133e+03,3.763332937051453655e+02,-2.014561188586559692e-02,9.310565087246157612e-01,-3.643184484530994083e-01
2.804296709591690160e+03,3.805194324340699268e+02,2.932674622140104475e+03,1.705468283996129306e-02,-1.227393204723895570e-01,-9.922923949135176169e-01
2.153797706170583297e+03,2.679427474719251677e+03,1.470528084055979434e+03,3.537169373713844878e-01,-3.840625746365334270e-01,-8.528659138341532220e-01
1.881430282930569774e+03,2.707829467634212961e+03,9.337644113743119760e+02,7.897418955695345577e-01,5.504093369454265972e-01,2.708455282730997671e-01
3.767349228527371565e+02,2.950912720811645158e+03,1.205644879251900420e+03,-4.701823327897867166e-01,6.429307836401493281e-01,-6.046226768656776107e-01
2.301816535934286549e+03,7.718543986758124902e+02,2.907785596023599055e+02,-1.021369818226132986e-01,-8.978291189285777518e-01,4.283350442680367021e-01
1.176665994331473257e+03,2.840987204356041730e+03,1.534319393505420749e+03,5.797401708381210161e-01,-1.161051816143222198e-02,8.147186816224416539e-01
1.027017809304823004e+03,4.184990696749582071e+02,4.735013438648402371e+02,2.909435052663754684e-01,-9.452027324156417887e-01,-1.481339642935384227e-01
2.603657852565443136e+03,4.751886420090711738e+01,5.820800730415405724e+02,5.167508643542122471e-01,-6.177863801647625053e-01,-5.927128585344627609e-01
1.552008917996420450e+03,1.138331662909234865e+03,1.884768093493350761e+03,-3.683262798061495147e-01,-1.309161734957469542e-02,9.296044111122399034e-01
7.847038879726037521e+02,1.550215806943791108e+02,8.448270064881859298e+02,-5.173514538080682158e-03,-3.399490851635998956e-01,-9.404296115306853832e-01
1.519504662364172418e+03,1.494992811440516562e+03,2.729630626188035876e+03,5.317892467321236882e-01,1.285828333526642386e-01,8.370583325115886764e-01
2.353447754555438223e+03,2.901693317553236284e+03,1.479373190622055972e+03,5.840127536976961187e-01,6.359264224237299867e-01,-5.045063813092851568e-01
2.139368046085434798e+03,1.266694784103129223e+03,1.406461791652156535e+03,-4.036541803313575122e-02,-9.802480538287825507e-01,-1.936088479173783128e-01
2.701049866402754560e+03,4.727350462202524568e+02,1.038716131197445975e+03,-8.610728866203647136e-02,9.053127264247040618e-01,4.159259576087330768e-01
5.540781646467630708e+02,2.226464210516098319e+03,1.744539879490547492e+03,1.006925275447167166e-02,9.478127138236208671e-01,3.186685890753425121e-01
5.218997945845824233e+02,2.350304626144213955e+02,2.893807772654581640e+03,-4.739889280817749517e-01,7.343995759431641845e-01,4.857898299783462992e-01
1.281316640358654013e+03,8.774457073667640827e+00,1.156353173289262259e+03,2.714183656507564678e-03,-2.540115309716845515e-01,-9.671973817895185288e-01
9.169095299400877366e+02,2.193555304547187461e+03,4.424836226817981242e+02,1.173992331438232549e-03,2.636954039112467951e-01,-9.646052849212936042e-01
3.000000000000000000e+03,1.818389992912565049e+03,7.285077526497727831e+02,3.478499717414438863e-01,-5.781593520121543076e-04,-9.375500322069433290e-01
2.922318582406347559e+03,2.637678403320229336e+03,1.631684996860081810e+03,-3.673252543020218142e-02,3.709015639759762339e-01,-9.279454463575400602e-01
1.694693543240711506e+03,2.580626026051254485e+03,2.539073157463581083e+03,-1.955468938974329329e-02,-4.560981487581133864e-01,8.897146131329375374e-01
2.438084046142910665e+03,1.444512168359308362e+03,2.563931385258858882e+03,2.100082390821881879e-03,-6.237191730671033385e-01,-7.816456887890066429e-01
1.041758077062929942e+03,3.512045481712795549e+02,9.167688860963853585e+02,-8.509991829167555810e-01,-3.649509667244837940e-01,3.776389579504202954e-01
1.789567518059174063e+03,1.756930940232809917e+03,1.676501549703995579e+03,-5.078023065851030582e-01,1.627819467587508229e-01,8.459544049393443732e-01
5.343499095242045769e+02,6.677006130467644596e+01,3.782467936998849041e+02,-9.009557977220077341e-01,3.003909165296352324e-01,3.131197020591112712e-01
1.611873821703008844e+03,1.563385053979118766e+03,2.825945087205638174e+03,-9.206890042149331599e-01,3.449342122285625201e-01,1.826257012360961163e-01
1.678962597499543335e+03,2.539814999858317606e+03,6.588389553197333726e+02,4.954977632917081931e-02,-7.104954924790551907e-01,-7.019551088443434228e-01
3.857431464448418410e+02,2.183641056401007063e+03,2.627122140923334427e+03,-6.647668559672201272e-02,5.535047620673507751e-01,-8.301887307358731816e-01
1.320700782487811693e+03,8.808368845123516166e+01,2.327114930258138884e+03,5.119607267037035864e-02,2.025233335379685029e-01,9.779382708104836786e-01
1.810192803095236286e+03,1.530696396917943275e+03,2.987830545662762688e+03,-8.105641452690226512e-01,5.492487047883904960e-01,2.032526179230522978e-01
8.107523012408304908e+01,9.708446532967484472e+02,1.667032100722231917e+03,-6.051756776267073340e-02,2.324322593574516815e-01,9.707280096927670687e-01
2.413044713707527535e+03,2.699013718683784646e+03,2.081002756561535080e+03,1.036857214739481808e-01,-2.123601584344642357e-01,9.716750661986321980e-01
2.180023421964819136e+03,1.214781041909594023e+03,1.495457880412369832e+03,5.583661349071516317e-02,8.540824708312566571e-01,-5.171319034952922555e-01
9.166623954004446659e+02,7.082088708339347249e+01,2.542395485460174768e+03,-8.749542559149955934e-02,3.119766438104079956e-02,9.956762808452004343e-01
1.448234883409023723e+03,1.091113652149379277e+03,4.978030838527492961e+02,2.592860868241230743e-01,3.688345620394428703e-01,8.925983368932555173e-01
6.406830986521724753e+02,2.914410449547082862e+03,1.933402012350182304e+03,-9.818754224491671456e-01,-9.130662380457170435e-02,-1.660835790789683408e-01
9.193171795239846915e+02,9.933916555218480653e+02,2.052981197083325242e+03,7.450875159423230309e-01,-6.500084917863524492e-01,1.494441507471264696e-01
1.417663637265528394e+02,2.123819809579720641e+03,2.275327554949265959e+03,-1.047993427862744659e-01,2.836987440617647072e-01,-9.531695129248219933e-01
2.455669096721232563e+03,1.629964979234364591e+03,1.313478421190290192e+03,-7.972007048828499975e-01,-5.042803096456331957e-01,3.319222882513184203e-01
9.473217023088961923e+02,1.795638932602450723e+03,1.835712321773749636e+03,1.012895501202445425e-01,-3.245335722063523720e-01,-9.404352117756027418e-01
1.640980679429508655e+03,2.536270667207641509e+03,2.998081303491133440e+03,-1.078063949283503270e-01,-6.588140114285104820e-01,7.445413887474805481e-01
1.577922032287240654e+03,6.232764252688110673e+02,4.231778284113999575e+02,-7.137393189245359038e-01,-1.500148597682437190e-01,-6.841576766139908505e-01
2.875833434158593604e+02,1.877116528142105381e+02,7.537004534046757271e+02,1.311931148761936172e-01,-7.141986759245932959e-01,-6.875380847026872910e-01
1.343190475314716878e+03,1.722951926123906105e+03,1.426141241135454493e+03,9.355023276748470895e-01,-3.392099921155930509e-01,-9.885330628705558953e-02
2.375476497739561182e+03,2.481956634263906381e+03,1.845114221698880556e+03,-1.830822418681439800e-01,-9.580809625715722699e-01,2.203673339459907010e-01
3.603515872424291047e+02,9.070787671378454888e+02,3.804118070754147993e+02,9.553384477994256718e-01,2.205576940506475681e-01,1.966793170398075941e-01
2.626136450981854296e+02,1.703511735090266029e+03,9.901158619203154103e+02,4.393106771656998255e-01,8.652299129090010865e-01,2.416264197799917746e-01
6.572149189913641294e+02,1.121501576130816375e+03,1.671518533944811679e+03,-8.691834119437799600e-02,-8.075745744280760086e-01,5.833253883565585607e-01
2.271580824148243209e+03,2.798726144847658816e+03,1.314508328811323054e+03,9.494243715704901998e-01,1.960388749427442456e-01,2.452796815457059798e-01
5.327928762718662483e+02,2.660553778533270020e+01,1.476099171324823601e+03,1.896759919514347525e-01,-9.143515461019446899e-01,-3.577488898909715331e-01
1.883269996866599513e+03,1.186101689541922497e+03,1.222951620484544009e+02,-9.429720272395612779e-02,3.221199086095727360e-01,9.419908715246648745e-01
1.363730404541516918e+03,1.509447452107972140e+03,8.489067259934946605e+02,-5.509757161046888729e-01,-7.078347298689741107e-01,4.420359209999135119e-01
2.337395849333276601e+03,1.111830381067606368e+03,6.784945822986709629e+01,-4.110487973495495773e-01,6.324767788401219892e-02,-9.094166357834945202e-01
2.943730110596149188e+03,1.570635006587343469e+03,1.192359279853603084e+03,-2.416536780733823109e-01,9.685107579886415019e-01,5.992004283938134890e-02
1.525788781403638041e+03,5.540482515499588771e+02,1.477903702123320727e+03,-8.720315076652667141e-01,1.513500128107804210e-01,-4.654613015721269509e-01
2.333618578592998347e+03,8.118146939094548316e+02,2.948489610973783215e+02,-1.473964692320431586e-03,3.286960814052884428e-01,9.444345999045640205e-01
1.976709791911697494e+03,2.057355312100593494e+02,2.919374411395870084e+03,2.424684500949948057e-02,-2.825008621324890390e-01,-9.589605588351826082e-01
1.303859489491374916e+03,1.443040376681514317e+03,2.652557439081210305e+03,4.882343341406420595e-02,-7.484070017754393955e-01,-6.614402709566148397e-01
2.504350503772647244e+03,1.849916276769293063e+03,5.300116249700143101e+01,-3.402608880198963459e-01,6.418403701046599963e-01,-6.872142805470683458e-01
2.243869498324997039e+03,7.741937779510948303e+02,2.779285999640149839e+03,4.739672387799545583e-01,-1.649596081310073514e-01,-8.649528219784996530e-01
1.859541359868052496e+03,2.910596267513767089e+03,2.842496557886752726e+03,-4.033817893883975825e-01,1.938525782128757147e-01,-8.942618799378823091e-01
3.464072337941873911e+02,2.326686469346770537e+03,1.473191616532686112e+03,-2.246824134640526560e-04,-3.271313097001699588e-01,9.449788652301512881e-01
1.257383265707512919e+03,1.693587793731469674e+03,1.714526499195235147e+03,5.726871514101206095e-01,-6.660770155187810682e-01,-4.778816129622012188e-01
1.476582774730223264e+03,1.849826191012878553e+03,1.750136163335147330e+03,-3.298971246305035937e-02,7.746342381063854310e-01,6.315484748021684691e-01
2.379770280155205000e+03,2.739672151716939879e+03,2.865142545797660205e+03,-3.397645193415280152e-01,-1.267964340516838373e-01,9.319242113543340089e-01
2.696554287286703584e+03,2.957715166474114540e+03,2.224453403601644823e+03,-7.576568167215869121e-01,-6.263988721544710980e-01,1.832501051539084103e-01
7.639868215595952279e+02,2.294401359937054167e+03,2.845653609756931928e+03,-5.300236313499758767e-01,8.461692951909780547e-01,-5.542990245876544542e-02
1.730453136012129335e+03,1.094138530448883785e+03,4.516677272098732487e+02,-4.132661184066871995e-01,7.544606808815262911e-01,5.099021439265125633e-01
2.639326022091330742e+03,2.284180570581005668e+03,5.033826237896766287e+01,-8.299567082691948483e-02,-8.628558243916539805e-01,4.985895555839379711e-01
5.190427114995176225e+02,1.318388054207664936e+03,4.575690274439772054e+00,-8.293367758910225084e-04,-2.756072281367201726e-01,-9.612699766451181516e-01
6.152244282371535746e+02,2.051973919389576622e+03,1.483941069018851749e+03,-3.302919688361792283e-01,-5.648251157563992653e-01,7.562273493686211268e-01
1.979183695518672039e+03,2.676191808657774345e+03,2.195418335622350980e+02,2.310530851383653383e-01,-9.378840489298463368e-01,2.588203674578197777e-01
5.241743401938330180e+02,2.658590877915840338e+03,2.594507250255738654e+03,9.876273017462119386e-01,8.072695299413761016e-02,1.344450516225097481e-01
2.796741762699878109e+03,2.583725219837162513e+03,2.719345139543511891e+02,-1.347140970689277295e-01,7.926724740929169677e-01,-5.945775482359869635e-01
9.283009470101704892e+02,2.108838575097067860e+03,9.439057698425043554e+02,-8.979904721584313493e-03,-6.225337195839261151e-01,-7.825414553186258448e-01
1.616855867623504764e+03,2.046937890376768109e+03,1.176103129682201825e+03,2.377751422084886934e-01,9.593138372839846717e-01,1.522496086799882964e-01
2.512050359860341814e+03,2.387459018652560189e+03,1.050419821949401921e+03,-5.305891811137417730e-02,5.370493976595486912e-02,-9.971461932202246858e-01
9.444766198049853756e+02,2.235297703386578632e+03,4.083403529012286413e+02,-1.204750280708089677e-03,-3.396861778867830139e-01,-9.405380636260448624e-01
1.567226356550094124e+03,1.055052305783484883e+02,2.759567438480818851e+02,1.208855093481068788e-01,5.272081777335556607e-01,8.410934733788584250e-01
1.128647399259730122e+02,2.920563179008003772e+03,2.891453356093963976e+02,-5.491289609460813237e-01,-6.752420419988520717e-01,4.924485444871349871e-01
6.403804342459712871e+02,1.692506525185192913e+03,1.338050025246242512e+03,-8.673642328055725104e-01,-4.970861131462990246e-01,2.418023504239896759e-02
1.045603589151341566e+03,7.878045957576299543e+02,1.685693856351728755e+03,-6.687233829356258909e-03,-6.553820562905929847e-01,-7.552679267624341497e-01
1.553791302488122710e+03,1.580432107036419893e+03,1.514938457916352490e+03,-1.920083678350940903e-02,4.082147906721525499e-01,9.126839609324269853e-01
1.491718876084443082e+03,1.512917384190131543e+03,1.553272807912353528e+03,-7.075545445032724867e-01,-1.026063177742831678e-01,6.991698721380730230e-01
2.963200134942745535e+03,2.616253616254567532e+03,4.099180342236742263e+02,9.652441764490699017e-02,-4.166698936142213539e-01,-9.039188218827092225e-01
5.209497368026740105e+02,2.662102184998074790e+03,6.882205791804475439e+02,6.499923011290441310e-02,9.754642945315070701e-01,-2.103437904452586660e-01
1.024655984519055437e+03,5.404856363561750641e+02,2.663569829281389957e+03,-1.040540395698034137e-01,9.931601699760409518e-01,5.296823219975599351e-02
5.032382855549374199e+02,2.657714389489253222e+02,2.936217754401675393e+03,-1.359192469591788688e-01,7.391252653017141849e-01,-6.597119071979224980e-01
6.553591165820160995e+02,1.053505833149029286e+03,1.686501260570643581e+03,4.925728835865513244e-01,5.572863372195983045e-01,-6.684339104979593049e-01
2.964643570560730041e+03,7.768974561037795468e+01,9.853373236858528799e+02,-7.223302994210264449e-01,1.446532331888200282e-02,-6.913969141958983267e-01
1.391087346107120084e+03,1.480539889015484505e+03,6.419204607390774981e+02,-1.885053512055041576e-04,-2.208489901212170592e-01,-9.753079964955538861e-01
1.019467985512400105e+03,1.147164795670057487e+02,2.402069854907702847e+03,-2.713396564302715530e-02,-5.731769879836683401e-01,8.189822271297788614e-01
1.991761089717206005e+03,2.695896423421630516e+03,1.370011695761401597e+03,4.368756280205211562e-01,8.991213574067070669e-01,2.684157776278772722e-02
2.916473366646350769e+03,1.398671437208993439e+03,2.101621173728144640e+03,7.271270225679725696e-01,6.078036390690284563e-01,3.191567473607311300e-01
1.789645859339055278e+03,1.198687510378635466e+02,1.274949245172892233e+03,-1.583337970995002397e-01,-8.572386054265790367e-01,-4.899718176205121178e-01
1.173529124164118912e+03,2.882693304953973438e+03,1.626919328687706411e+03,9.120867223781374891e-03,-5.615836279793631203e-01,-8.273697109313481457e-01
1.167882374951546126e+03,2.706719275512493823e+03,2.970918731839456996e+03,-5.684174155408603518e-02,9.862570522149781693e-01,-1.551323414808156442e-01
2.267563334963074340e+03,1.232808398256917599e+03,1.812293027082646404e+03,-5.344988892942301173e-02,3.771812602868403475e-01,9.245958069674895530e-01
2.327695308809845756e+03,1.654809844608502999e+03,1.667121106714594362e+03,-8.135837342564967989e-02,1.538588219133876778e-01,-9.847376696323528744e-01
2.215332580812901995e+02,1.583888524732201972e+02,2.398081632944928060e+03,-1.782363279485649765e-01,9.837707248577836072e-01,-2.066330835570018634e-02
5.043697953858181222e+02,2.204644350762436261e+03,1.778329398958815091e+03,2.870718862473155622e-02,9.758390689028142440e-01,2.165964194629092232e-01
1.659883298843464900e+03,2.568831456431375500e+03,7.730115649274274574e+02,5.966599223125351736e-01,-2.123314319433233510e-01,-7.738942434951286975e-01
2.493227671570849907e+03,1.535961674276695476e+03,1.761190372453107557e+03,-3.746985087036996953e-01,-9.244539501844953877e-01,7.061105836557035609e-02
4.487102706757784176e+01,1.218059023044025253e+03,4.487039273745198216e+02,4.531386691787035459e-01,-3.241692276438455367e-01,8.304093318019410974e-01
9.166104872346400043e+02,7.470179839029441382e+02,2.544084658607299843e+03,-7.437274832028168969e-01,5.632648108532885001e-01,3.600030327416881004e-01
7.705662474384746474e+02,6.652206138644240809e+02,2.035808111557999155e+03,-5.116467124940765610e-01,-5.784776349269038498e-01,-6.352804636405715577e-01
1.516980441277415821e+03,1.851976001500041320e+03,2.683767726308045440e+03,-5.540807664157437404e-03,7.115723123270972783e-01,7.025910217045878703e-01
1.995791482932963845e+03,1.927652443481066484e+03,2.555978892101706151e+03,-5.256491960596458846e-01,5.541066065317177269e-01,6.454911240906044956e-01
1.654285379442464773e+03,5.619394398713625378e+02,2.366556725357739197e+03,-7.332572539640669351e-01,4.497123632870078103e-01,5.099927350618733701e-01
2.368875597435389864e+03,9.949512295078471880e+02,6.178793446986992421e+02,5.131787779439342945e-01,3.464626546480001346e-01,-7.852459301405074754e-01
1.964335044483329739e+03,2.044160189258516311e+03,2.517040841530761099e+03,-8.776556996530301413e-01,-1.325993940922811087e-01,4.605842741050874545e-01
2.951494754965799530e+03,1.512791635275481212e+03,2.891560270351769759e+03,6.838111432891724739e-01,-2.324422757492384251e-01,6.916450742671922391e-01
1.135846809661281441e+03,5.621267083446989545e+02,2.377225422525449630e+03,-3.113810055371054372e-03,-2.552027431629954601e-01,9.668825492628467799e-01
2.577132293607991869e+03,2.974204344815870172e+03,1.816038058760971353e+03,2.443771687624621616e-02,7.492595332482290260e-01,-6.618254678013852921e-01
1.314472110940019093e+03,1.622720438518649416e+03,2.917014783084046030e+03,2.537737633473933010e-02,8.834677856212833635e-01,4.678040835005516929e-01
2.316208834325209864e+03,1.622758559865528923e+03,4.963499181713364123e+02,-1.391080219558163689e-01,-9.451477510746104649e-01,-2.955413454428102438e-01
2.250876189823062305e+03,2.061749901266556662e+03,1.333900116446217226e+03,-2.663793287363563564e-02,8.667414055187474542e-01,4.980459381338290803e-01
1.007914308134213002e+03,1.908168451748990037e+03,1.191028823394503888e+03,9.217900172281270343e-01,-2.949522244162781082e-01,2.516075305917111482e-01
2.434959959089173935e+03,4.298331186069088972e+02,2.962262364241567866e+03,-3.370949727458311812e-02,-9.687362023233984099e-01,2.457922702233219237e-01
8.257476370058003567e+01,2.253311676905097556e+03,2.749116569983099453e+03,7.224361445847402585e-01,3.133153371021071276e-01,-6.163761161288855428e-01
2.165312323459950676e+03,7.963732862698574309e+02,2.762022877718525820e+02,4.420625774997885560e-01,8.794355775696564015e-01,-1.765608747117215771e-01
2.549063884405345561e+03,2.936401850674672005e+03,1.748169747034150305e+03,-2.383831168923957952e-02,4.597983779542290095e-01,-8.877033212320807332e-01
1.878026649666127923e+03,9.087474133441862705e+02,1.356881923439230604e+03,4.767537368156291033e-01,5.793210409548468220e-01,6.611300975899725429e-01
1.954967221803668963e+03,2.292193978040639195e+03,1.117803124195332657e+03,-4.331267798013407333e-01,2.247301857118110813e-01,8.728674219197642969e-01
1.448343010005067526e+03,1.457759992408744893e+03,1.485003260343346483e+03,-8.830706128458420956e-01,2.212590264158503517e-01,4.138003576092931790e-01
9.258349485746939536e+02,3.660265886194323457e+02,2.598365232008044927e+02,-1.049728458259860386e-02,8.908436398900205777e-01,-4.541887452193102415e-01
1.106601194364398452e+03,5.244822241675439045e+02,2.157483937356229035e+03,-4.230991151183707277e-01,-5.653201489301430405e-01,7.080962279236153734e-01
1.482737400309981922e+03,2.385405979418643255e+03,6.380178562306587082e+02,-7.050850207602195850e-03,9.680816015216761050e-01,-2.505360219740401795e-01
2.760996122791058042e+03,1.134577127804729344e+03,3.931440639082654229e+02,3.968839753016004807e-02,6.593880496219855884e-03,-9.991903481526879238e-01
2.105678260591548678e+03,2.321663586501287682e+03,2.974164709524211048e+03,-2.371922429976040803e-01,9.667791280715313240e-01,9.527831540815201450e-02
1.618139880844419849e+03,2.816019661662775889e+03,3.977625540606988466e+02,-7.973709968975934981e-01,-5.510450438352585412e-01,2.460667652714114695e-01
2.167603627580860120e+03,1.800129490526013342e+03,9.717540799035465398e+02,7.350274126260519791e-01,-6.542681145282580601e-01,-1.779548734929446152e-01
1.400536541433068294e+02,2.736549482760568480e+03,1.268893530091447246e+03,4.295236161928236984e-01,-4.313830598459723609e-01,-7.933587579465963824e-01
1.808802846569829853e+03,2.401532305155870290e+03,2.034857317623320569e+03,-6.693792714451592130e-02,1.082068464716569728e-01,-9.918722661140670915e-01
5.979700545963869445e+02,1.748841624394092833e+03,1.285999894726644470e+03,-1.088093674953069107e-01,7.444703728397957798e-01,6.587293719799101055e-01
1.898620547356443467e+03,2.204748605750779006e+03,1.797688608714554221e+03,9.502829711865612428e-01,-4.924602428150347266e-02,3.074688663349623430e-01
2.971957727203107424e+03,1.704549571327932824e+02,9.561156146521635719e+02,4.872186653104955689e-01,-8.662773297812560447e-01,1.103701050108973625e-01
5.224362270925929579e+02,4.752130294363964254e+02,1.267525790694559902e+02,1.607363359664576719e-01,-2.523072196633759368e-01,-9.542038027621851937e-01
1.238450295290415170e+03,1.333208406081557541e+03,1.337915276862009250e+03,-2.657051141367034949e-03,-1.805617933184650858e-01,9.835600535162314362e-01
1.270030831996070447e+03,1.554316661562872696e+03,8.872900253702574673e+02,-1.039479867492356345e-02,-9.079025464549657087e-01,-4.190524004239764011e-01
2.200393654263225471e+03,1.130711921473212215e+03,1.519085679397093145e+03,9.916931741384520105e-03,9.535813080673826159e-01,3.009723299064823165e-01
2.236337844693572151e+03,8.712384283109438456e+02,2.985917409914426344e+02,6.190293677654999938e-01,1.389133272597685154e-01,7.729849476888058790e-01
2.599138616039591852e+03,1.889061429483167331e+03,2.451261600856440054e+03,-8.126844052547881336e-01,2.461265017061315952e-01,-5.281721335072240286e-01
2.771537505720076751e+03,1.385100875650191938e+03,6.123238371991267286e+02,-4.564970322357900789e-01,4.641785302116243073e-01,7.590446308686282784e-01
1.608061660143314839e+03,2.941877589865474874e+03,1.922500135948543630e+03,-8.089722002093523850e-03,-1.141899921259866557e-01,-9.934259922592100223e-01
2.507474918262147185e+03,5.776259436726008971e+02,2.997875557649922484e+03,-1.176030362425654896e-02,8.188545614894382485e-01,-5.738805645660124410e-01
1.758624227024612992e+03,1.380915921291722270e+02,7.844917265408884077e+02,-9.885799841611675465e-01,-7.571387055276375400e-02,-1.302959121454898561e-01
1.500713422860702622e+02,5.871194066618136276e+02,1.189262203937881395e+03,-1.290324190439638974e-01,-6.276419675987813251e-01,7.677344562701307051e-01
1.791714109221167519e+03,8.346470398074745844e+02,4.592469623804927892e+02,-4.579537408489132710e-01,8.087968136267631447e-02,-8.852891326482881240e-01
6.655268137540256248e+02,1.995717589826906988e+03,1.132310487630587943e+02,-2.697981117436088969e-03,3.033975804931371423e-01,-9.528602358419624441e-01
1.459607894029264344e+03,5.069151727488338111e+02,9.716774019430272347e+02,6.417088670535772144e-01,4.741596147708921349e-01,6.028120682809308128e-01
4.317346989022441903e+02,2.161985579846203109e+03,2.628728509881992068e+03,8.474109353409908785e-02,9.482607978684506334e-01,3.059745190249256730e-01
1.127781786144950047e+03,6.071218851783133914e+02,2.403717160470400358e+03,-1.348329965268934005e-01,2.528735438550535064e-01,-9.580579491167353634e-01
2.781380303873701450e+03,2.153193729893898308e+03,2.056968675613217329e+03,-5.026508912730951462e-01,-3.413386812425800443e-01,-7.942480633844437587e-01
1.904900787777140977e+03,1.180266282593625647e+03,1.393865602856254100e+03,8.334938966628743229e-01,4.178666210703563255e-01,3.614905409841051576e-01
2.161399838499980888e+03,1.178783937577671168e+03,1.525790254772790831e+03,4.069949230298843673e-02,1.393590614744971701e-01,-9.894051765132555465e-01
1.806305556746831826e+03,4.095916509018044849e+01,0.000000000000000000e+00,6.443866147708066094e-02,-9.979093267856046223e-01,-4.963307500415056750e-03
4.691200338728945098e+02,7.654373398386296685e+02,1.122894994550783849e+03,-2.280363035317449147e-02,9.236601957676077168e-01,3.825334458544248917e-01
2.246852573935372220e+03,9.367370217409079487e+02,1.037744926199850624e+03,-2.884287684428187282e-01,8.709910315942895886e-01,3.977228537774442629e-01
1.455365054199568704e+03,9.893030624052026951e+02,5.941409462144821418e+02,1.423798776348770279e-01,-8.315140725765277629e-01,5.369472204526942738e-01
4.135271016055424980e+02,1.931504889394381507e+03,1.218943677874708328e+03,-9.342071427880536960e-02,6.661423654374022396e-01,7.399506193747662497e-01
2.644718135475863164e+03,2.701793165308377866e+03,1.407104573049267401e+03,2.832319899256453555e-01,2.307055120814526308e-02,9.587738990761646152e-01
1.363041371022506610e+03,2.200057770298995820e+03,5.113447870045789614e+02,9.683223016294827401e-01,2.492564970395313162e-01,1.493716340418305144e-02
9.577733433521842699e+02,2.130054208057222695e+03,9.662444215583146843e+02,-8.152273551848522593e-02,9.405545725383923639e-01,-3.297137238131060966e-01
3.753597339864335822e+02,4.911011332559422726e+02,1.903521328278457304e+03,-8.257917396714429259e-01,3.562931932107515354e-01,4.371763524735731710e-01
