x,y,z,nx,ny,nz
1.612836593362484791e+03,1.606145553961946007e+03,2.927462111255322270e+03,-7.728791658910230677e-02,-6.491951850711699112e-01,-7.566850002674332387e-01
2.022971194406881523e+03,2.067560133919228974e+03,2.089829083110491581e+02,-1.195879431559065953e-01,-9.927411204084011231e-01,-1.279811322078683311e-02
2.518428338912434356e+03,2.417822375516143438e+03,2.111898003003840586e+03,3.393246587891149001e-04,9.981307789763514959e-01,6.111327939848728436e-02
1.606355894606914489e+03,2.522025208806404862e+03,2.011498968455307022e+03,-1.427251500355062319e-01,-9.492155696741206850e-01,2.803913940112585657e-01
4.292336665513902858e+02,2.791392098363339755e+03,1.492367212638437877e+03,3.130404468587482669e-01,6.844925244893840244e-01,6.583886865284253043e-01
1.407368391697295692e+03,1.579852196697783256e+03,1.541710590799178362e+03,-1.422934648323109005e-03,-9.446889575696865160e-01,-3.279645540342521759e-01
1.130827407149566852e+03,8.252608544313574157e+02,2.389540797393653520e+03,8.390666825046205757e-01,-5.002045295338983788e-01,-2.139217869794043381e-01
2.521854553670670157e+03,2.436277373077480661e+03,2.145124204405544788e+03,-3.348293826315816846e-01,-8.314849812583118283e-01,4.433080311345811708e-01
4.934932007210824167e+01,1.265440555354797567e+02,2.520527184153009330e+03,5.802981994834333079e-01,6.729583728566552736e-01,4.586731168036868311e-01
1.761266642385817249e+03,1.235329559883380625e+03,1.898455397128288496e+03,1.874500859437822076e-01,-1.612270140194288215e-01,-9.689521738610463730e-01
2.167245712316201534e+01,1.677854983108709632e+02,1.782785292339468469e+03,6.531354764387330425e-01,-6.646635197689236829e-01,3.628173850651797427e-01
9.461817181064361648e+02,1.998318732298680061e+03,9.654499239889059936e+02,-7.983084363459790334e-01,2.456306009527088330e-01,-5.498811220022460367e-01
1.445094565060257992e+03,1.506041025759195236e+03,1.472601131739723769e+03,-7.498284308549590417e-04,-9.104945270766642285e-01,-4.135204395441244851e-01
1.488425876374294830e+03,4.784660433442992371e+02,2.919402057999237513e+03,2.806814184914825927e-01,3.061643728755262250e-01,9.096600013715810951e-01
1.796070672585384500e+03,2.643534784576600941e+03,1.624131782372746557e+03,7.345243191692797380e-01,4.120399448239266404e-01,5.391633411299414647e-01
1.570049337745167350e+03,2.684737725366609311e+02,3.547509436213402978e+00,6.070405895551350683e-01,-9.618462157621417152e-02,7.888283978184320588e-01
2.196805815602748226e+03,2.315071775852732685e+02,1.385980454897103073e+03,-8.836888613993580943e-01,-2.987668651933945152e-01,-3.603225728444141573e-01
1.568615713593382679e+03,4.068677271024998845e+02,2.567982728017689169e+03,-2.120197832410051220e-01,9.579487789539344877e-01,1.933436019502668135e-01
1.055682558811262425e+03,1.660782861433460766e+03,2.897826097938707790e+03,-5.623244966960829760e-01,7.697237338551439212e-01,3.021862570594378017e-01
2.009123142348094234e+03,2.045369154341725562e+03,1.696180122837177578e+03,-7.930504653243100610e-02,9.136871354415866398e-01,3.986057301683416099e-01
1.393469576287021027e+03,1.661612522400801026e+03,1.742361452708625848e+03,2.850554631854491580e-02,-7.812647438179914916e-01,-6.235485818250967593e-01
2.105533100614845807e+03,2.839324764853123270e+03,1.797876152042524382e+03,-5.971912533783534094e-02,-9.248182780697774552e-01,-3.756923989342020320e-01
2.004878704406894713e+03,1.136206251310928366e+02,5.688878185397271636e+02,-7.630307221659615724e-01,6.414091590090733597e-01,-7.986493454679742532e-02
2.679066611879470202e+03,1.566627611150588564e+03,1.846102600650949626e+03,1.725481562882437772e-02,-9.206488374354753201e-01,3.900102427710367969e-01
2.764216250473147738e+03,3.961469382138883475e+02,1.347045483051210113e+03,9.028945358709634661e-01,3.417249164221894953e-01,2.607787157545747303e-01
2.619581227200202193e+03,5.556187598085959678e+01,1.783625725525917687e+03,-3.382852507863910452e-01,-7.235368089400432412e-01,6.017122029751831302e-01
2.204351862503150642e+03,2.041987563110147221e+03,2.515944284036135628e+02,8.396988373684739493e-01,-5.363030028101170021e-01,8.535192850126449571e-02
1.478155959359979761e+03,5.222409018025726937e+02,2.893799955148176650e+03,1.606340534163955835e-01,9.766614156705775152e-01,-1.425804335221428076e-01
2.246547361918239403e+03,2.607056143748001887e+03,4.082175635885978409e+02,-6.028272061712015573e-01,9.092370188865746272e-02,7.926741070166770653e-01
1.067862000804323316e+03,2.638380803808588553e+03,1.839971811998584826e+03,-1.351956092255016395e-01,9.480801000323756389e-01,2.878650224823192105e-01
1.240176120917407388e+03,1.761169270434101009e+03,2.878561865649375704e+03,-3.928247733642988848e-01,-6.585075650443210638e-01,-6.419162595001675076e-01
2.480038957327097251e+03,1.955702009588604369e+03,1.962887655504875283e+03,2.429106360971973189e-01,-8.453430646903162815e-01,4.758040834743211267e-01
1.366149682340269010e+03,2.802395290110986480e+03,2.108687617970113024e+03,-6.064402031662343706e-01,-7.525860425861965464e-01,-2.566018871484466168e-01
2.878488664018599138e+03,2.632059478358447905e+03,5.703988026291119695e+02,-3.895807361746358999e-01,-9.192246138758910501e-01,5.703471965695827706e-02
1.165278014997936680e+03,2.955694895196267680e+03,9.670922671004324229e+02,-4.514562971671408631e-01,8.890685010073721140e-01,7.579190104911438797e-02
2.323075001572465681e+03,2.402642329747075109e+03,2.070250650676103760e+03,-9.681805093323160305e-01,7.325445362275456729e-02,2.392912166659046380e-01
2.282809439524358822e+03,1.188343982041649269e+03,1.840374650376502586e+03,-5.992641262931783785e-01,6.782945072661560326e-01,4.252047369804765053e-01
1.916599755135756141e+03,2.194455725363464353e+03,1.688582363338323376e+03,-3.224886230610090969e-04,-5.293704101234317783e-01,-8.483907501186216393e-01
1.027074749782623712e+03,1.245392057500719375e+03,2.386039547444435357e+03,-9.829096357857979305e-01,-7.695637689294873574e-02,-1.672314681360551614e-01
2.327295981118561201e+02,8.152399077181048881e+01,1.101669434733972821e+03,7.078196960657225922e-01,-5.917189569694544238e-01,-3.858237341382839691e-01
2.853530731671898593e+03,1.518202119202659333e+03,1.032334619649425122e+03,-7.256080462102401096e-01,-2.182926643993740867e-01,-6.525651507277878682e-01
9.757057535564727004e+02,2.050454117363712612e+03,1.047220277848084379e+03,6.420243084703380898e-01,4.487655179795317917e-01,-6.216223107367905287e-01
1.274420427213194444e+03,1.245874693309698671e+02,6.173156436282816912e+02,-6.663156490383809194e-01,-3.011214923554294542e-01,6.821651579259968567e-01
2.977932765548685438e+03,7.329400991762113904e+01,1.823054063075074055e+03,-2.382538451451739203e-01,-9.321915989105723499e-01,-2.724957397723679620e-01
2.764817731512595856e+03,3.000000000000000000e+03,1.880145840022741140e+03,-3.518626381191845565e-01,3.250789342269184146e-01,-8.777906187797285265e-01
5.844249706013991954e+02,1.656261638876817699e+02,1.162393539181960705e+03,7.695426188778229371e-01,-8.479344820976247865e-02,6.329409363213601702e-01
2.704665105383207447e+03,1.298975691123428078e+03,7.511103698366483741e+02,-1.351469888742741141e-02,2.127287409607414668e-03,9.999064094015295279e-01
1.794352919901631594e+03,1.090786178824458148e+03,2.288063031368089355e+02,-3.839567673069195219e-01,7.079208613446585918e-01,5.928113147640290403e-01
1.370135979858967403e+03,2.927727985872861609e+03,5.064245580286895461e+02,4.657050039899585624e-03,9.845939048913755487e-01,-1.747946061401178530e-01
1.243144797047256816e+03,1.002510792717108188e+03,1.663299363478379064e+03,-1.338394952489839473e-01,-2.641462545491184977e-01,9.551511638055881770e-01
7.629493455105039175e+02,1.886348798264122252e+03,2.029626016871009597e+03,2.020046245838238164e-01,-7.809673549287575733e-01,-5.910026414343072521e-01
1.456066819673675127e+03,1.609731751265240291e+03,1.775381479014780098e+03,6.816535943538004627e-02,-8.312896178604509689e-01,-5.516439567424543666e-01
1.741199611829269543e+03,6.766500080178221879e+02,9.224563675115254000e+02,-6.153107159883840493e-01,-6.939776849350408616e-01,3.738819273541627020e-01
1.880896563614657680e+03,2.021247460271637920e+03,3.175991331857969158e+02,8.373993462961991652e-01,1.894219732779280629e-01,-5.127198561224191042e-01
7.391158069395891062e+02,8.815939828693435629e+02,2.519235160829490724e+03,3.241405466092545790e-02,-8.983318421269937959e-01,-4.381201096516347815e-01
4.845691055177035196e+02,1.272130697340453025e+03,1.868223640335442269e+03,1.810836662283911783e-02,9.560399415129149370e-01,2.926768137216118060e-01
1.742475456043520765e+01,1.817961513610074462e+02,1.821150834703953933e+03,2.920330687787884086e-02,4.489326832554920155e-01,8.930882446726194912e-01
4.960808068214378181e+02,2.751790240170370907e+03,1.515331551051724773e+03,-2.316874091686846604e-01,-8.455583532221135901e-01,4.809906607502997256e-01
2.718688165009240834e+02,2.082272579316495467e+03,1.631153426438135057e+03,1.547495431999546256e-01,-8.285915416282693124e-01,5.380414816921585963e-01
7.575243928105146551e+01,2.724256233913967208e+03,1.093538211411095517e+03,-4.946623366465017768e-01,5.037059635430799487e-01,7.082298179225161583e-01
1.486546536972438389e+03,1.525274347570978307e+03,1.577525536785909480e+03,-3.781516894472869983e-01,-8.395354904907295079e-01,-3.901044218855420631e-01
2.476002735058312737e+03,4.330151298337684693e+02,1.101702234558346618e+03,2.792129479803808212e-01,-5.269141540839544779e-01,-8.027462886280420928e-01
2.736743623330825812e+03,1.726219577908696010e+03,2.743706878903270990e+03,8.316646920350654337e-01,-3.072828829622523128e-01,4.625052106307847577e-01
2.893118741467372729e+03,1.693681604257978279e+03,1.470884242830459470e+03,-1.924475252130852243e-01,-7.620031081878501089e-01,6.183164344827126735e-01
2.336383841600729738e+03,5.745329868345805835e+02,2.372664483496831053e+03,8.086972571860031600e-01,3.835423623571014851e-01,4.459865496821283082e-01
2.217215600664164867e+03,2.335622404473254392e+03,2.834566023150834098e+03,-1.353053675723796812e-01,-8.243826050374497560e-01,-5.496233055627929298e-01
1.450789173262746999e+03,4.858740356343342910e+02,2.910117506132843573e+03,-4.779743574983127269e-02,-4.285234558695898976e-01,-9.022655113132300730e-01
1.479249994083337469e+03,2.952167429728924617e+03,5.210951604671473660e+02,1.813935390954687921e-02,9.221125716128135696e-01,-3.864962730911489786e-01
2.220312410297487986e+03,2.946805783504723877e+03,2.574160813670850075e+03,3.031080411122966667e-01,9.300941212005769954e-01,2.074860022295304252e-01
2.318305566117630406e+03,5.937686366708194328e+02,2.617836561609695764e+03,-5.581219444999862001e-01,7.537953868650850708e-01,-3.468319619188394154e-01
3.132682290955065696e+02,1.462297917400339202e+03,2.459055137476281288e+03,3.086219548943912594e-01,5.481395947206352259e-01,-7.773644406947505248e-01
2.748947644525171654e+03,2.108577681374560143e+03,2.497120246081498863e+03,-2.041904755601490484e-01,6.424251366159270393e-01,7.386448358545043558e-01
2.691422492967760263e+03,2.956296341373838004e+03,1.846650217061922604e+03,-1.854680231172747135e-02,-9.194684871084362054e-01,-3.927260079731584308e-01
2.250538144898363043e+03,2.011323073488171758e+03,2.238416437314453731e+02,-7.208253629609087110e-01,3.118822397150647352e-01,6.189832507124801708e-01
2.250737058138141947e+03,2.949886071718428411e+03,2.572216334330543759e+03,-2.822165446351197066e-03,-2.298984216366628808e-01,9.732105379162130365e-01
3.863176086262312197e+02,1.931093493460525679e+03,1.877653600396687125e+03,3.913538116904430875e-01,8.780655433677246879e-01,2.753962520182578477e-01
0.000000000000000000e+00,8.257195461303479078e+02,1.591947612479984627e+03,1.559465291436928358e-01,-2.001076287609021359e-04,-9.877654782411523504e-01
2.850243172861393759e+03,2.494486108798728310e+03,5.834376409733779383e+02,-1.548966242047783992e-01,9.586638376624518898e-01,2.386853203870401563e-01
8.463871623081554390e+02,2.054501997421523811e+03,9.336702770878166575e+02,-2.200653283848078845e-01,9.489975374393051499e-01,2.257762723959745865e-01
9.120704775002476481e+02,2.007813416002946269e+03,9.776328624421423683e+02,2.496846084842579624e-03,6.764740599920959774e-01,-7.364622270812255511e-01
2.232572679351764236e+03,2.980365338572604742e+03,2.597530163835484927e+03,-3.457528655847103265e-03,9.924497047005659267e-01,-1.226035445464506574e-01
2.106876503061735377e+02,1.651141842487627400e+03,3.771522433622220660e+02,-5.418573645913714598e-01,7.755180186575592050e-01,3.239790103934931942e-01
9.660048793825264966e+02,2.735448679017687482e+03,2.703010964224160034e+03,3.619031766250276894e-01,1.140309262186127298e-01,9.252151309908627219e-01
1.986858047583700454e+03,1.660375506853333036e+03,1.500830543524234145e+03,-1.764913791284530575e-01,-8.416118027845927163e-02,9.806975521675749263e-01
1.555970698245549102e+03,7.068677027618255124e+02,2.553919504464296097e+03,-5.510293510499401082e-01,3.897159839298121042e-01,-7.378943733022366169e-01
2.364366471551404629e+02,1.317448051125678148e+03,9.366725493867772911e+02,-5.165932349357714726e-01,1.290679584275949698e-01,-8.464472173301342828e-01
1.329352027147909666e+03,1.029020115160539035e+03,2.050186794058011515e+02,-8.070147984327407514e-03,9.234471775356885015e-01,3.836406951991429004e-01
2.565832424767845168e+03,2.444657999817103246e+03,2.143335794562701722e+03,-5.851665721276524401e-01,-8.055923448118224028e-01,9.274188290606821816e-02
4.693855230955199431e+02,1.508236409632416098e+03,4.510372672617964440e+02,-2.252429974320837858e-01,5.518353653927907665e-01,8.029591033232112984e-01
1.395742055228328582e+03,1.510954851643185975e+03,1.516235531801082516e+03,1.661805968025333591e-01,8.942670396052710968e-01,4.155363655830601188e-01
9.656521320131182620e+02,7.214680855652181890e+02,1.006601237414766388e+03,7.043609073648904317e-01,6.940280531524911645e-01,1.489992403117246234e-01
7.622872174801152596e+02,1.110838489027494234e+03,7.012585649331372224e+02,1.533331360475645097e-02,-9.663647419164480556e-01,2.567178900557086085e-01
1.537135524246925343e+03,1.510287730440353016e+03,1.541339143858986063e+03,-8.893318308829303159e-03,5.651320766385385663e-02,-9.983622419988648078e-01
2.210155844183834688e+03,9.495670419470982324e+02,5.750285618428011958e+02,-5.793063935428370836e-01,7.855008826422069657e-01,-2.176981069479140274e-01
1.321286410048254766e+03,4.229108752997511260e+02,1.898328489550078473e+02,-5.105534106907396730e-01,7.416798936680482068e-01,-4.350243098501573868e-01
7.347562122581582571e+02,2.813208947067531426e+03,1.592216302566986542e+03,-3.845609996286863397e-01,9.227775407410105935e-01,-2.438130161738355159e-02
6.031857694384260640e+02,8.565857998412906227e+01,1.382808288175067219e+03,-5.046645911731029166e-01,4.973121251161377598e-01,-7.056871124149539654e-01
1.487842299599915577e+03,1.051025759340356217e+03,2.009149996009978878e+01,3.974996386290662320e-01,-4.711352516030692383e-01,7.874170508610252028e-01
1.629298227503929411e+03,9.473542442936744123e+01,8.429897816802667876e+01,-7.820752862320037302e-01,1.022428183372552264e-02,-6.231000808265987345e-01
2.068087195676044757e+03,2.441398424566417361e+03,2.885918396439242315e+03,-9.648624180252958205e-01,1.701087560685343725e-01,2.002586462333031392e-01
2.243054578849063091e+03,3.000000000000000000e+03,2.601038977597025223e+03,2.902077305314580413e-01,9.340054549210972112e-01,2.083585451029427993e-01
2.479867743550575597e+03,9.112313978674872033e+02,2.958690169383479315e+03,-4.729453868840612363e-01,5.141838280954363904e-01,-7.154981844492747101e-01
2.864771622270172429e+03,1.527792737980908896e+03,9.710030346802377608e+02,3.339295636922866295e-02,-9.372958908239628073e-01,3.469312950851174415e-01
5.032941923671173186e+02,2.008328768197426371e+03,0.000000000000000000e+00,-7.124856915487321092e-03,9.857339621315055478e-01,-1.681600199644897875e-01
6.797064870061226429e+02,1.384106052056033832e+03,2.962125625541543741e+03,-8.168447876354650861e-02,-6.587287355421803658e-01,7.479332182087703451e-01
6.486010630702037361e+02,1.971536591988503233e+03,1.370959921930811561e+03,-6.469328768000980334e-01,-1.760250350621372570e-02,7.623437576221524514e-01
2.900882462024662800e+03,5.167054975933515379e+02,2.269141078957732589e+03,-5.937531429339044931e-02,1.277904623296684528e-01,-9.900223077234828750e-01
2.679034610076678746e+03,7.525017795687687112e+02,9.010397234285588866e+02,1.111749557891437978e-01,1.484381857234626789e-01,-9.826526518686085065e-01
2.285153263220115605e+03,2.590249314516435788e+03,8.013326681790256600e+01,-4.516322285543411530e-01,5.480110253969504575e-01,-7.040683533396614457e-01
1.455035390298751736e+03,1.088788201149808856e+03,0.000000000000000000e+00,3.950854792272388560e-01,-4.716702739494078589e-01,7.883112435937176254e-01
2.088815440461883099e+03,1.926407195850914832e+03,6.967695879129648802e+02,-8.062752028982536068e-01,-3.195340258257736710e-01,4.978135228486202379e-01
1.100898978788998647e+03,2.505376054981702509e+03,4.355408107134146576e+02,2.909823922768542959e-01,1.908482193371819069e-01,-9.374999757656881094e-01
3.330359945224440139e+02,1.689850704451612273e+02,9.635618683344282545e+02,4.823115526121106965e-03,-6.093489964010023741e-01,-7.928874687758111772e-01
1.604347355201551864e+03,7.155960038853675087e+02,4.901565494488878016e+02,4.972440478474117465e-02,9.971473929396720282e-01,5.678521218079962685e-02
1.496333288642974821e+03,1.509706605389961851e+03,1.518051316191290653e+03,-4.170977912140844818e-02,-5.646626112482740906e-02,9.975328845106943287e-01
9.168652204105221699e+02,2.044844586462447751e+03,1.039734426364787623e+03,5.084389614729981771e-02,9.434440438134349405e-01,3.276098814405878357e-01
9.370306823638924243e+02,2.003320696406028674e+03,1.010565091971115748e+03,-1.344174898281665640e-04,-7.718144600890805007e-01,-6.358477971412179741e-01
1.256733393535313326e+03,6.516789917430844525e+02,2.537457497887381123e+03,7.938738005284958765e-01,5.766959493315567675e-01,-1.928371615094366387e-01
1.710006322536200742e+03,2.072498251268631975e+03,2.942733851670182503e+03,1.258030639127387558e-02,3.264407641414096561e-01,-9.451339393958267943e-01
1.985122902872344071e+02,2.990315887754588857e+03,2.106896418816982987e+03,-1.428468427864773294e-01,2.947547843466883921e-01,9.448356452900539271e-01
2.147820592981976006e+03,2.234453761106076854e+03,2.708505994937490414e+03,-9.830644474178716896e-01,-1.741365068611309963e-01,-5.710314528288141372e-02
1.667158394795251525e+03,2.038333086973098716e+03,2.959143439661930643e+03,-2.413345961341014235e-04,-9.512970845681620879e-01,-3.082755239225580812e-01
2.313042568983260480e+03,1.147414670521023709e+03,1.836979551652204464e+03,-6.883720493026955767e-01,-1.521811530120093792e-01,7.092142260324046932e-01
1.057507583878389141e+02,8.425204509424819435e+02,1.645088270896471613e+03,-2.023431949602845265e-04,-9.992482228068330086e-01,3.876787683917242572e-02
2.828250381688154448e+03,2.977716539191926131e+03,1.040613679061714265e+03,-9.137752554179517928e-02,-9.828218559271970634e-01,1.603475828869225239e-01
1.632078174191954986e+03,4.780864788776476360e+01,1.105587621595480243e+02,-7.532564283284033380e-01,1.079101235946848189e-02,-6.576384319929872158e-01
1.622232361674765571e+03,2.410986577241111718e+03,2.598755867336444680e+03,1.937006237920500251e-01,-6.018250401715745657e-01,7.747817043303574236e-01
2.340997292977946927e+03,1.304619780489700133e+03,2.031032296082464370e+02,-1.622106752031225452e-01,3.868015090163159364e-01,-9.077842747441970950e-01
5.098643000803083396e+02,8.260983721831329376e+02,1.001055527786760990e+03,6.664854199294216741e-01,-5.278349490257879806e-01,-5.264859462592011985e-01
2.768080895287916974e+02,1.357449655949884118e+03,1.252058103001645350e+03,4.497396549061903614e-02,1.900363160898026760e-01,-9.807464203325267915e-01
7.187204198806349495e+02,1.928299368360503877e+03,2.042176465414896256e+03,-2.485015239843375509e-02,-5.027865706922985956e-01,8.640533167908406309e-01
4.013601808495445198e+02,1.266442220012035477e+03,2.121759264176054785e+03,1.350914310804250396e-01,4.161905251638873815e-01,-8.991861609324569571e-01
1.502771092243998055e+03,1.350824904398256422e+03,1.483725597740413605e+03,-8.836412434354757872e-01,-4.671868742354877702e-01,3.024198144766621424e-02
2.788337205894545150e+03,2.545450844113286621e+03,5.744183422676101145e+02,-1.447139908342748998e-02,-9.702739937705479045e-01,-2.415759831214993880e-01
2.726582173601570048e+03,1.692496451239431963e+03,2.782256151483613849e+03,7.885307494004316631e-01,-3.403294968330834447e-01,5.122451472052556021e-01
2.875983053159643077e+03,1.469221367793627905e+03,1.036620902450753192e+03,7.576759209889825097e-01,-6.524502845349853253e-01,-1.535659349315077193e-02
6.406203185956929929e+02,7.289699735368934626e+02,2.720418095320638258e+03,-5.803762604634364886e-01,7.597342034363905316e-01,2.932018697405434082e-01
1.091586422501979143e+02,2.064626309405109168e+03,1.462144568121644397e+03,1.164340995402844137e-01,9.889524429907086134e-01,-9.173966408785397264e-02
1.171850240779137494e+03,2.907716399582747727e+03,2.267288627042220014e+03,-1.158626991970164999e-01,9.025802720134485924e-01,-4.146380198521486538e-01
2.821031350088391264e+03,1.552240522209134724e+03,6.383323253165098095e+02,-8.656852259332946664e-01,-4.337120515995078751e-01,-2.499658894692762257e-01
1.415924381769374349e+03,1.058595390576615728e+03,6.973270966880164679e+00,6.422262456912465611e-02,7.700394193109312280e-01,6.347556594475840530e-01
9.069686870585095448e+02,1.994709313351240326e+03,9.695222482914143711e+02,5.349781650076739226e-01,-3.445833487376576687e-01,7.714017622081011938e-01
2.179668935696089193e+03,7.277269342585126424e+02,2.962072101983025732e+03,-6.186499717991256198e-01,-7.729114378923770401e-01,-1.409968849587792672e-01
2.152506496599822640e+03,1.753412109526480208e+03,2.905246622382159785e+03,3.497036829222434084e-01,4.451465950695271401e-02,9.358022116022163273e-01
4.267758783031256939e+02,2.699652230943901486e+03,4.923277787018268441e+02,8.158269735231077346e-01,-5.362805061474538171e-01,2.164014047975595378e-01
2.890147471862305338e+03,7.347185791014217102e+02,2.808452065036726253e+03,9.673835261329263302e-01,-1.515214845197976057e-01,-2.030033327202847016e-01
1.377028226612546632e+03,9.366357649497541615e+02,1.859006949288021815e+03,-5.886827835757437732e-01,-3.006765611893325585e-01,-7.503640355673182327e-01
1.164070484935421746e+03,3.064943276275872108e+01,1.671350019059535441e+02,8.074037509719113048e-01,4.941609406513847724e-01,-3.223416629153394997e-01
1.011750159860936265e+02,2.752444624991039291e+03,1.045693030976708542e+03,-1.041807353095555028e-01,9.027211507040183713e-01,-4.174217273477428547e-01
1.179483500726061948e+03,2.212732170727477296e+03,2.810764956435782096e+03,8.878861102998876209e-01,-3.569700058579871604e-01,2.902252057528504903e-01
1.465148446839873714e+03,1.602187652140568161e+03,1.541619221450976738e+03,1.263394254487911138e-05,8.813279318640020454e-01,4.725051072281700737e-01
1.875877940570104556e+03,8.305511577198274153e+02,2.785646730369795932e+03,-9.366589833446564706e-01,1.239481111091135374e-01,-3.275771888765111606e-01
1.632059099141707975e+03,6.127625549545299464e+02,1.197974162247793402e+03,7.382327795522907188e-01,5.286684467034871160e-01,-4.189535017810702144e-01
1.772046278753320848e+03,2.991734020170602435e+03,1.255451116827638998e+03,3.073620111826522172e-02,9.924264641003939236e-01,-1.189327511411690935e-01
2.043917435250943981e+03,1.715491468006889590e+03,1.006169234959036316e+03,-4.443447805768621639e-01,-7.803304726053182927e-01,-4.400478036505360846e-01
2.550114409153666656e+03,2.523885802683420025e+03,2.232941752618934515e+03,-2.388568310615150209e-02,9.969114633874271991e-01,-7.481315599071447497e-02
2.341861953170287961e+03,1.269501802650726404e+03,4.379942722833574180e+02,4.993160774515257305e-01,-1.060449683342887806e-01,8.599057619817427334e-01
2.891451633684872377e+03,1.574723075251585669e+03,9.379004436399370661e+02,-6.817612626487702665e-02,9.356368905012686366e-01,-3.463172316542055817e-01
3.634629295772954265e+02,1.645182133140687256e+03,1.703911377865122631e+03,7.432435697312244072e-01,-4.771807601723106473e-01,-4.689216546232029548e-01
1.484760602344334529e+03,1.468083884356367435e+03,1.558108153474522396e+03,-9.183281310817257084e-03,9.614700194959555635e-01,2.747563810993536304e-01
1.545018704679370785e+03,2.508232705494272523e+03,1.294171041478679854e+03,-4.242676363754635527e-02,9.864598830938471341e-01,1.584199128068095597e-01
1.605898309396252671e+03,6.929808935125536209e+02,4.515996522596364571e+02,7.594340319303684306e-02,-9.954992165119631586e-01,-5.669135238753182648e-02
2.150467027123059324e+03,2.519982020014096634e+03,2.395651555443836514e+03,-7.484215707065931637e-03,9.632939004488152990e-03,9.999255937325466359e-01
8.726553589482109601e+02,6.297116128675928337e+01,8.173278579990238768e+02,-2.721482443421427422e-01,-9.527362238134987615e-01,1.350148915308386766e-01
1.395511982094106997e+03,1.638243138506735249e+03,1.791599763940409503e+03,3.667890726631278190e-03,-7.191440490714939848e-01,6.948513389658784734e-01
2.358485249097028372e+03,2.322216367212720911e+02,1.983875304172771393e+03,-5.548240491690660482e-04,5.919134905715933703e-01,8.060013100793489427e-01
2.671421469121968357e+02,2.691853078931971140e+03,9.001783427771390507e+02,4.400459843243058611e-01,7.013188300810058173e-01,-5.608131865905635616e-01
5.510545885885893540e+02,2.981087642368331217e+03,2.809418553794120612e+02,5.710598209934202724e-02,-4.154177470105830938e-01,-9.078364402672547406e-01
1.488751070276804739e+03,1.649698612473189542e+03,1.485543320080448666e+03,-4.023816234348348564e-01,-8.427588763454609833e-01,-3.575562969140425040e-01
1.646156869215362804e+02,1.215317889647453512e+03,2.281083008116796918e+03,3.368686118815902852e-01,-1.842245994457512581e-01,9.233530393560325233e-01
4.002975761535047354e+02,2.047305829503172845e+03,1.980705427866063928e+03,9.509108483890064134e-01,-4.270366380096751041e-02,-3.065044135311497109e-01
1.465557610477130623e+01,1.295930575457523219e+03,1.538585743307088251e+03,5.201671741963699303e-01,3.669182922597342134e-01,7.712308848158011543e-01
3.684996549558878769e+02,1.898998815654566670e+03,2.267236196803361509e+03,1.566659549352947961e-02,6.564030617092133646e-01,7.542476903275294742e-01
2.422101395326896636e+03,1.465652996440310744e+03,2.431426927871027743e+01,3.737834111789111180e-01,6.228851373890700316e-01,-6.872409091048468088e-01
2.454063879662878662e+03,2.477388942201378086e+03,2.148766390511768350e+03,3.136889022453340226e-02,-9.821922801659048741e-01,-1.852412413815614223e-01
2.336149687846868801e+03,2.699592173290412575e+03,4.173732695026599799e+02,2.446944589864203171e-02,8.490596814645154922e-01,5.277299532230371737e-01
1.108739462723883207e+03,2.324327388612866343e+03,2.191632497171729312e+02,9.428885724098503562e-01,2.392514099734610600e-01,-2.317755441038274189e-01
4.831694687926435563e+02,8.346729662115974406e+02,9.540550676971970461e+02,-2.023333801193138159e-01,-5.126308603024304356e-01,8.344284297380353266e-01
7.331895974013576733e+02,1.686522573880785103e+03,2.697590836879790459e+03,-4.592635752733670307e-01,7.092851293346954522e-01,5.347818001127082610e-01
1.661509787613077378e+03,3.239366578775058656e+02,1.708506470992905406e+03,9.855149354519032734e-03,-9.863024431252049862e-01,-1.646522599797891895e-01
8.142726665797084706e+01,5.026623837476579411e+02,1.718692560202950517e+03,-2.624285802591765915e-01,4.373040017328114759e-01,8.601723375763847823e-01
6.150961730664994320e+02,3.879914030945607237e+02,9.780693260184024211e+02,7.961032312949861689e-02,9.914432567587931899e-01,1.034527190494993892e-01
2.480969218204303615e+03,1.178547481418198004e+03,1.893953736695611724e+03,7.445446086828801623e-03,1.654112593311259398e-03,-9.999709141990565930e-01
2.792433033204545609e+03,2.777746086603915955e+03,1.720420422804751979e+03,-5.375336214522539180e-01,7.527340921080643010e-01,-3.800644581997549842e-01
2.247204008432466708e+03,6.690061372324117883e+02,1.614021126795222017e+03,7.681612974549763273e-02,-6.818945491964075734e-01,7.274057368395929757e-01
2.200716697284426118e+03,2.841854206153283940e+03,2.618574844545106771e+03,-1.552423231795031222e-01,-9.855901400052071715e-01,6.717065593208774998e-02
1.463180052049022152e+03,1.529097833028482455e+03,1.560587155722357238e+03,2.929911200992806400e-02,-8.237555612630974577e-01,5.661875460689231865e-01
1.114521648611452292e+03,1.684886837363830182e+03,1.977045096535656285e+03,3.053742378489287534e-01,-9.495417522575950731e-01,-7.153345775063613132e-02
1.919043082691655400e+03,2.189041151890068704e+03,1.700768231959026252e+03,-2.189834688247175309e-01,-8.564820333698326404e-01,4.674235412301896986e-01
1.241845542670587974e+03,1.221277614237720854e+03,2.354885062482786452e+03,6.112008072320144203e-01,7.460792606358858103e-01,-2.641955905914102343e-01
2.346136721145891897e+03,5.146688873930141881e+02,1.928030552394216329e+03,7.578245493731995408e-01,4.492836246697287095e-01,4.731238495055363202e-01
2.430930596763083031e+03,1.059884393335702043e+03,1.656538767781996285e+03,4.730072206759576847e-01,8.091618272582381532e-01,-3.485990626730299802e-01
4.135265607707885351e+02,2.377856720878459328e+03,2.369952209848419443e+03,4.361097727111580280e-01,2.047852873364102433e-01,8.762826326228119189e-01
2.998180330884228624e+03,1.393476013219880940e+02,2.772856729485285996e+02,7.360163445193633747e-01,-6.765518097731587632e-01,2.361332871531507741e-02
2.330085055723930509e+03,5.131485754490425961e+02,1.980123911861189072e+03,-8.974314426708653036e-02,6.668326129355783838e-01,-7.397840457745530340e-01
6.972311468099807144e+02,2.850968011391109485e+03,1.580192573578729707e+03,1.282239931332792848e-01,9.913992439955009450e-01,-2.619439997606574921e-02
2.901537245893019872e+02,4.692239560370383629e+02,1.339337052909516387e+03,2.365222147352827875e-01,-8.371242532016414106e-01,-4.932344540259845922e-01
1.435634321205869810e+03,2.921322415028499563e+03,2.837254568510146328e+03,-9.272574878301345080e-01,2.270919309928088881e-01,2.976958282222064156e-01
1.373582178804154637e+03,2.287926508448140794e+03,2.670904212361053396e+03,-6.647866134113330494e-01,5.443067962928161974e-01,-5.116530759592299304e-01
8.433925351485386273e+02,2.061391551007340240e+03,9.102558724194512934e+02,-1.221693786980355689e-01,-8.516011481711470710e-01,-5.097549679425595892e-01
1.938845897635803340e+03,7.599777961564644784e+02,2.770723733965632164e+03,7.044693134036730253e-01,6.517533874535998972e-01,-2.809635357396316202e-01
2.631367202446670490e+03,9.293879195279298528e+02,8.432645370640775582e+02,8.663263564965557606e-01,1.479242223361401654e-01,-4.770713452783039710e-01
1.664478135981229570e+03,6.802092989691705043e+02,5.443002608415501982e+02,-1.022094591206364061e-01,9.830990235206853445e-01,1.518865906488856832e-01
1.182081267416928938e+02,9.769573735880164804e+02,2.199913296144152355e+03,-1.821929109410254932e-01,-4.207537586826970433e-01,-8.886911824459711173e-01
5.123172144270250783e+02,7.919979103224796972e+02,2.862938764303465177e+03,7.420097472594600063e-02,-2.968556924335586933e-01,-9.520351428489979284e-01
2.996027580173870319e+03,1.970225315025728833e+03,1.498462511014004349e+03,-3.467920283832602313e-01,8.104793234107282585e-01,-4.720789715434401401e-01
1.427724734561408695e+03,1.122632958233352156e+03,9.616616022841954603e+00,-7.931568359416282799e-02,9.353447549038138575e-01,3.447306365989467603e-01
1.256638967505431992e+03,5.907677540524269943e+02,1.431348330918010788e+03,5.614063764634164011e-01,7.636404606139381990e-01,-3.188669430648922165e-01
2.906515984054742034e+02,1.840488664169999709e+02,9.428594340892781247e+02,8.497900249051469901e-01,-1.388869802069563619e-01,5.084951526816182676e-01
2.374584998267154333e+03,1.725409833371604236e+03,2.573969211431559643e+02,-2.966641220123845263e-02,2.677382357879636854e-01,-9.630348597450950621e-01
2.466264092355442301e+02,1.314294810981642513e+03,1.262941192428166460e+03,1.749934912258259423e-01,9.819455759322974764e-01,-7.183428106124133128e-02
1.034312494812251543e+03,1.322521898521018784e+03,2.501296389604416163e+03,-9.830206998880354208e-01,-1.499693511140214319e-01,-1.057331420041820597e-01
0.000000000000000000e+00,1.913901229607864479e+03,4.927589933574850534e+02,7.865541026388607471e-02,9.967138982007711645e-01,1.935798464826743448e-02
1.281504441252117772e+02,2.114255633492627112e+03,1.456094953996430377e+03,1.683356767398514961e-02,5.158124669825459724e-02,-9.985269180089334506e-01
1.767390441134325556e+02,1.657875024241980100e+03,2.741180514414047593e+03,6.637968495246034939e-01,-1.800062111644432361e-01,-7.259280312148255199e-01
9.948504699429662423e+02,2.094133714084520761e+03,2.754160955296806151e+03,-6.526265194342523168e-01,-7.224298533948285694e-01,2.284157022953108296e-01
2.306524506048417152e+03,1.287979759367327233e+03,2.766539145806676515e+03,-9.720241560294905492e-01,-2.308634966250106280e-01,4.325605184514991208e-02
2.709638373571575812e+03,2.062445047941288067e+03,2.492502678981957160e+03,-4.398801754442680650e-02,3.925700334628451360e-01,9.186695941085085693e-01
1.029410553712144747e+03,2.873380280929295168e+03,1.672723626698366843e+03,-3.062199772579137294e-02,9.908933592835187376e-01,-1.311207221727561656e-01
2.392773603100520177e+03,1.107382500363430751e+02,1.780010301066793375e+02,-3.479578344892868547e-01,2.431130715145858601e-01,-9.054398819779643226e-01
3.842443374306508872e+02,2.513668677216573855e+01,8.485588468119101435e+02,6.624312044293005908e-01,7.159298685646788840e-01,2.205205720455754026e-01
1.761392220399020061e+03,1.577809422259156236e+03,2.965193924591373161e+03,-2.423200084912579266e-01,-9.008876501812826953e-01,3.601145029509969508e-01
1.484098586900485657e+02,2.990416689500176744e+03,2.105542815693972898e+03,-1.915786656713192315e-01,2.922926364702984614e-01,9.369432370879459127e-01
2.059015176072445229e+03,1.008438179260799984e+03,3.528179439707477059e+02,-6.973938268193534684e-01,-7.534287984075924149e-02,7.127168447367850934e-01
1.579192254753937732e+03,1.120910632401789826e+03,1.252165622606671391e+01,-3.451876907941118788e-01,1.219554496749812589e-01,-9.305763409945482234e-01
4.439835970949774833e+02,2.812129261678261173e+03,1.528354590277378747e+03,7.467159739516011810e-05,-4.901289553759007878e-01,-8.716499306064797725e-01
2.046329687314791727e+03,1.015156057893174989e+03,4.039022718702382235e+02,-1.020537257028571870e-01,9.727281126161756442e-01,2.082907967154063178e-01
2.589218755932892577e+02,1.660860104909037318e+03,3.601330915590180552e+02,6.165448740845389519e-01,-7.264748675432131098e-01,-3.034908319342631833e-01
1.898461423999089675e+03,8.689809157904101085e+02,2.750966199680183308e+03,3.136368390036925469e-01,2.174870818234661638e-03,-9.495405221246200345e-01
2.765196383127600257e+03,2.522817127882813566e+03,6.300413318853436522e+02,2.070714456503351588e-03,-1.002784862934577026e-01,9.949572540206602644e-01
2.211521583798315532e+03,2.990041057840159283e+03,2.661486433180493805e+03,3.400319878604073365e-01,-9.442357589282902863e-02,9.356614962406601954e-01
8.390949744686538452e+02,1.412471597198147720e+03,1.204426131235984258e+03,5.549386391187476064e-02,2.988743079892697829e-01,-9.526775840188881350e-01
3.474802809483394981e+02,1.276535626991247682e+03,2.447611485959814672e+03,7.950208612245024398e-01,7.235648833259526735e-02,-6.022510845270645508e-01
2.456459841745430367e+03,3.376786503053546085e+02,1.425936951740613495e+03,3.785403639051796443e-01,8.236271059175925835e-01,4.223098190811399033e-01
1.651184460923726647e+03,2.357874150280442336e+03,2.532942611657376801e+03,5.596197293799120686e-04,-9.614591613598549857e-01,2.749472092292677972e-01
2.832809134069976153e+03,5.287522651837299463e+02,3.416009138566930119e+02,-9.443331328792847756e-01,2.522248190192351580e-01,-2.112287263066014997e-01
2.319210757214113073e+03,2.649956545754624585e+03,4.314354544089605952e+02,-2.554927449578893450e-02,3.692879218670057639e-01,-9.289637588926099587e-01
2.051734323885792946e+03,7.844661927709744305e+02,2.081158803548416472e+03,8.146543226604512355e-01,-8.307017992832556319e-02,5.739666190444503435e-01
1.511813349315095593e+03,4.939822876891669807e+02,2.898893473771574008e+03,-2.154055417568647574e-02,-9.940902348384943465e-01,1.063983530161616564e-01
1.515059663679888331e+02,1.861226370847591340e+02,1.172628308847432208e+03,-5.779379452098275943e-02,-9.627318374402470402e-01,2.642106858054613650e-01
2.483320831994721630e+03,7.508429294227379387e+02,1.502489244610304922e+03,-3.393902593225130992e-01,9.405264713763015205e-01,-1.497359400546338648e-02
2.893759091335439734e+03,4.370700221574638249e+02,1.585432849550357787e+03,2.645135207942811983e-01,4.616176862922297119e-01,-8.467241044278956963e-01
1.842272419854771215e+02,2.201169905534242389e+03,8.280857205360814532e+02,3.047763071898700882e-01,5.247771755750670064e-02,9.509771247173406383e-01
2.227179616577697288e+03,2.537930913432411671e+03,2.418709489758215113e+03,2.595613240917095388e-02,8.270809282914247662e-01,-5.614832297112289927e-01
9.347346860608915904e+02,1.998304171272816347e+03,9.862245967716273753e+02,-2.924688468529405318e-03,6.124036311632704566e-01,7.905398400684200411e-01
1.441611633538860588e+03,1.535592446834256407e+03,1.565230847660663585e+03,2.511383944345931332e-02,-3.647101124197104638e-01,9.307823746543605337e-01
2.623987166066781811e+03,1.565498258720477907e+03,2.399531336014047156e+03,7.231455620134122908e-01,-6.906861699284992939e-01,-3.620885224141279224e-03
2.755626314116327649e+03,2.578491643422283232e+03,5.742741736290905692e+02,-3.889898648867072626e-03,-4.935182042590119944e-01,8.697267678722219175e-01
2.509144919593405575e+03,2.963421732058292491e+03,1.195555153687513211e+03,1.047642221021741621e-01,-2.981284246818958206e-01,-9.487591370648387201e-01
1.003922052934420321e+03,2.595038725407868242e+03,5.864729500031685347e+02,2.613729934093030893e-01,1.603655205308211207e-01,-9.518230182870863754e-01
3.187683136352315039e+00,1.041772329247091449e+02,1.838201462204165182e+03,9.990043409654796036e-02,-9.736970107998299540e-01,2.047780125570060061e-01
2.157146196697672622e+03,1.730815922184396641e+03,2.953694752621262523e+03,-1.829019955200774858e-02,9.951751923461732430e-01,-9.639400987149088218e-02
1.098603527876599628e+03,1.694583593882910463e+03,2.875837157708620452e+03,1.280999198245471038e-01,1.804825638509579000e-01,-9.752007253313185187e-01
2.535164807456971630e+03,8.690518278763421449e+02,2.686358501532349237e+03,-9.477051494642077523e-02,1.943600733067030184e-01,9.763414932291893944e-01
2.915339449891786785e+02,1.967962091959959139e+02,9.987287518760296052e+02,-9.069109341793407664e-01,1.110108612698468694e-01,-4.064346763578158273e-01
2.377502166991637750e+03,2.680411662431694367e+03,4.436750515610110597e+02,2.430182809441541920e-03,6.096025146935858396e-01,-7.927035185305848497e-01
1.354670538565489778e+03,2.021096843202700029e+03,1.037690273810951339e+03,6.706781255103351491e-02,9.849171245907047956e-01,-1.594997373276754171e-01
2.097630998914473366e+03,1.639021209105161233e+03,1.028328702922991852e+03,-2.342875243614223751e-02,4.249479610845188771e-01,-9.049145395723269258e-01
6.800875602717844686e+02,3.089804291750016887e+02,2.728278528372316487e+03,2.089839461698755618e-01,-2.388331209767328434e-01,-9.483060953973563301e-01
1.277910742560431459e+02,1.272079379100309097e+03,1.265408848632905119e+03,1.385537413971791587e-01,9.859277518218096947e-01,-9.353784759355746048e-02
4.801066638869720009e+02,1.309106981836561545e+03,1.904749652047591326e+03,-1.188931178052916193e-04,2.864414829246729188e-01,-9.580977313011136420e-01
1.831642213048419535e+03,2.280226489393674001e+03,5.271964195380562934e+00,-8.679699519864731982e-01,3.462262573654749653e-01,-3.560274443905911412e-01
1.654211374978818185e+03,9.548213367004435668e+02,2.938453690152486161e+03,-5.414658946245544113e-01,-8.314486439932177175e-01,1.245304675983782833e-01
1.972913591121258605e+03,3.364959074244324597e+02,5.093281365564369594e+02,-2.708616360171321458e-01,-3.030589350650694236e-01,-9.136680228679061599e-01
2.689263245711465970e+03,7.625997047344302473e+02,9.535255333962663826e+02,2.433330733675908783e-02,-9.323181276442376042e-01,-3.608196211682476728e-01
2.798389570562252629e+03,2.369837558003995639e+02,1.583628610587958292e+03,-1.715335209837564601e-01,6.969029041903276878e-02,-9.827102902688187314e-01
2.173010281055120231e+03,1.715559378107556540e+03,1.336425201367020463e+03,-4.749242053818460985e-01,8.192969807892488410e-01,3.212467220253670264e-01
1.921650022912570535e+02,1.000879837587201223e+03,0.000000000000000000e+00,-5.771324356604359525e-04,2.633611286567599796e-01,9.646971456528671274e-01
2.655950170692095980e+03,1.917144433135390727e+03,1.432559070307765978e+03,-7.884921580282686637e-01,-5.996152845993322211e-01,1.369000628297358801e-01
2.614634166424536375e+02,1.306985819319809252e+03,9.897133558954868704e+02,1.397132147810425766e-02,-9.917025464926020328e-01,-1.277922589840398970e-01
2.650380895293580465e+02,1.482968330616959292e+03,1.426307596725323947e+03,3.640200906459680752e-01,-8.516654646218173585e-01,3.770348922534958458e-01
2.952402930548668337e+03,1.791376952788732751e+03,1.708849074813880179e+03,-2.107796661366152513e-01,5.740992435658806015e-01,7.911902368459944324e-01
2.709399200028190535e+03,1.854305914837100090e+03,2.807333135450552618e+03,-2.213709573627495666e-02,-9.104079919366462326e-01,-4.131189141279378862e-01
1.745000506496947764e+03,5.591672982006682560e+02,1.347791271536249269e+03,-9.757376957114549665e-01,-5.548170417838602791e-02,2.117964345053104935e-01
3.673440740939340117e+02,2.535992606144541242e+03,1.848291014530066377e+03,7.619541728072689590e-01,1.590492813777810988e-01,6.277970728147767021e-01
4.411884483389198977e+02,1.525066911974303594e+03,4.068125981736765766e+02,2.110554203766873693e-01,-5.536316593081074267e-01,-8.055728367698178349e-01
9.638274947742000904e+02,2.159607231378104188e+03,6.065147719614984680e+02,-1.882001257654155463e-02,-9.895293186921788609e-01,-1.430997364610129552e-01
2.752882434212346652e+03,2.944625096122419109e+03,1.826350140106845174e+03,-9.255419165502917767e-02,9.156793083235765796e-01,3.911075631014321319e-01
2.422087932173767967e+03,2.478728411046291967e+03,2.185430452976232118e+03,4.249824760441221413e-03,-3.166901171239319135e-01,9.485195352260994417e-01
1.557895893131899811e+03,3.445093490393730917e+02,1.723581137859048567e+03,3.744904954052278440e-02,9.987580521693593116e-01,-3.286216540915745665e-02
1.013187968801218062e+03,2.603208348288403158e+03,3.151188258274495269e+01,-8.850545441107899869e-01,2.880282341623333769e-02,-4.645953629903067927e-01
1.316139013151824599e+02,1.108890132145289726e+03,1.652321423415597792e+03,-3.811029010676660889e-01,-2.939636542994882307e-01,8.765534488830100113e-01
2.524229680432817531e+03,2.349671164508999027e+03,2.115721170710183287e+03,-1.863924439358718710e-01,9.806389649660133268e-01,6.004229537583598980e-02
1.468100563344919465e+02,2.512649975708628062e+03,2.120479669274948719e+03,-7.596184964749973234e-02,6.201961220321953183e-01,7.807602497658017171e-01
1.640871406297025032e+03,8.978952628385616208e+02,5.212301795056973788e+02,6.155647130995550720e-01,-8.170395868989853427e-02,7.838396182390003908e-01
2.196075154955563448e+03,2.373465297034173091e+03,1.651718343936019551e+02,-6.649413026506948432e-01,-7.389169236396075924e-01,-1.088799521866876674e-01
9.252963045760222940e+02,4.302777917448335074e+02,3.587608861010244823e+02,-4.295359883127958800e-01,-2.150209936550769307e-01,-8.770774236244672784e-01
6.960104754376122855e+02,1.297398422172746905e+03,2.683875395590678636e+03,-2.426705933455108322e-01,8.890892402708735487e-01,3.881124913731826553e-01
2.727446697645320455e+03,4.262804792094196955e+02,2.088130941992358657e+03,4.215610909925018857e-01,7.194011755107840855e-01,5.520400304641988054e-01
1.423478198515226950e+03,1.534442177101999732e+03,1.532156294244428182e+03,2.095736147844314279e-01,-9.237110638433472243e-01,-3.206817277606854866e-01
2.807356694283856086e+03,2.490751481388844240e+03,5.518827001268100503e+02,-7.502177348162376858e-02,-9.676409883135641543e-01,-2.409204251183797718e-01
5.117803480944027115e+02,2.018209821432064700e+03,3.966869447186958553e+01,1.379680931243106382e-03,9.913101317170038840e-01,1.315382804956204132e-01
1.220457585133489374e+03,2.336561710779718624e+02,1.623024364487798721e+03,-5.160251962445140395e-01,-3.387933374394564434e-01,7.867255374954122971e-01
2.130985031999763578e+03,1.959957964613532226e+02,1.276215201638755161e+03,3.049362064895326241e-01,1.108759078468336684e-01,9.458966344325967501e-01
1.207115027976535202e+03,1.625267308232698724e+03,7.939464626312308155e+02,-1.115125208922965322e-01,1.667777482643724718e-01,9.796683828562146035e-01
2.933116497731720756e+03,3.847416871465266581e+02,1.813877677711619299e+03,-7.524878323390509216e-01,4.095858349364017714e-01,5.157533383325085818e-01
1.119696317271925409e+03,2.080482152668672825e+03,1.462685704362055503e+03,8.978012560868348785e-03,-5.724979968512677875e-01,8.198569624585392290e-01
2.219981526587055214e+03,2.832409794360633441e+03,2.666165231004169982e+03,2.132294957462448348e-01,9.747410271100347412e-01,-6.643125930069883334e-02
2.261056565677103663e+03,2.657946179916844358e+03,9.230433131416172046e+02,6.841817963436764849e-01,-7.196775127527534899e-01,-1.181505276752934375e-01
1.047401836316469428e+02,3.356880513007965874e+02,6.598370619058569275e+01,-7.497905536406558324e-01,-1.103537633091367515e-01,6.524079801740241269e-01
7.790119966196838277e+02,6.127415258003177314e+02,1.314112797007393056e+03,-3.839331890569645522e-01,3.347589647116873679e-01,8.605415398954942008e-01
3.565441990213651593e+02,2.501479243759931251e+03,1.806385544473411528e+03,2.498689907181501565e-02,9.740690953755327675e-01,-2.248667434483503091e-01
1.510168165505860998e+03,3.072841944103271885e+02,1.730921376687512065e+03,-7.105093025505967441e-01,-6.881436493513525265e-01,1.470878949691899751e-01
2.681873992166050513e+01,2.855554598072475073e+03,2.287107118652975259e+03,9.304245189448019371e-01,2.749918009088363480e-01,-2.422596210251488635e-01
2.545942673775306503e+03,1.933504821360929782e+03,2.973972186831173985e+03,5.077652208154952440e-01,-6.952850610939938225e-02,8.586851968960373949e-01
1.224796129862073940e+03,2.619223868819669406e+03,2.430831711197701850e+02,7.118968271765327427e-02,-1.615355885983610629e-01,9.842958308815195068e-01
2.778001349321678390e+03,1.101661576819975608e+02,1.260227785755812874e+03,7.284926890811994626e-01,5.283308555361311276e-01,-4.360790169725006216e-01
1.952218452812568103e+03,2.193867471018267679e+03,1.742633212124584816e+03,-7.538543419512681865e-02,7.483268211964536620e-01,6.590326281673943853e-01
2.614357268492134153e+03,5.476525410163642391e+02,2.975012331566560078e+03,7.331289818473571973e-01,2.496845139984828488e-01,6.325974545038881569e-01
2.807865343176546958e+03,2.513783409750769806e+03,5.026721676884924364e+02,-3.596953671721717094e-01,-9.054281696957189318e-01,-2.254308593700890817e-01
1.109662499630390357e+03,8.063384445840694070e+01,8.544031963321990588e+02,-6.553893192584482330e-01,7.481190042262735318e-01,-1.038402413201977570e-01
7.667191362186665060e+01,3.925827684986808777e+02,1.791161752177280960e+03,-1.576721667055537845e-01,-7.130945721816961402e-01,-6.831073260999180885e-01
2.645963749770009144e+03,3.542124981701524575e+02,1.008633919096521367e+03,3.153432766410328714e-02,-8.545332624857658876e-01,5.184385108035534095e-01
2.901053255289637605e+02,1.441561573698717893e+03,1.463321661720421162e+03,-1.127781352208169080e-01,6.487477615241987738e-01,7.526004478695561550e-01
1.150349116112025058e+03,2.962166577863997190e+03,2.274387027942481836e+03,-1.212613648899677800e-02,-3.206932221049674792e-01,-9.471054925982556050e-01
1.623018247967638445e+03,2.447282707332208702e+03,2.522459127000902299e+03,1.539033344681142446e-01,6.061346161136628163e-01,-7.803297961684778628e-01
