x,y,z,nx,ny,nz
2.754785892111185149e+03,2.423232878525461729e+03,1.932580214080682481e+03,9.137049805553532078e-01,2.274651228522278634e-01,3.367533613702505257e-01
4.083705901967106229e+02,8.195354209400170475e+02,1.670326321244953078e+03,-9.828977787239624453e-01,-9.167699356714550940e-02,-1.597100041637655732e-01
2.157514411871868106e+03,1.984086375342647671e+03,4.491318150545929484e+02,-1.966556588334954225e-01,-1.436556858695369754e-01,9.698915381454344953e-01
5.968019656439016671e+02,8.310806498571685097e+02,1.724186242186583058e+03,6.398685153871596087e-01,7.097267059036598269e-01,-2.947139052426480110e-01
7.011558024736256129e+02,5.732178520853744885e+02,2.088007202371842595e+03,-7.316868330795055220e-02,-7.909013929296018208e-01,6.075535617910544639e-01
2.129041442385839673e+03,1.696682874527406739e+03,4.815237737673193692e+02,-9.425852553720206473e-01,-4.693585630291814692e-02,3.306509666527142066e-01
2.791013410901868156e+03,4.208212179001591124e+01,1.622644216209408114e+03,-4.357770514049843502e-01,-4.816942028913349105e-01,-7.603085270925606931e-01
2.332588668267694175e+03,2.419129477404750105e+03,1.515038085847070761e+03,5.677441340830702288e-01,7.963662532556311513e-01,-2.084883423356151955e-01
1.674608580221049124e+03,1.108940006684538048e+03,9.461676807797606443e+02,5.265836336658880068e-01,7.214987719394773125e-01,4.496100519840009468e-01
2.768648471467869967e+03,3.574338472387110528e+02,1.190934466418073953e+03,-1.329877598809986738e-01,-9.371006066365827891e-01,-3.227331850975082017e-01
5.464568317098129455e+02,1.231015974172353708e+03,7.897084411348531603e+02,-1.588005582030460328e-01,6.915983000984998741e-01,-7.046092349772791197e-01
2.877931766097978652e+03,1.795045455789814014e+03,4.116015588856358676e+01,3.598934327149896362e-01,-2.516420245442066994e-01,-8.984169458396886743e-01
9.642161014962960053e+02,3.136953755447352705e+02,1.626950854235601810e+03,-1.864347045869471642e-01,-9.478449049713955077e-01,2.585191231714664140e-01
1.702763467721674488e+03,1.061081267318428445e+03,2.932915463192739480e+03,6.442012224755920835e-01,6.999392246035477383e-01,-3.083664489245503959e-01
1.057310922705285293e+03,2.308615958779796983e+03,1.686456420281005876e+03,9.725904358526046289e-01,-2.290305281288310402e-01,4.016044413436432176e-02
9.751707726613905152e+02,1.608790365927551875e+03,1.538415100286850020e+03,7.567769654727558581e-01,-3.233828565320381321e-01,-5.680775938470259412e-01
2.131795588168614813e+03,2.964731462929589270e+03,2.404502429973793767e+02,-6.696840542356466974e-01,-6.332026801146365402e-01,-3.880433395874083313e-01
5.647965365130525015e+02,3.034666420799584330e+02,9.078119591246718301e+02,6.202665577189580420e-03,9.018461759020105495e-01,-4.320127335515209221e-01
1.560613325303194870e+03,4.506273339348908280e+02,1.853301929673616314e+03,-5.709103013136586080e-01,1.297025063518093269e-01,-8.107025889313579370e-01
2.823095243570009188e+03,6.990131109406250971e+02,9.255864885855366992e+02,-8.678640668290724669e-01,9.922381106302171141e-03,-4.967026352457619698e-01
2.396244745052843427e+03,9.633361298837880895e+02,1.026898521762735982e+03,3.168041756493918115e-02,-8.623884920428784850e-01,5.052548267309489027e-01
2.784473287248806628e+03,2.789770426264375601e+03,1.369265533564322141e+03,1.606973580819817393e-01,-9.499781597543266454e-01,2.678018952420882504e-01
5.065616574302063668e+01,2.302284144465540976e+03,8.740590068367939693e+02,1.370328463804477148e-01,4.497935380027095476e-01,8.825575177765343504e-01
3.550831009648909458e+02,3.275696598184507735e+01,9.824382730607773055e+02,5.519266135530963568e-01,4.464448586398165886e-01,-7.043181109739300449e-01
1.923430331311652026e+03,2.386928476153317206e+03,2.093284236976780903e+03,5.303214673058694387e-03,-9.979494124550306600e-01,6.378750735677521377e-02
2.340919888033928146e+03,1.096469017993048283e+03,2.546917433576526491e+03,-4.369271010802876221e-02,-9.928039903683926193e-01,1.114952186957467450e-01
1.773771083520035745e+03,1.507670719691966269e+03,8.138617783831994075e+02,-4.403921803430679294e-01,3.005989382601782500e-01,-8.459875919950199386e-01
2.850387298586384077e+03,2.186794565126793714e+03,7.730757672540142948e+02,9.535548266350065694e-01,1.081619196537473432e-01,-2.811302042433344028e-01
1.366894066154653501e+03,1.353806054552745991e+03,6.583460674494555178e+02,2.260864815607512290e-01,2.431040028341095033e-02,9.738038340926474801e-01
2.123097618065884944e+03,1.256283136012114483e+03,6.495669120230187445e+02,-2.407251357445776008e-01,-8.806590782677693463e-01,-4.080330830769944850e-01
1.466332414456523793e+03,1.388753781575146377e+03,7.455256278417463136e+02,9.290480507279881344e-04,9.984561444919730633e-01,-5.553795455311284768e-02
1.111893215777146679e+03,1.985352314531467925e+02,2.522672742997355272e+03,2.851313921945551003e-03,-8.817306590459790261e-01,-4.717445441202918754e-01
2.403397644937308996e+03,9.480344715249960927e+02,9.729446596208620122e+02,3.453486226455352269e-03,4.084869832914230225e-01,9.127576118085000134e-01
2.278101723589453741e+03,1.328579238900903192e+02,2.171791436952610638e+03,3.261613020354532932e-01,8.923032473783270024e-01,3.121117104061139624e-01
3.631709826629901983e+01,2.355802763916431104e+03,8.490725678997770274e+02,1.281743355328729926e-02,9.291280374138853881e-01,-3.695359299019904675e-01
1.596157173263396999e+03,7.361379184210602489e+02,2.825004454618372165e+03,3.389611801904242605e-01,-9.406703179509037227e-01,1.564197078569607227e-02
2.525221657788354605e+03,8.256664074276099541e+01,2.403784532508696429e+03,7.077374944192865724e-01,3.189300905781067841e-01,-6.303897495335333279e-01
2.151212978235037554e+03,1.931215453905914728e+03,5.135459696205216460e+02,2.840465850232265152e-04,4.517443651887609879e-01,-8.921473801103385615e-01
0.000000000000000000e+00,2.336429543966799429e+03,8.098480588955096664e+02,2.402006569671626957e-01,9.020002922715474325e-01,-3.587465918090183559e-01
2.924140421275681092e+03,1.141500142060739790e+03,4.839716791773639670e+02,8.661554661616379658e-01,-1.448899081370568463e-02,-4.995645879999062178e-01
1.984496412205369325e+03,1.143424030927286822e+03,2.226902610660203663e+03,-9.909752565974999650e-01,-1.221273636463615364e-01,-5.525348731354951665e-02
5.679517580755748440e+02,5.983062125026899594e+02,2.261331062440955975e+03,-9.292879497963645319e-01,9.753708756894308163e-02,-3.562448917694649442e-01
2.780414938258359598e+03,2.612257825721061181e+03,1.007617120264844857e+03,5.201032832606122813e-02,-9.834539482437451019e-01,-1.735317188043863368e-01
2.580294181004559505e+03,8.865506226112345303e+02,5.191653324763656485e+01,2.570244410986830541e-01,1.604168075303076257e-01,-9.529978407843817667e-01
2.207014257899767472e+03,8.391817699289427992e+02,1.899909830720722084e+03,4.116520775667691368e-01,4.927049434055969651e-02,-9.100082337113217790e-01
6.652873156938280772e+02,6.022877958173592106e+02,2.127302885236634665e+03,-9.589182323610064007e-03,5.002799618805998660e-01,8.658106070747285665e-01
1.702452355528452586e+02,1.400253804372978948e+03,1.691598461336720902e+03,5.089140795892942853e-02,9.932155413075040018e-01,1.045607627229248604e-01
2.427223019313026271e+03,2.572278771177995623e+03,2.237381399129824786e+03,-7.226235481547943484e-01,-4.253054696106509658e-01,5.449132638975118237e-01
2.527605707439803155e+03,1.231824003925329635e+03,1.031333175918471397e+03,2.685419129705342578e-01,9.023736259134315096e-01,-3.370564941281689042e-01
2.979281801640625872e+03,1.586500260846421043e+03,2.528801764642535545e+03,4.014210371453672543e-01,-5.519422049660475116e-01,7.309042025562277889e-01
1.611629666605422244e+02,1.436090274439954101e+03,1.655185042629397913e+03,5.031960293204079671e-01,-2.580090810529159229e-02,8.637870508505655076e-01
2.990830015944654861e+03,4.618862889914630045e+02,2.461640400161130401e+03,1.784524071441675463e-01,-8.060135847010680976e-01,-5.643552424331560458e-01
1.723432871221068581e+03,2.737190262682426237e+03,1.882124350268047465e+03,-6.892548811699693578e-01,7.202794222538464464e-01,7.826405727431164083e-02
1.248936986149056793e+03,2.796536388801809153e+03,5.936376847896420941e+02,-2.974619470082598416e-01,5.230765285732179581e-01,7.986910136829177276e-01
2.197609091579499818e+03,4.994502649997504022e+02,1.867962654078838796e+03,5.406166492271867741e-01,-5.573653104025316773e-01,6.301408964178236705e-01
3.397954046839146258e+02,1.558640334115028452e+02,1.540656805012886252e+03,-1.086128687533901129e-03,-1.314010559337246697e-01,9.913286956524441917e-01
9.575057724976377358e+02,1.152340529256967329e+03,1.553986295999238791e+03,-1.003006463949460483e-02,-6.014866795504659747e-01,7.988198621258003618e-01
2.834197748279427287e+03,7.264904578818186565e+02,1.111437018807348295e+03,-4.323716755148099833e-01,8.260730769394770689e-01,-3.614664656206170168e-01
2.043773941280787312e+03,1.942651785476485884e+03,1.641041686185946674e+03,4.569493671806305057e-01,6.030028736770249864e-01,6.538996942731135631e-01
1.275029677297566479e+02,1.681274243480831501e+03,7.894401666942274005e+02,1.792401609074657787e-01,6.642281666068765578e-01,-7.257230238899227137e-01
1.122928401765415856e+03,9.698322586362789934e+02,2.385708233536229727e+03,-5.700785667435429582e-01,-1.084415822484743469e-01,-8.144021432800108151e-01
1.378419846039328831e+03,2.252510643749117207e+03,7.121707981901276980e+02,-5.753140996022372555e-02,8.545697802906626617e-01,-5.161401238829986804e-01
5.674773191605435159e+02,4.677788754016222583e+02,2.004283006367530788e+03,-2.133440914452895687e-01,8.227980162772774442e-02,-9.735062058813419572e-01
1.063033867672412953e+03,2.074922802113890157e+03,1.263515503947123477e+02,6.311135861618559773e-01,1.250357733819851547e-01,7.655466652900333457e-01
1.172365021892509958e+03,9.806472297593405756e+02,2.413086390223623766e+03,2.703949447359539904e-01,-6.105503973597472545e-01,-7.443888675585463854e-01
2.237183999202252380e+03,2.471995233479914020e+02,2.226908259200597058e+03,6.706876891451967436e-03,-6.863682921058329445e-01,-7.272232019085232979e-01
7.625463444947191647e+02,8.670160313783092931e+00,2.332934009066320414e+03,6.100309842526878690e-01,-5.943297908482852998e-01,5.240556248738585943e-01
8.992327075648380230e+01,2.373875059555491134e+03,8.836678034335243410e+02,2.069481755226822706e-01,3.828445721217557662e-01,9.003346523625217479e-01
2.055609721685068962e+03,3.050215411792014493e+02,2.663953266216385600e+03,2.878029156024249913e-01,7.569393928027222385e-02,-9.546936206589934359e-01
3.276315827111852172e+02,1.708836714261793077e+03,5.174973067385524246e+02,9.904462653104905145e-01,-1.090916646766788983e-01,-8.435166999279064548e-02
2.295388897338055358e+03,1.154218233449362572e+02,2.106183067087995369e+03,6.690656611001757903e-02,2.084143661222201682e-01,-9.757494367947332492e-01
1.776638347318292290e+03,1.015636247732643824e+03,2.103842945981409230e+03,6.167354300265832645e-01,-5.712380293183391168e-03,-7.871497812114995885e-01
1.715995875012509373e+02,2.429081515019137441e+03,2.749557685079050771e+03,1.827120445381353875e-01,-2.911622957683933088e-01,-9.390638031058236024e-01
2.309609875460709191e+03,2.638936224561240579e+03,2.898311388757555051e+03,1.145713558562103974e-02,1.012919223733384499e-01,9.947907722260427299e-01
1.839867409203523721e+03,2.332266737987899887e+03,1.098624192958694266e+03,-5.817327494787497555e-01,5.822974395251724333e-01,5.679055380134292452e-01
1.286079885622291158e+03,2.296804078083675449e+03,2.231601763329632831e+03,-6.079563819677266112e-01,6.889967441276860782e-01,-3.945535758375022795e-01
1.189780619500211515e+03,1.540955859922069976e+03,1.825517401538491868e+03,6.898009519111035770e-01,1.333720920743982075e-01,7.116084118377421497e-01
2.891282414345240795e+03,7.324378333731190196e+02,2.071844048003308671e+03,3.589677856943725154e-02,-3.735589171409502418e-01,9.269116229246547878e-01
9.578530815011956747e+02,2.007041649219393548e+03,1.805004747820423745e+03,3.745609698050141878e-01,9.032608994570180405e-01,-2.093414135111020258e-01
2.019020128288434762e+03,1.136372179720022586e+03,2.205923029176692580e+03,-7.443342510998050832e-02,-9.728724339669182486e-01,-2.190408465416468775e-01
2.404847097029245617e+02,1.652757499159420831e+03,1.074679731505614882e+03,2.961888992770320833e-02,1.169641994444438476e-01,9.926943625344968325e-01
1.025548348186626299e+03,5.475654161309551000e+02,1.649603935022837049e+03,2.132277451692467414e-03,-1.586950795867671238e-01,9.873253390386670381e-01
2.022706829719259531e+03,1.924533360609698320e+03,5.300369922930347002e+02,5.018068263140069291e-02,-4.937745134882082221e-01,8.681409038399987566e-01
9.092795027250319890e+02,1.111469080002546889e+03,1.564146827344063922e+03,2.545342032482149700e-02,-6.520211963033140101e-01,7.577733717708502459e-01
2.606056493732759009e+03,1.700039671859023201e+03,2.686335771051372376e+03,3.156379661630847044e-01,-4.613528307509818793e-01,-8.291720206775474722e-01
1.178383250261744479e+03,2.308830865833042935e+03,7.715390577259590827e+02,9.947379701926718776e-02,-9.247913858874604598e-01,3.672408695868691897e-01
2.382157916095084715e+01,2.349476303262515557e+03,7.534752293383085089e+02,1.142763929135165446e-02,-8.185955484452490660e-01,-5.742566822648639269e-01
2.840700674347155200e+03,2.658037253727503412e+03,1.158505833514614778e+03,2.192051876535834054e-01,9.298628340648095181e-01,2.954728338286243261e-01
9.399838903663858218e+02,2.150395798144102173e+03,9.618443507680874518e+02,-1.092603425303788518e-02,-5.192339594929833851e-02,9.985912991452478016e-01
8.986836715552107080e+02,5.879295229177806732e+02,1.447606591436576991e+03,7.038567293326259815e-06,-9.456426931506330957e-01,3.252074673824020268e-01
2.967603294390354677e+03,1.972567341533839226e+03,1.276057447729095884e+02,8.460805537819885425e-01,3.351553546942910404e-03,5.330445230942586488e-01
7.180638545280653489e+02,1.859658340467136895e+03,2.193284488521588571e+02,-2.764935408576178477e-01,6.422479924431921949e-01,7.148907875100267706e-01
2.319903639806067986e+03,1.759225681182259223e+03,1.731221501758585191e+03,3.516803841791321106e-01,-7.291062862748877160e-01,5.871328049922432957e-01
5.843740189239963456e+02,2.438155796337817264e+03,2.191856485409411107e+03,2.595335705267719489e-03,8.704888099347949382e-01,4.921813649569448668e-01
1.099407289099443233e+03,2.285920159250179040e+03,1.679798852253512450e+03,8.472542113467868008e-01,-5.300342904398591681e-01,3.498502984205179717e-02
2.908211786169689276e+03,2.445906850475313149e+03,1.868296784741146212e+03,5.307893150283593542e-01,-7.457969597710275567e-01,-4.025538446568575068e-01
2.680340704721462771e+03,1.001414758976657822e+03,9.267490644666753496e+02,4.028802766371222810e-01,7.972590925689302388e-01,-4.495168762270909113e-01
1.912478599301164422e+03,2.323541734869311313e+03,2.095024366162965180e+03,-1.734327569419976192e-02,-9.016079136560382068e-01,4.322064099721347752e-01
2.017746870244029196e+03,2.727363909207560937e+03,1.051931110958990985e+03,5.507003057897337239e-01,-5.747061845980703243e-01,-6.053445090093925174e-01
2.147914311089229614e+03,1.980439409913307600e+03,5.910929793893110400e+02,-5.465660867665118362e-03,-5.012341439859573367e-01,8.652944351224873820e-01
1.860159522007320675e+03,2.474898622605393030e+03,2.285604239061847693e+03,-8.742357111193030939e-01,-8.001107277081601077e-02,-4.788633935036060163e-01
2.107956206858641053e+03,2.829988109713311246e+02,2.675777179191377400e+03,-2.384377071637992229e-01,-1.453231688538992802e-02,-9.710490572408857490e-01
1.669070669555095265e+03,2.554957626595732563e+03,2.897715390278535324e+03,-6.645252069664249472e-02,7.038232681317112549e-01,7.072601146179950948e-01
1.754747421135147306e+03,2.522490477997799189e+03,9.560861568086040734e+02,-3.830425077095427414e-03,9.609261252335521419e-01,2.767784487407943250e-01
1.239593677551657947e+03,1.722659754176311026e+03,2.489113786993199938e+03,2.355468453053494171e-02,-2.830648470707076148e-01,9.588114878272495645e-01
1.941278501077229748e+03,2.359369577074447534e+03,2.012787421959252470e+03,-4.551055483772978999e-02,-2.815436818263056806e-01,-9.584685412792900427e-01
1.495430802026124411e+03,1.393567311853924139e+03,7.046976499438587780e+02,-2.638431009230312804e-02,9.847194490531772093e-01,-1.721379529254379037e-01
2.760139002406583586e+03,2.198692327671854400e+03,1.423847036844295872e+03,3.543832108584524243e-01,-7.230399380645327057e-01,-5.929804278602206491e-01
1.836747229905784934e+03,3.549861883277094989e+02,1.305270790322294715e+03,-1.623935618781149545e-02,-1.452345290945578904e-01,-9.892639763325496993e-01
7.900088854530682738e+02,5.480782031885145216e+02,2.736882438879881647e+03,1.002386212188026982e-01,-8.879929242587726312e-01,-4.487992705904357837e-01
2.222957995211590514e+03,8.922448764080429555e+02,1.883991502070715796e+03,-6.923518364857360607e-01,-1.863338579785289995e-01,6.970858109914919165e-01
6.181419902411097382e+02,2.101497812109131246e+03,1.589152060944024925e+03,7.431617668374254082e-01,3.013485920819825720e-02,-6.684328527021831112e-01
5.085954745171937930e+02,1.798762914516295041e+03,6.125993484110014151e+02,6.906639012714244075e-01,-7.220858987504026327e-01,3.969043091677737500e-02
1.533603437271008033e+03,1.729121604494941948e+03,5.896692274690127533e+02,-1.089945322775077996e-01,9.546330847172408429e-01,-2.771206695590432978e-01
2.080217041433014856e+03,7.075932214763741968e+02,2.584933027275343193e+03,4.036354610062331538e-01,-7.909751377023275243e-01,4.598225159287760433e-01
2.223658575234161162e+03,1.754943350904698946e+03,8.615318374513143453e+02,8.777691348439768948e-01,3.054640745395039159e-01,3.690705150523143629e-01
2.093552068305991725e+03,1.238413831926745161e+03,6.171119127667419662e+02,5.632847278096409643e-02,-2.026546124699136198e-01,9.776288719134851313e-01
3.665475689853903418e+02,9.806239765234322476e+02,2.749265526655001850e+03,5.205561507034449642e-01,4.876447708495700861e-01,7.008736486898923257e-01
1.082252251303670846e+03,7.319230243674918484e+02,1.330515091683183527e+03,-1.442437637060417222e-01,-9.834135615871802960e-01,-1.099613728467079277e-01
1.394952400744376064e+03,1.046258878603194717e+03,3.090722968081533963e+02,1.287637289591516132e-01,2.613719718741412657e-04,9.916752662990171441e-01
1.806763828877088827e+03,6.450000646593324518e+02,1.701825691246279348e+03,-4.005319601733663831e-02,6.451169586239384468e-02,9.971128233985133704e-01
2.144909863449423028e+03,2.022832948460500347e+03,2.576465530748493620e+03,2.787721945356272379e-01,9.129266839236210851e-01,2.980787368028980922e-01
2.365831217770693911e+03,1.096525912541062780e+03,1.508395389022436348e+03,4.247154706246580869e-01,8.014547697846476915e-01,-4.210546532239163309e-01
1.719120243139746890e+03,1.891724172795135019e+03,9.016910513854060127e+01,-4.353917544445469745e-01,8.997485112437109134e-01,2.977644499306819625e-02
1.486881610328181750e+03,6.539881575174842965e+02,1.394217476403141973e+03,-8.762832886207405636e-01,2.426199729656555726e-01,4.162489000612066281e-01
8.008811126600811576e+02,1.833590580235059633e+03,2.863505677252066562e+03,-9.645349461598783092e-02,5.011816092102037157e-01,8.599498345635251395e-01
2.538690123490981478e+03,1.257434960792901848e+03,1.103616871768764213e+03,-5.044890140010357266e-02,-4.639202291332149009e-01,-8.844393305074735867e-01
1.060420965705253366e+03,2.940767521068119095e+03,1.878539992195578407e+03,-1.263648581935244292e-02,-8.266278386048545590e-01,-5.626070881793117096e-01
5.135843709568687245e+02,2.434130433011350306e+03,2.862990431995877316e+03,-1.819776131425031307e-02,5.679467200197135801e-01,-8.228641228671952357e-01
2.798838181624944355e+02,1.664472412665245656e+03,1.029661221819415914e+03,9.386900567290904496e-01,-1.859509195810268856e-01,2.903157469117161882e-01
1.732570183749758371e+03,1.101897235461220589e+03,2.130432232090176058e+03,-2.918313007246012281e-01,9.790099181644514037e-02,-9.514462085261277124e-01
2.902137083643300457e+02,1.347621587428810699e+03,2.345482288000697281e+03,-6.328411411611971626e-01,4.794444438610788173e-01,-6.079844696244589564e-01
2.878906455209037176e+03,2.849640520161741279e+03,4.622108822733688385e+02,-6.334468196095993653e-01,-1.924440968837437538e-01,-7.494734126712462308e-01
1.107120921038186907e+02,2.324145364857230106e+03,1.603268441355002551e+03,7.983042827777320216e-02,-5.152977857626325209e-01,-8.532850020415895242e-01
2.443303207190701869e+03,9.393533487044717276e+02,1.029647297353386193e+03,-8.961032932233694570e-01,4.112796261339862758e-01,-1.668770715266798821e-01
3.000000000000000000e+03,2.972201502811499267e+03,1.624064152574844456e+03,-6.889961734569814700e-02,-4.862066542278670744e-01,-8.711233736470165301e-01
6.895081406625300815e+02,1.649364676609872276e+03,6.158932041253650596e+02,2.663788429207790132e-01,1.121341914405511453e-01,9.573234746699574860e-01
1.452967879412855837e+03,2.433824122278088907e+03,1.796611400368824150e+02,1.257256039679269799e-01,1.860644365709898315e-02,9.918905548301865105e-01
1.419468490517789974e+02,2.297332649710627720e+03,4.260331423005453644e+02,-9.708572088744233941e-01,1.844512580673635938e-01,1.530163826978376829e-01
1.187299840704264398e+03,1.457454801778285173e+03,2.308561010322915479e+02,5.026187259285843645e-01,8.557713720564819049e-01,1.225959832722631898e-01
2.223196897788359820e+03,1.704469460897207114e+02,2.272684687511137781e+03,1.124733736814640707e-02,-6.401065666754903738e-01,-7.682038015403483966e-01
1.218401942471904704e+03,1.678281652819403007e+02,2.418804786998523923e+03,-2.204269018012327760e-02,-9.951182374051583679e-01,-9.619674315315396296e-02
5.222751932190940352e+02,0.000000000000000000e+00,2.407773840732992539e+03,-2.846269876692374809e-05,-9.946010378781210415e-01,-1.037727066315574376e-01
2.335458666365231238e+03,5.376935755027443520e+02,9.579965980835748951e+02,1.309305419031892848e-01,-8.095934024457138722e-01,5.722025130260348647e-01
5.390701670641794863e+02,2.423903949853807717e+03,1.307145856474444372e+02,9.199928704113919942e-01,-9.507582570699950331e-02,-3.802284915131162180e-01
2.369496161929057507e+03,8.477560063453289558e+02,1.909459948591965713e+03,-3.698346894097975235e-01,4.095482790623474201e-01,-8.339619353581002592e-01
1.714906477856907827e+02,2.607865676601082214e+03,4.203216373057424562e+02,-3.657276930909013346e-02,-1.115031705651989835e-01,9.930908697087956760e-01
4.569786076910515362e+02,6.873880607398439224e+02,3.762338148346980802e+02,1.105386062263111618e-01,-5.074729413908303233e-01,-8.545480854168965301e-01
7.616976199413010136e+02,5.292766120160208629e+02,1.519775891383332009e+03,-4.457989484843046246e-01,5.966172566176582148e-02,8.931426403555865479e-01
1.658527109039597917e+03,2.305701032443856548e+03,6.303323019701836074e+02,-1.460714238616094007e-01,9.672099050821236776e-01,2.077694362558445973e-01
6.478602025490112055e+02,2.146260850579121779e+03,1.564632491085083302e+03,-5.345667996095064822e-01,-3.806204011313681079e-02,8.442686881897704110e-01
1.111173212284758165e+03,1.513545381058185058e+03,1.230718163442314108e+03,9.301279971562450566e-01,-2.073966317013496707e-01,-3.030652505072910508e-01
1.482530494885413418e+03,1.512017536458954964e+03,1.510350526253852422e+03,6.690650010469886277e-01,-2.000457065145198610e-01,-7.157749224994541803e-01
2.600052193411946973e+03,2.252247132010389123e+03,2.806429872735121080e+03,2.936667674737027944e-01,8.296899886606476926e-01,4.747360871029717710e-01
3.823878613549147190e+02,0.000000000000000000e+00,9.390813095643489987e+02,1.374906694959078246e-01,-7.067743358393746567e-01,-6.939498209527673600e-01
2.353398207324305247e+02,1.394185254024616825e+02,1.144081101068050430e+03,3.915590097377271150e-01,-4.006436222916398560e-01,-8.283515134351143727e-01
2.551247253714414001e+03,2.299471690604771538e+03,1.170846688736689657e+03,6.351634923031403979e-01,9.394914634747021653e-02,-7.666426129206882489e-01
7.123583803162377990e+02,2.707252577067373750e+03,1.801860081259241042e+03,1.130991564974261196e-03,-7.838808099530552020e-01,6.209102967783850513e-01
8.562672829688764295e+02,1.961037191122944023e+03,1.529384448669259882e+03,-3.238718082728211673e-03,9.853147820341284779e-01,-1.707169909827920551e-01
1.071140076013923590e+03,2.572830246265499454e+02,2.374130324534538886e+03,-4.326023973257833166e-01,4.272386428007049486e-01,-7.939284022667263407e-01
2.882427407775541724e+03,5.044398393096969357e+02,2.675882027969040792e+03,9.345677053064642692e-01,-1.327145944963186719e-01,-3.301061050721232903e-01
2.035081690476163203e+03,1.133345102074388251e+03,2.240677874025544497e+03,1.834284228871447056e-02,7.128881595248227621e-01,7.010378107820450788e-01
9.667352052058818117e+02,5.805721916752353309e+02,1.696214212363501701e+03,4.306975143936449535e-01,-1.040307190347000005e-02,9.024363840128052372e-01
7.548109468647714948e+02,2.383143611182703353e+03,1.551670460009761655e+03,-8.775911119710978481e-01,1.880184609789459782e-01,4.410021525122531649e-01
5.939567260445022612e+01,2.976880000970640140e+03,2.288999496898599318e+03,6.490923954934826323e-01,7.592457425062048015e-01,-4.716953040612526654e-02
2.987418163830412595e+03,5.631777838359018915e+02,1.512154583636719735e+03,9.231022368096147845e-01,1.535589348852288982e-01,-3.525647655594643659e-01
1.052120691990586238e+03,9.910864438996026138e+01,2.722314504711580867e+03,-9.225266327600372129e-01,-6.785338575193104738e-02,3.799217417974750099e-01
8.728853521015269052e+02,5.174347252350097506e+02,1.436547165460857286e+03,1.257064699915264559e-02,9.706833444730443849e-01,-2.400329635626069769e-01
2.388294650107755842e+03,1.064089991118575881e+03,9.364523964585456497e+02,-1.742943157397398987e-03,5.393142494699425527e-01,8.421027861655741020e-01
1.361587641302234715e+03,1.400309095917896229e+03,1.424198319162829875e+03,-7.821631520014001859e-01,-3.599773515286315839e-01,5.085637718493782877e-01
1.014805839179329610e+03,2.358010880774897032e+03,1.751775865802639828e+03,1.169020871954852721e-03,9.998946352827872142e-01,-1.446899177216012800e-02
5.609771378737277701e+02,1.766737813910382897e+02,1.191123517879897008e+03,-8.506812412189407313e-01,-2.008218397591985671e-01,4.858106776450401565e-01
1.157131777678782100e+03,2.599675685451055415e+03,2.377695144348684835e+02,-8.495289243368133736e-01,2.021383486554217679e-01,-4.872788675060677477e-01
1.204081553116114264e+03,1.503307370811823148e+03,2.533715925060909342e+02,1.877114891718172085e-01,4.511515393984857347e-01,-8.724830573319319882e-01
3.006578010233790792e+02,1.579162538176251473e+02,1.530345557588798783e+03,-5.909040843498786222e-01,-8.062943711776360267e-01,2.686540723480668191e-02
2.259823242690968982e+03,1.523907322260739363e+02,2.124159541673769127e+03,-6.176993783601579004e-03,-9.550374468293411079e-01,-2.964208493029645841e-01
1.827012725819668276e+03,1.091562903827420769e+03,2.099572368079841453e+03,5.802808460677389910e-03,-9.933293559957131480e-01,-1.151656108875842022e-01
2.234570488764496076e+03,1.441781973313823755e+03,8.700539987650588500e+02,6.503286049127142698e-01,-4.636775548264939761e-01,6.017273724722904671e-01
2.787714335656879484e+03,2.731904843974217783e+03,1.278121267765963239e+03,3.527343454342308782e-01,-9.017602552190181475e-01,-2.498137779595352992e-01
2.554871582964700792e+03,2.096344836757074518e+03,2.735618834592511121e+03,-8.248701607850950079e-01,3.068709843290235439e-01,4.747835473384769411e-01
5.744171293542514150e+02,1.403085282560014548e+03,2.277590388519712178e+03,-3.463640893502441531e-01,-7.585720377430162920e-01,-5.519061343770188532e-01
1.706909872992162946e+03,2.263387899249606562e+03,2.282684849505656985e+03,3.421204806304403712e-01,2.363620983020147392e-01,-9.094429807412145461e-01
5.964500153585133830e+02,2.681794885351595440e+03,2.449496619045579791e+03,4.289943785998355796e-01,-8.592754878526847051e-01,2.785847431308319244e-01
2.421793703860000278e+03,7.894506555251828104e+02,7.809230381673891088e+02,-6.590013324946092377e-01,1.984491809064043710e-01,-7.254896045898291401e-01
2.980240507034940038e+03,1.295451581953649566e+03,8.919098958736059330e+02,7.828093734534030679e-01,4.626720126502981145e-01,-4.161058681917535473e-01
8.912035471298826224e+02,2.693637581375884565e+03,5.112677570894448422e+02,-7.194550677887363577e-01,-1.653450796552713986e-01,-6.745705375028594464e-01
1.170056593676124749e+03,9.849186280077228730e+02,2.400521783772243452e+03,-6.781225480031412012e-01,-9.700580376110187752e-02,-7.285188288070461038e-01
5.804961571355331671e+02,4.246702633741340378e+02,2.030378935737110396e+03,-8.894107442368965888e-01,-9.567376559592165319e-02,4.469844053349809609e-01
1.608286334689572186e+03,2.494820470703299407e+02,1.822083872669648770e+02,-3.208502869764290333e-01,6.887563359724995227e-01,6.501306045748658224e-01
3.587740131184473285e+02,9.443306660372263650e+02,2.530867953511371525e+03,6.671482293881871861e-01,3.926048427932805618e-01,6.330676720852759232e-01
2.528206435452967980e+03,4.072342055553000932e+02,1.836348708199530847e+03,5.761934049429276450e-02,4.942766859523959333e-01,8.673929728357956392e-01
2.612765783201513386e+03,5.415457036352850082e+02,2.621705358656574390e+03,-9.571392551489970035e-01,-2.515236955932693141e-01,1.435976211778167144e-01
1.436119639653352124e+03,1.513623232920782357e+03,1.451804185335941611e+03,-3.973522157919565645e-01,5.340753577634688859e-02,9.161107202339249245e-01
8.542745321833796197e+02,1.125297670189997461e+03,1.868534579307930471e+03,-2.846173193929446565e-01,-9.280277401305579987e-01,-2.403278907029815781e-01
2.788459622773930278e+03,2.423702883620041121e+03,1.305640559190039539e+03,3.407483197841840172e-02,5.570432850906148481e-01,8.297841191304510255e-01
6.802017177154266392e+02,2.896033021275927695e+03,2.325535396123477767e+03,1.440032193028463470e-01,-8.231126275656099889e-01,5.493165527930627956e-01
2.009285009006115843e+03,1.103185333791492440e+03,2.189107495358731740e+03,-5.007917600143485526e-02,6.097902940582852205e-01,7.909790600283469475e-01
1.028413932037005679e+03,1.727478791644223747e+03,1.084289998936861593e+03,-3.851492541963035254e-01,8.370316043020008534e-01,-3.886362636085958222e-01
2.635461671689009108e+03,7.689872175847480094e+02,2.664964771583798893e+02,-2.183234503699362505e-01,2.668807620310226780e-01,-9.386743470854557181e-01
1.017329543680717734e+03,2.305509223261587067e+03,1.724051440982523673e+03,9.136227135686176837e-01,-4.048089936074726891e-01,3.772553440338310277e-02
1.788565445395058532e+03,1.044083179430975633e+03,2.119876637979546103e+03,-3.596327383922028054e-02,-9.540786738988615845e-01,-2.973895205721867607e-01
2.620275356715207238e+01,1.470123409807962162e+03,3.536107624190663046e+02,-9.944919927994898545e-01,-1.013650563534969629e-01,2.666086285460101193e-02
1.060892520667181998e+03,4.298328799737583239e+01,1.454178892515417601e+03,1.223083255892460849e-02,-9.927152357430010232e-01,-1.198618682427135124e-01
4.612545647474644852e+02,2.177166733903321983e+03,1.913990106998668807e+03,-8.247979016859083301e-02,8.795653959310836267e-01,4.685742187683199500e-01
6.304126412722479245e+02,8.081929099354631489e+02,1.682329198329605333e+03,-1.937725840689650814e-01,-5.804204104989074686e-01,-7.909262498738524050e-01
9.893051844660211600e+02,2.515876295592653605e+03,1.471944932986011736e+03,-2.378911411115609553e-01,-9.712674410261652458e-01,6.882076948430571051e-03
1.945001121634861192e+03,1.114158257910896282e+03,2.209574607125354760e+03,-4.469672154513881224e-01,-6.501771810257681583e-01,6.144021008956740415e-01
1.858751675271838053e+02,2.720560710992669101e+03,1.983061970994400781e+03,7.060227904971594359e-01,-6.752011738470741209e-01,-2.136239549632426293e-01
6.655179842811841127e+02,2.448417835060264679e+03,6.671141361443224014e+02,-2.295963530074346115e-01,-2.327579635248516396e-02,-9.730075806435647401e-01
2.314918994569409733e+03,2.198284028816372484e+03,2.001908081535666952e+03,-3.584022585590761201e-02,6.114663654288995387e-01,7.904583241131496463e-01
8.846746670160327994e+02,4.156987473608440951e+02,1.495059403168578456e+03,1.961886760591655815e-02,-9.688319720703796323e-01,-2.469407012383350308e-01
1.102707098589060706e+03,4.196806946230033759e+02,2.740220388685003400e+03,9.606923448056655657e-01,-1.198198796076287154e-01,2.504264664180000377e-01
2.468337976636097210e+03,2.860823100693633023e+03,3.000000000000000000e+03,-1.147036006250113788e-01,-1.829466425620631942e-01,9.764085261707451391e-01
2.244144798652412646e+03,1.956420553582734101e+03,2.422011104523903668e+03,-7.245093503270965130e-01,4.474517041381840254e-01,-5.242834860573462041e-01
1.739770779773516551e+03,1.035832535730914742e+03,2.280040870859693314e+03,-1.245491007410347850e-01,-9.183977913771430579e-01,3.755436303523004837e-01
3.385279608357047891e+02,1.348308335517753676e+03,1.800468302849131078e+03,1.694292324938602434e-01,7.972853346220509785e-01,5.793356802175624320e-01
2.619216008085330941e+03,1.511989525824702980e+02,1.372933123572198383e+03,-9.404587857836209375e-02,9.589804802896028102e-01,-2.674169238211124289e-01
9.563381296782780510e+02,8.643423012602250992e+02,5.989665785703868295e+01,-7.695859781275419254e-01,2.465989022633122141e-01,-5.890045871400357846e-01
2.537890057669884300e+03,6.134451044892902019e+02,1.474367734975956637e+03,5.141221144589361858e-01,-1.986042902307166569e-01,-8.344068476026702541e-01
1.248164414596610868e+03,1.130663997258718837e+03,1.734727049017576974e+03,6.326158392676292097e-01,-7.728554412286261499e-01,4.991659915317492313e-02
9.532133484068011740e+02,1.159554218383485704e+03,3.322821544052947615e+02,9.907707564460119798e-01,-8.211015396389198528e-02,-1.078481839783285295e-01
1.139599058802036325e+03,1.523967009733926716e+03,1.190179090457606662e+03,9.406969948829265737e-01,-1.731297687167125121e-01,-2.917451747712871413e-01
1.009634888897249084e+03,5.758605546841691876e+02,1.500083931389196096e+03,2.251183206857565716e-03,-1.048728352123208529e-01,-9.944830921683377456e-01
1.327636578134635329e+03,2.433213583309449859e+03,5.903448113596156190e+02,-3.065950391662005670e-01,3.435546296961571322e-01,-8.876765730675854060e-01
1.708797600882694496e+03,7.687694580209017658e+02,7.568344311791850032e+02,-7.840179158799360781e-01,7.694945298627961505e-02,-6.159502327821573253e-01
1.891107957369885298e+03,1.988358120511858033e+03,8.470190137625763782e+02,-8.984986067562042988e-01,-3.612188747316401605e-01,-2.494417330655951393e-01
2.903576298877175759e+03,1.150892033977006804e+03,2.360657053773817552e+03,-9.595223655912369365e-01,2.816150577153931911e-01,-3.128769431028466386e-03
1.429798521755860065e+03,1.348003796701878855e+03,7.544153680641223900e+02,8.613234880041158170e-02,9.702349504694285365e-01,2.263301998799759351e-01
1.658154261621859405e+03,1.983242595436305237e+03,2.256702783402643036e+03,3.826002488104618959e-01,8.011697422376535815e-01,-4.601565969678413914e-01
4.314509889849583715e+02,2.885579945481053528e+03,1.163107310374855160e+03,1.396563973446887374e-01,6.514475664292268542e-01,-7.457292798825458924e-01
2.936143998939654921e+03,2.136091521492687207e+03,2.437375277471441223e+03,-9.150328330282603284e-01,-3.044205478201689186e-01,-2.646564651489629605e-01
1.909646195453251948e+03,1.552842888644767754e+03,1.295981083402241893e+03,5.233383133941553744e-01,-4.438595590091935494e-01,7.273965229569943070e-01
1.440746822012916482e+03,1.362861333855307294e+03,7.995505651367700466e+02,-4.310722758879926252e-03,9.968969569813440623e-01,7.859945820826344520e-02
2.445619453576784053e+03,2.900444942461044775e+03,2.935849645470479118e+03,-6.052672321305330692e-03,5.102921835074564899e-02,-9.986788192568634148e-01
9.765614311513070334e+02,3.244069573752627775e+02,1.672337000505649030e+03,-7.120453762061343395e-02,-1.188229603632705716e-01,9.903590348518780395e-01
1.258431872070163308e+03,2.767564040363319691e+03,5.415483253530005641e+02,-1.938775342129628668e-02,8.688728828035188201e-01,-4.946554644861186345e-01
1.491634935282487731e+03,9.461005835003334141e+02,1.047045934816076169e+03,1.312017099421302901e-01,7.760920408372750101e-01,6.168202780853550005e-01
1.637958466763256638e+03,1.657677520812404282e+03,2.922555361292669659e+03,-2.094390292316761770e-01,-4.989987771270707438e-03,9.778089757496275514e-01
1.036518923647821111e+03,6.737294503705859583e+00,6.489004607135703964e+02,-5.636976094476419119e-01,3.688029421293253507e-01,7.390733353191463184e-01
1.733926675632775869e+03,9.915182201246680052e+02,1.745990234246874593e+02,-6.399569653681268511e-01,7.487676351289779264e-01,1.726328794296612124e-01
0.000000000000000000e+00,3.295502286440404305e+02,1.859054110507376208e+03,-5.959335556074584622e-02,9.719756514571105122e-01,2.274026493854814646e-01
7.655908261738927649e+02,2.617331638839340030e+03,1.233140759561103437e+02,5.382526109972739503e-01,-3.773579998254067425e-02,8.419383208729098733e-01
2.154518442544927893e+03,2.199499852327046483e+02,2.730504272807542748e+03,4.780915331235464916e-02,1.494679764028196238e-02,9.987446510994971716e-01
8.089155214083842793e+02,1.161344862054620080e+03,1.868987906999086817e+03,2.622904140031122669e-02,-1.641067549177648577e-01,9.860938141868559326e-01
2.990297817162368332e+01,2.025612449555547201e+01,9.190107498853242305e+02,8.047442839204016485e-01,1.825494040398691065e-01,-5.648560458932245787e-01
2.484857045772800120e+03,4.742223162634552409e+02,2.173688981378014887e+03,-6.181307579493346971e-01,-7.051885727430685646e-01,-3.473088581501699856e-01
2.238623012911985825e+03,1.096395742854172255e+02,2.092675802317322905e+03,3.680191324382695267e-04,-2.389997513587703293e-01,9.710195587177243848e-01
2.182922133992734416e+03,1.141731143913109690e+03,1.419549834215711826e+03,9.339195351673531542e-01,-3.562084040408280416e-01,3.016412974845073328e-02
1.174438515816309291e+03,2.925865666702665294e+03,2.150066560639958425e+03,9.815732708882356494e-01,-1.876266359173928144e-01,-3.619612371639369802e-02
6.555711619356385711e+01,1.737896092452054290e+03,2.988795415141220474e+03,8.826767488369285930e-01,-2.899796069551888733e-01,3.698561674661973164e-01
2.172343196313980116e+03,7.122862566856468902e+01,1.492178002324563749e+03,2.206613408556070896e-02,-5.000030404056187150e-01,8.657424820994146231e-01
2.467805441519329634e+03,1.360863918225228645e+03,8.237495867853237996e+02,1.707694525704732125e-01,-3.443791237906538294e-01,9.231688974212478582e-01
1.747307207252046737e+03,2.270251909687322041e+03,2.260076058411489157e+03,4.048501736690255509e-02,-9.330761690714000078e-01,-3.573930974149356343e-01
1.070744311651860698e+03,2.098874521851403642e+03,1.238124437240956695e+03,5.046722279815756274e-01,7.356022730213933603e-01,4.518796722910561336e-01
2.793018451307396845e+03,2.659887687447504049e+03,9.847773231207598883e+02,-2.630238925108736026e-01,9.501117976729813730e-01,1.676484532915356873e-01
2.568361408289634710e+03,2.985241552659040281e+03,2.598097966076476951e+03,-1.328387835134351713e-01,-2.668088611118097919e-01,9.545506216156844914e-01
1.015446880152806330e+03,5.044795979081164319e+02,1.556589433055228483e+03,3.187463723770834063e-06,-2.067345507048184150e-01,9.783970694634754883e-01
2.821290039564711606e+03,4.710039183875824875e+01,7.843266427249931212e+02,-5.683576162550595390e-01,5.666693529802488971e-01,-5.965362222345031995e-01
6.918344406609348880e+02,1.088898195545033559e+03,1.258544635991588166e+03,-7.579431420405373654e-01,6.792266376836171571e-02,6.487747723057115667e-01
2.384718740996776432e+03,1.680721884771270652e+03,6.650966870019640282e+02,9.416687259140206212e-01,9.887415312469038930e-02,3.216891550539753841e-01
1.438664191479169176e+03,1.077287173965271904e+03,2.879152069688906295e+02,-1.046911364816748707e-02,9.966679961071024385e-01,-8.089068670294884134e-02
3.000000000000000000e+03,1.298272058263549752e+03,8.666014612936299955e+02,3.556917641529615953e-02,-6.469857900676119211e-01,-7.616719905180480144e-01
1.200090284858490804e+03,2.881146256626873310e+03,2.116982354373316412e+03,9.842490316877285927e-01,-1.730217661051098865e-01,-3.629479405696470207e-02
2.825615697635561446e+03,1.929698869168325018e+03,2.391631994026324719e+03,-3.196238717846790200e-02,6.016646447506334150e-01,7.981090533648568242e-01
6.736553822682651571e+02,2.910401807947379439e+03,2.279790994440128998e+03,-3.083361879137194381e-02,7.184711454696179889e-01,6.948730107579395021e-01
2.498744425641504222e+03,4.249144411202177594e+02,1.884811695329332224e+03,-7.269452195955220832e-03,7.995343448954095322e-01,-6.005763784877314881e-01
1.957620438972752027e+03,2.343139622281270931e+03,2.055183775094810244e+03,3.012740707704313851e-03,5.823197667624098184e-01,8.129542500234566704e-01
5.134317173237087673e+02,2.085778962575916012e+03,0.000000000000000000e+00,-1.162284393765754542e-01,-9.455396782170421011e-01,-3.040487901592412445e-01
1.750497278685932088e+03,2.399498267391516038e+03,2.251020256897787476e+03,-2.192642531202195766e-01,9.575774191648919187e-01,-1.869991272951216921e-01
3.325607870975503602e+02,1.936113550019200829e+03,2.189183827723129525e+03,-6.453410524039691898e-02,-1.105670445639012674e-03,-9.979148895340158587e-01
2.817464564932919984e+03,1.419785313659825079e+03,2.421216591545075516e+03,4.097837932149263618e-01,-8.657788319773388475e-01,-2.872355425749770763e-01
5.061144774577568910e+02,8.139980306848940472e+02,2.040461794509371202e+03,-1.063853114982434844e-01,9.688517703788939173e-01,-2.236256079502180749e-01
2.968645153223126698e+01,2.272868044317847591e+02,1.058006842859722383e+03,-9.824811288854360392e-01,1.712470176404275735e-01,7.352067963000892548e-02
6.144839271083549903e+01,2.652816623571988544e+02,1.038234549560110736e+03,7.650798897047754454e-02,6.446768947150169904e-01,7.606170054924463741e-01
2.123364534120479675e+03,2.666625974089152351e+03,1.792133248788157289e+03,1.677266691123042303e-02,-5.125552642279890270e-01,8.584904069102119450e-01
2.756045295145262571e+03,6.469784547320106185e+02,6.365532339254469889e+02,7.433667359229894078e-01,1.588727734284513526e-01,6.497425165297039396e-01
1.752734774081303613e+03,8.612735431523664147e+02,5.002980589628242001e+02,-9.868243165458265853e-01,-6.015107278074196401e-02,1.501985909294363264e-01
2.143939776641920162e+03,1.983096790883694666e+03,1.770805067358659471e+03,-1.503038893137034065e-02,9.981439070873758812e-01,5.901549078775537166e-02
2.383333231989231535e+03,1.000024250161271311e+03,9.070662161440466207e+02,-2.932436327483878830e-05,8.510586299435204394e-01,-5.250706690901137952e-01
2.129677735104014573e+03,8.463851240518907559e+01,1.500679949949778575e+03,5.039621641421868949e-03,7.288722492218898674e-01,6.846311755448583058e-01
1.431698040605321694e+03,4.875641014538612126e+02,6.574260951455648865e+02,3.830232511371828991e-02,8.224405396970914384e-02,-9.958759197196760393e-01
2.235354724905212606e+03,4.259919878887758955e+02,2.430721165830128484e+03,-1.107750540253874955e-01,9.811986279742730410e-01,1.580447400803852986e-01
1.530711349217217730e+03,5.206368529342308875e+02,1.719015007513241926e+03,-5.611026570820594195e-01,3.215401945451068499e-01,-7.627422313647957974e-01
1.481669073976146365e+03,2.376615979796366446e+03,9.937759222327693465e+01,-1.830998242748436717e-03,9.989068448896257779e-01,-4.670934251397926978e-02
1.289466903605185053e+03,1.848091020338570615e+03,1.998093362295400084e+03,-1.752793881088939854e-01,9.763978544725741004e-01,-1.261917821632050629e-01
4.465002646245300184e+02,6.509036232262017165e+02,4.481974752422927395e+02,2.014778036627228319e-01,9.793207451436268807e-01,1.837315331065619492e-02
2.219138094408219331e+03,8.247836733782665419e+01,2.877177997523190697e+03,-7.634154178403979030e-01,-4.394158431237745188e-01,4.734032283533702867e-01
1.975918418680275579e+02,2.477931318996019854e+03,2.757515711586031557e+03,-3.038756808150193389e-02,-8.934154440782137163e-01,4.482024542420761648e-01
9.394425649985532800e+02,1.212657673291325409e+03,3.567405866230277525e+02,-5.323601654946188283e-02,1.326238418658486767e-02,9.984938836606025436e-01
2.670544037622667929e+03,7.072051042538463150e+01,9.115878037879361955e+02,7.390808043444663245e-01,-6.679403329677673362e-01,8.726555015838033391e-02
1.498632183667879644e+03,8.155640435491593507e+02,1.532292990692439162e+03,7.690919628348317216e-01,1.048570034772240527e-02,6.390521127350128339e-01
1.696236391261463723e+03,2.146757173415950092e+03,1.167856887290586883e+03,8.405304301980168757e-01,-1.177350016118435677e-01,-5.288166651180690181e-01
4.130787349943274762e+02,2.075345554867814371e+03,2.385435623639880760e+03,1.572010827524573107e-01,-1.544849760063332633e-01,-9.754087408721421326e-01
2.814557721079172552e+02,1.065540237763169671e+03,6.000906168966401992e+02,4.310378940373934542e-01,-6.076561189392672840e-02,-9.002854404659477172e-01
2.368373515236043659e+03,2.383903736043679089e+01,7.548634836498533787e+02,-9.673799096479553106e-02,-4.380643006233420067e-01,-8.937233518396380250e-01
1.692404015002473670e+03,2.490513565447890585e+02,1.102030701294594110e+03,7.791142816288072481e-01,-4.918272566584066530e-01,3.886989654860089072e-01
2.582744215715638347e+03,2.864021578486429462e+03,2.751335494891382496e+03,-5.698912430509254362e-02,9.857062186833633888e-01,1.585417615642146505e-01
1.095027281975807682e+03,1.278291874903423832e+03,1.159569356718683792e+02,1.510575011064567708e-01,-3.868613964361892754e-01,9.096812031183860725e-01
2.813921599765826159e+03,1.965084645190354195e+03,3.817747704263056789e+02,-4.019457176076643434e-01,-3.802935642840098163e-02,-9.148734383216627908e-01
3.120148195811361802e+02,1.576007043166000017e+02,2.053820930698663688e+03,8.275181233039795581e-01,3.240446784458912433e-01,-4.584853345248445788e-01
2.919220489150326102e+03,1.582551610821278985e+02,8.062318341566119670e+02,-2.631823499805234778e-01,8.259676032852011351e-01,4.985103499246830161e-01
1.730069585613342156e+02,1.616906393175047924e+03,8.464385155957976394e+02,6.422042505284725200e-01,-4.032465061570012499e-01,-6.518941293456588237e-01
9.846127121574138528e+02,5.352018638001322870e+02,1.352386674371842901e+03,5.025649948368071662e-01,8.452344625117739207e-01,-1.816786430682284514e-01
2.500768207756322226e+03,2.175137662784052281e+02,2.133171233908756221e+03,-9.830561347351025603e-01,4.538697438175608168e-02,1.775968989485736671e-01
2.075590320303997942e+03,2.774804386636460094e+03,1.718733145496460793e+03,3.874389779174025050e-01,-7.819756025583797232e-01,-4.882675448908901927e-01
2.762248446262794459e+03,9.295439071913756379e+02,2.036258260903395467e+03,-9.459424734292372072e-01,1.211512272592128181e-01,3.008574697363577410e-01
2.804761653062938421e+03,2.163584439062404272e+03,1.452251879784810626e+03,-9.865739077782094413e-02,-4.077783286176226429e-01,9.077353986458446267e-01
2.370278291431300659e+03,1.008307039828764346e+03,1.060412168595780713e+03,2.063188760314671065e-04,7.184370448172219259e-01,-6.955919565857691111e-01
8.480341915340593459e+02,1.111378482799899757e+03,1.915754328712910592e+03,8.313922181393523791e-01,-5.512863394286932062e-01,-6.978790422873705490e-02
9.713536759245527037e+02,8.577365909079406947e+02,2.593440019060956729e+03,4.977210879086961248e-01,-8.430719817254437309e-01,-2.037237155574114222e-01
2.763778503586975603e+03,2.138887253916911504e+03,1.078918324433123189e+03,5.130428518845538133e-02,1.274681359730700514e-01,9.905148886477439518e-01
2.471745022783281456e+03,1.230410371839933305e+03,1.141564158424756215e+03,-5.466488936362162016e-02,4.520737856261717452e-02,9.974808483346230270e-01
1.964325668826582927e+01,2.985212639694142126e+03,1.426984148525230012e+03,8.360448538802529861e-02,4.510040661948704899e-01,-8.885975592464208095e-01
6.245747919114822935e+02,1.807160881065699641e+03,1.331680631596546391e+03,-8.630504697989622720e-01,2.017956649580162076e-01,-4.630576596752746799e-01
1.203223088996524666e+03,1.427866451462710756e+03,2.591815777334800259e+02,6.187430790573648226e-02,3.919315958909005970e-02,9.973141261721957251e-01
1.680064148729663430e+03,9.817170760748726934e+02,2.252514842765734102e+03,-4.639678889310459575e-01,2.001783436433535734e-01,8.629382531659330891e-01
