x,y,z,nx,ny,nz
2.031114594465667778e+03,4.027116143956278620e+02,9.328697026172798132e+02,7.189273601787684598e-01,-8.300316953191767821e-02,6.901115305760679997e-01
1.725334545735310940e+03,2.644650945289338324e+03,2.757993861987396031e+03,-2.973879589457728012e-01,1.697994575792888539e-01,-9.395363463325123732e-01
4.190467162720522651e+02,1.933239377228992453e+02,2.328637293647499064e+03,3.881953191047968765e-01,-6.951208522751752827e-01,-6.050713965784193515e-01
1.245729164111225373e+03,2.592439569858532650e+03,2.804695337414992082e+03,-9.554463396354305471e-02,-9.930554096857172608e-01,6.864529273522636255e-02
2.529671505349448580e+03,2.229621720116823326e+03,2.974130300778895162e+02,2.435152655043543168e-03,-9.551632576001760633e-01,-2.960696224913430541e-01
2.684682503480843025e+03,8.364047433529033242e+02,1.822407496899462103e+03,-2.937914670339492607e-01,9.288457279686765933e-01,2.256816065442177610e-01
1.795245225040221840e+03,6.905002729384397071e+02,1.797194214046434581e+03,-8.042073578766305575e-01,4.576292513786748423e-03,-5.943312065539865241e-01
2.813870235651063467e+03,1.062982577678978259e+03,1.532871043430692453e+03,-7.556226176772564695e-01,5.922333016372058889e-01,-2.798109649146458544e-01
1.630283683116484781e+02,1.312956179378058550e+03,9.597983060493977518e+02,3.938924788514049369e-01,6.165820638916031937e-01,6.816709423112199406e-01
2.351380827006253185e+03,1.632860721967233530e+03,3.000000000000000000e+03,-9.071150903063053272e-01,3.353050504838906987e-01,-2.543869809140769100e-01
2.368746701608049079e+03,3.138707579784866084e+02,4.202280909131128510e+02,-8.005666566488173208e-02,-6.395515927011076517e-05,-9.967903120478042167e-01
1.136202241829584409e+03,1.325239744367510411e+03,1.086458667161862422e+03,3.947693869272982797e-02,-3.391382462607109849e-01,-9.399078791214912076e-01
1.935565321551739771e+03,2.267965821167155980e+02,2.578005853366604242e+03,-9.460149108907456306e-02,3.476115399352545654e-01,-9.328541017691698300e-01
1.298096959787311334e+03,1.677770290777540652e+01,1.399044116410145534e+03,-6.325223740555863637e-03,-7.772847136467897489e-01,-6.291172112378264902e-01
2.391735228286004258e+03,1.602439029733149710e+03,2.978889763981904707e+03,4.552593011222863528e-01,-7.071726770649042204e-02,-8.875460758686143370e-01
1.967091927157304667e+02,2.456646462792248258e+03,1.834833635991110668e+03,2.567989567996430411e-01,-7.373292452450147527e-01,6.248198779592658569e-01
7.646189392155259839e+02,2.321094183045285263e+03,2.111477649758182906e+03,2.361701914848502726e-01,-7.686964882212419248e-01,-5.944151324203813536e-01
1.666463262227969835e+03,1.491561275479986080e+02,1.448427731326736989e+01,7.952641557986604715e-03,-7.509126690977860896e-01,-6.603536316858482635e-01
8.522217714633382002e+02,2.623140361256654955e+02,1.533619971165815969e+03,6.608551117232820404e-01,-7.196407686362293887e-01,-2.130438579867195426e-01
2.915358142398326436e+03,2.426389093808306825e+03,2.140691608752214961e+03,9.823186168581188316e-01,-1.623567015109436962e-01,9.322251041695306384e-02
2.705290214435691269e+03,2.680270378951501243e+03,8.994375687234956729e+01,-7.350540625153356711e-01,-2.105590184732951953e-01,6.444846196142026695e-01
2.334624327830107177e+03,9.187417437211946663e+02,0.000000000000000000e+00,-3.117393725470571275e-06,3.743076008351891026e-01,-9.273045993346989979e-01
2.168062810775335265e+02,2.244960775956149064e+03,9.717393447533008839e+02,-7.296426684008370245e-01,-5.583567740022868930e-01,3.947901839897558496e-01
1.492833433497036594e+03,1.288948555194406026e+03,1.641296186412841735e+03,-2.705982882854340854e-01,-8.866998104172573170e-01,-3.748866663179595271e-01
2.659794725586653840e+03,2.497605909711936420e+03,4.274644147757955182e+01,-1.309882964481577927e-01,-1.550411636218747558e-01,-9.791855308246668610e-01
1.396159845570253765e+03,5.533652326860116091e+02,2.317385859229668768e+03,-1.112456890188437131e-01,-5.454879990852737892e-01,8.307028587459340807e-01
1.908230021426087205e+03,2.750988901013297891e+03,1.390169949356162306e+03,-5.118767573487094380e-03,-4.747083701710889669e-01,8.801282642365468867e-01
1.228481450644908136e+03,8.249709823149621002e+01,1.383235400367383363e+03,4.969522854453055360e-02,9.782457399711923518e-01,2.014091767723637239e-01
1.839730392129024949e+03,1.896431802260855193e+02,2.440111085457733225e+03,9.582848648195716468e-01,9.651105781208983714e-02,-2.690273844383259672e-01
1.494408853306531455e+03,1.233895924147618643e+03,2.835790999611300776e+03,-4.893095521366921941e-01,6.967523618777345940e-01,5.245114950175908675e-01
2.449734984803698353e+03,9.898763921908438306e+02,0.000000000000000000e+00,-2.343244841244103982e-01,7.039636983973151380e-03,-9.721329536904727009e-01
2.641746563862898256e+03,1.445391265433149101e+03,1.618172191530068176e+03,-1.669522950692754401e-02,7.450787503400148060e-01,-6.667675195324626047e-01
1.378764906970330912e+03,2.436275892685854615e+03,3.142547745681092692e+02,-2.090982168723625467e-01,-9.711842406200760225e-01,1.143639211989722071e-01
2.032041650800843172e+03,2.739370938727919111e+03,2.008635721635713026e+03,2.371207603701735479e-03,-2.658245808731779514e-01,9.640185006409884849e-01
1.543768725683984712e+03,2.496371488144558043e+03,9.346553930147427991e+02,-7.690935593332716147e-01,-6.268827814510919971e-01,-1.245514966277880831e-01
2.566813993775291692e+03,1.195939858646319408e+03,1.341816690671036440e+03,-2.589389069046234629e-02,-7.242065369719243861e-01,-6.890967988839037384e-01
1.471553990915573422e+03,1.445639727560349456e+03,1.338027245206912994e+03,8.873652391888885438e-01,4.295501801875746262e-01,-1.675397713382376363e-01
2.976269423310541697e+03,1.482037397309321932e+03,1.953205146151964527e+03,-3.502595157533585080e-01,8.297809490796550502e-01,4.344903315019676970e-01
2.413018634656019913e+03,1.142879645641644174e+03,2.286490106622807616e+03,-1.137272497985417075e-01,-8.103536090412440940e-01,-5.747983480900851205e-01
6.154050039898311297e+02,2.747701671705558056e+03,1.190872182174764703e+03,-5.478963230947038188e-01,-4.055054098931185069e-01,-7.316932292202230625e-01
1.488121113271397235e+03,2.646101454669910140e+02,2.128354209451503266e+03,1.055738351898732885e-01,5.395162233515309325e-01,8.353301204097709487e-01
1.637145395294174477e+03,1.387247789242475392e+03,6.492925927946658931e+02,2.296345688178488484e-02,3.390647808754141401e-01,9.404827239338030553e-01
1.733048363252716172e+03,2.646028885341627301e+03,2.755000253153664744e+03,4.132974112518067455e-01,-1.619456760891237745e-01,8.960797106555820069e-01
1.676853104221311241e+02,1.293942980183570398e+03,9.165680944541931012e+02,3.123788674098096352e-01,6.372438240422277911e-01,7.045138408262842100e-01
3.098067202939791542e+01,1.294455276449610892e+02,2.552120570221722573e+03,4.193296988277053772e-01,-8.763910227160931488e-01,-2.368572966655368983e-01
2.853076170821264895e+03,2.677921473355723265e+03,1.760488268412153502e+03,-5.764268989174421431e-01,7.173767810962571323e-01,-3.912832530896175331e-01
4.686959538108199013e+02,2.589747612476739505e+03,2.411046491112835497e+02,-3.179383580859580522e-03,-3.693140375083193705e-01,-9.292992161943048890e-01
2.414996548164506294e+02,1.612719040323596118e+03,6.787916427564387050e+02,-5.880672762652789931e-01,-8.076641437459164408e-01,4.307562527824604359e-02
2.095859578008107960e+01,9.049074990385577166e+02,1.281408804222156050e+03,4.150465384815646419e-01,-9.097217834557964622e-01,1.194351708987673351e-02
3.279298543646829103e+02,8.668021906048967651e+01,9.560500047799520189e+02,-8.133057701718341415e-01,-4.322794146242366353e-01,-3.894460577503988663e-01
1.400567164356793683e+03,5.675070198048144903e+02,2.360384713496536733e+03,2.228106845678464176e-01,5.350967568389335405e-01,-8.148784324442898130e-01
2.139929509461119324e+03,1.936545764866580612e+03,3.678620176597408999e+02,-9.273215261329879888e-02,-4.566589507999498920e-01,8.847956546717398174e-01
2.979747917002786721e+02,2.652504348530811512e+03,2.287099878325037480e+03,-2.454041886576616982e-01,8.484960612024233795e-01,4.688616195779391482e-01
1.230553814545444311e+03,1.307075016413293042e+03,3.715414303142230779e+02,2.307445347265337302e-02,9.894431653576207797e-01,-1.430726812638606071e-01
2.543259789968338282e+03,3.132352911115923462e+02,2.440757415271115406e+03,1.365792281590057222e-01,1.583756770770123256e-03,-9.906278848033611695e-01
2.618893808426168107e+03,6.420568555852588588e+02,2.170509425765767162e+02,-2.975885738568592297e-03,1.177768522184851202e-01,9.930356273495810626e-01
2.245312306063969572e+03,2.011504494420041738e+03,2.213964091425373226e+03,-8.173242861948376570e-01,-9.359628392910204417e-03,-5.761019081312315215e-01
6.740690503961066042e+02,2.406995669748727323e+03,1.284421644724107409e+03,-8.356917227706530671e-01,5.463577132174355366e-01,5.579062376808919393e-02
1.205960505067778740e+03,5.008024673753042322e+01,2.600302187280974522e+03,-7.495172342874960592e-01,-6.361334384035635114e-01,1.831888753469561870e-01
2.523305414749278498e+03,2.596381406451558632e+03,2.778756866377310644e+02,8.262745467375727237e-01,-5.301723010144809844e-01,1.902306616994997590e-01
8.420173174750900671e+02,2.738560390933211693e+03,2.915436076855286956e+03,6.184809918329872147e-01,5.721132129072572514e-01,-5.386721956424148638e-01
2.623826024059686915e+03,1.311584912912358959e+03,1.625726877586375622e+03,3.180405362432359596e-03,4.175431279149138808e-01,-9.086515401146693094e-01
2.375132018066617547e+03,2.660762720692935090e+03,1.776860197908241616e+03,5.344157569569197852e-01,-5.669951457862691946e-01,-6.268303625152260583e-01
1.496631658363648967e+03,1.911372345950909221e+03,1.772911220593512553e+03,-2.903663345694507125e-01,9.179531108840925935e-01,-2.702766692981815044e-01
2.270774791201471999e+03,5.384377092567801810e+02,1.272472647539024138e+03,-4.466292331808139338e-01,-8.132930500693779097e-01,-3.729299435244730621e-01
2.165891050565796832e+02,2.231923801339115926e+03,4.111707466420879769e+02,-6.408701156796265952e-01,-7.579712516178100934e-01,-1.215116313350808053e-01
1.226787499860786056e+03,2.107652225589408204e+02,2.970951315562061609e+03,-6.766656629743592055e-02,4.277117226590784194e-01,-9.013788981918304799e-01
1.649129381703030049e+03,6.639249485715338324e+02,1.429933585710153693e+03,-8.438346869092637759e-01,3.509914334171983508e-01,4.058916540611363644e-01
2.580151774241374369e+03,2.475852429380689046e+03,2.718828999461847616e+03,3.802196052409094734e-03,9.995803461245547084e-01,2.871715422346749966e-02
1.774692806286664108e+03,1.972789385418873053e+03,2.334369041396504599e+03,8.241112975217030900e-01,-5.622761708737399333e-01,-6.845492651854745425e-02
1.321528056099610239e+03,1.884719422108072195e+03,7.317381778877272609e+02,-8.004933793796774610e-01,5.988486452063516152e-01,-2.430328586469121532e-02
8.418876305726961391e+02,2.818670570749454328e+03,5.311654966184502200e+02,9.071032259936284703e-01,-4.140113823395362713e-01,-7.588354686793864767e-02
1.202099416989721590e+02,1.374497204406258788e+03,5.349283768298660107e+02,6.513604395657043855e-02,6.959858727007369426e-03,9.978521213808125845e-01
2.118028128429559274e+03,2.935612894422148656e+03,2.385535802029540719e+03,8.284183065170501736e-01,5.301834328026279186e-01,1.806339863066861451e-01
1.770566954128843008e+03,1.708817069444144636e+03,1.086281600916543994e+03,-1.366429002349126010e-01,-8.540495649624838537e-01,-5.019243552596185376e-01
2.351175244687672603e+03,2.199237949528337595e+03,9.651864597668405850e+02,-5.243572364060303803e-01,-8.345576406248224055e-01,1.690060149916577104e-01
2.755598343020993070e+03,2.989289432311450582e+03,1.790187908984942851e+03,5.756928298093560992e-01,-6.580970225352544833e-01,-4.852690744693386460e-01
1.839110735260061119e+03,2.611842876870575765e+03,2.662676268972260004e+03,6.014194510977960081e-03,-4.720410129831921209e-01,-8.815560739545647007e-01
2.969141870913197181e+03,1.315731052417691444e+03,1.784461766225833117e+03,7.047990512187749523e-01,5.437675175249022663e-01,-4.556041969581928752e-01
2.395071773214916448e+03,1.021155057274306841e+03,3.268788150233149992e+01,-4.601953978035189796e-01,-3.167212710588954705e-01,-8.294020932571237736e-01
8.637549677642771258e+02,1.752290862070292860e+03,2.372062092727906929e+03,-2.891265824917440413e-02,3.408869804086119282e-01,9.396595791992252700e-01
1.372700587252610603e+03,1.521387471701685399e+03,1.187559384097784232e+03,6.459300136949186434e-04,9.262161183955691657e-01,3.769924200811764492e-01
1.490971272974307112e+03,2.221547938763236289e+03,2.340699651546024427e+02,-3.112157761080827992e-02,-9.954866502867302236e-01,8.965364748809534490e-02
2.386948066822734290e+03,2.124526985135276391e+03,9.075108906950708842e+01,7.952312808564372393e-01,4.810152671077517206e-01,3.690955469206974038e-01
1.390540543867709175e+03,2.313266576209255163e+03,2.464135616046136420e+03,-1.167344202232842298e-03,6.967724548127613993e-01,7.172912822011097145e-01
2.182922457662275065e+03,3.858943042104744450e+02,8.032987682444928623e+02,-8.884052185138801017e-01,4.540316501138938476e-01,-6.776007978271314514e-02
9.007978150902222296e+02,1.170176157912457711e+03,2.329361214608753926e+03,-2.120895798258079223e-01,7.582377851535544444e-01,6.165172108666103767e-01
1.779474814613306080e+03,1.770595743893131385e+03,1.066906701220585546e+03,-1.281408637968091124e-01,-8.550286130598921952e-01,-5.024997411683759241e-01
7.254954256128432917e+02,9.512323787522565226e+02,1.805419705360899911e+02,-3.835061663893995498e-01,7.955522182349499261e-01,4.690625634206557759e-01
1.482495507905940940e+03,2.665347779687298043e+03,2.740195332706892259e+03,4.690976072796471108e-02,-9.546213363572931820e-01,-2.941047067285063044e-01
2.148020189498499349e+03,1.055807941685358628e+03,6.567779623931899096e+02,8.872500382957010379e-01,1.919654577562896758e-01,4.194480093798220732e-01
8.676166016654403847e+02,1.758860634157626350e+02,1.211585606319609454e+01,-6.497958082983804617e-01,2.302991554337711078e-01,7.243809125897412438e-01
1.566677447991123699e+03,1.504857964805758456e+03,2.418896539889486121e+03,-9.519581371757437349e-01,-2.206698379138798960e-01,2.123217551263880676e-01
8.061591562976371961e+02,1.558624440197945660e+03,9.517966309585428917e+02,-6.032342217275754592e-01,7.222595260831947694e-01,-3.383040802573999972e-01
1.886929442784496814e+03,2.379033064317890421e+03,1.182421455881443819e+02,5.690603751625233908e-01,-1.454430413886084739e-01,-8.093309651381934700e-01
1.167509008531508698e+03,2.634673876552460115e+03,7.446304808219131246e+02,9.757258433866449199e-01,-1.587915247336580127e-01,-1.508122349817169472e-01
6.155296874471590627e+02,2.685089501541362097e+03,2.492889924228405107e+03,-3.713474008562707707e-01,-1.032269022932892633e-01,9.227379446626349235e-01
4.174309505596726240e+02,7.350322575479059140e+01,6.188949922081478690e+02,1.567682956314357667e-02,-3.663145632230673798e-01,9.303590047855406775e-01
2.703387620245110270e+02,1.974604393408855458e+03,6.657722105309173912e+02,-7.836490651729758339e-01,2.229337949932617274e-02,6.208036306949406002e-01
1.716280238585852658e+03,1.865284776695679966e+03,1.114423314234318013e+03,-4.146468670783087437e-04,-4.356296507693111497e-01,9.001258997710174237e-01
2.886380599956986316e+03,1.452884365740238763e+03,3.352772504020316546e+02,1.078908788416392539e-01,9.906469421408499176e-01,8.353558696604961031e-02
2.672059464377724908e+03,2.456968998566091614e+03,4.686041967817489535e+02,1.893916998071467740e-07,-9.973657263550700369e-01,7.253694156902248946e-02
1.262557684768289846e+03,2.730909444464531589e+03,1.392548164288060946e+02,-6.285374010584470206e-01,-9.547651765346309993e-02,-7.718969944542217743e-01
2.280080927895044624e+03,7.964774336448014083e+02,1.931643297705694977e+03,-4.032051732086162632e-01,-1.457842425647338236e-01,9.034226823130115935e-01
4.391994795350598224e+02,2.152379330962796757e+03,1.467616448963374978e+03,-4.602106443267045370e-03,-9.815391838412990122e-01,1.912057823404969270e-01
8.660294553870473067e+01,2.872556909315990652e+03,1.630207180953871784e+03,6.701392178601536243e-01,5.253862048760512549e-01,-5.242926324217436207e-01
2.189340896946785506e+03,1.642824065871087214e+03,1.987913926896383146e+02,3.630536004656358395e-01,5.926820603471416593e-01,-7.189715283177808836e-01
1.255579400420645470e+03,3.035922578964441954e+01,1.219246210090253498e+03,2.939396651069318134e-01,5.148530928557180086e-01,-8.053109747505780014e-01
2.371374250674402447e+03,1.053507233286264182e+03,1.096799260427185629e+01,1.318161892785275624e-01,8.615961056693879350e-01,-4.901802147572180690e-01
2.387919998769428730e+03,2.771450116542568139e+03,5.821235625937659961e+02,-7.839633983186400368e-02,-9.600167097567799956e-01,2.687413829106591323e-01
3.422832391179350111e+02,2.212300922294024076e+03,1.879463525264223335e+03,-3.794672527620089331e-01,6.735440283684062113e-01,-6.343051678257976000e-01
2.396638264210423131e+03,2.662581993693404911e+03,1.378918587023110376e+03,-5.818654804599056041e-01,1.569286703667698013e-01,7.980012249778072331e-01
1.961531653547347389e+02,8.213759603982589397e+01,2.291606778785745064e+03,6.149440392912632752e-02,-1.386843840721950771e-01,9.884255560738590685e-01
1.060063639333636047e+03,7.093979666681642584e+02,1.587119986625180218e+03,-2.388112937876070152e-01,7.005184707781529907e-01,-6.724901769231482751e-01
1.338625271932898386e+03,2.420271372722010256e+03,2.862927441222784182e+03,-1.335065743740016797e-01,9.524917959983230098e-01,2.737432613870306453e-01
1.444906606898284508e+03,5.419302002477207907e+02,6.635140962434855965e+02,6.804275350231674124e-02,-7.085883050969007391e-01,-7.023338220360204609e-01
9.643295481803552320e+02,2.593799467035827547e+03,2.226544189479902798e+03,1.730970636725956977e-03,-7.867762058896853317e-01,6.172359399666276225e-01
2.139268185355384958e+03,7.280360779325585554e+02,2.510974476458811750e+03,-6.374077854651123420e-01,5.792621946024298918e-01,5.081009987520572757e-01
4.640201522366138533e+02,2.026518270334944418e+03,2.320568568484993648e+03,3.572297121688567945e-01,8.199570732605712120e-01,4.472776886384048356e-01
2.838003693124186611e+03,1.536670463313027426e+02,1.158388212113883583e+03,-1.802168015406475921e-01,-1.680221792730184419e-02,-9.834833958512885221e-01
2.999427671977839964e+03,1.003474774445770663e+02,4.000155614411855254e+02,-2.249624892457475211e-01,-9.743577020687755885e-01,-4.352798135927260503e-03
1.731367533063572182e+03,1.490158342461350458e+03,1.872624063008103121e+03,8.259476308219528828e-01,-2.977454913686693461e-01,-4.787046412029372089e-01
2.779409706304832639e+00,1.436281797447907138e+03,4.681273796431097480e+02,2.711023409079516555e-01,-4.168753579833992529e-01,-8.675934858333373967e-01
6.035849652023213139e+02,1.280632509081304761e+03,8.038213227882681622e+02,-5.117782457729291856e-01,-4.319115909599206549e-01,-7.426542969296370256e-01
1.323851337403465550e+03,1.700308724773850599e+03,2.939905455981989917e+02,-1.311130918969253406e-02,3.978613364156459442e-02,-9.991221932982911058e-01
1.212430559662181849e+03,1.340633888237392171e+02,1.377778028838340788e+03,-1.191512594094992598e-02,-3.877188552712285824e-02,-9.991770467071804385e-01
8.576814438952824275e+02,2.549987074388395740e+03,2.914092209378661664e+03,-1.601757561676053147e-04,-8.286910717453261910e-01,5.597062461267604538e-01
4.047762400790701918e+02,3.094018896693382885e+02,2.533247437649754829e+03,-4.474535832431377272e-03,-5.299485205669226540e-01,-8.480180092887262822e-01
2.820501124083767081e+03,1.625501334001324267e+03,1.768703539282318388e+03,-8.827142848315987500e-01,-4.050953655699292000e-01,2.381454096723360225e-01
1.963378552980706502e+02,2.405502857298834442e+03,1.856539202374978231e+03,-2.801461160420739005e-01,7.323646044902379915e-01,-6.206127937421191954e-01
8.379487364563048004e+02,1.114764492720164071e+03,1.000487107394772579e+03,3.785334094903826385e-02,-9.105702785828305723e-01,4.116174101524160411e-01
1.710994001617583081e+03,7.333149748571594273e+02,9.130129341329184172e+02,-4.351741820369737224e-01,8.947487709065683470e-01,-1.002400531206777551e-01
2.044203475480139559e+03,1.984294137813111263e+02,7.313430781012367561e+02,-1.332533411084079744e-01,1.695432240345993644e-02,9.909369798505279769e-01
5.112488654638609660e+02,2.624195389813189195e+03,2.287307918806396287e+02,-7.106354218395382998e-03,-3.693065787300202074e-01,-9.292804477855165501e-01
1.144093762647396261e+03,2.899259798397122267e+03,1.418292009466698801e+03,3.246474377598199818e-02,8.280961943688959215e-01,-5.596451851694176360e-01
2.154757528508770065e+03,3.272618046878490645e+02,1.882727777908543203e+03,6.275850057328159481e-01,5.708575108541072973e-01,-5.293947136879950666e-01
1.765128972823909407e+03,1.514513665284220565e+02,7.532506334155642662e+02,5.034305089131566602e-01,-8.572413768582040072e-01,-1.081431666712726614e-01
2.129858464486762415e+01,1.368060381453061837e+03,5.487099897913947188e+02,-5.619797176230924979e-02,-9.895444516358802289e-01,-1.328290864473884447e-01
1.704277869480053482e+02,2.437504480177219648e+03,1.827339838182341964e+03,7.576075793737323261e-02,-8.204665509058408635e-01,-5.666524035080306998e-01
2.511798665516518213e+03,1.908599826731900748e+03,2.158469204928052022e+03,7.592404243863498658e-01,-6.062427573409827630e-01,-2.366932553944822715e-01
9.985077986656648363e+02,2.832437346590821562e+03,2.057744348383691431e+03,-7.117400541934953973e-01,6.398299510150676772e-01,2.899029648704827267e-01
8.291501753526380298e+02,1.504806738037688319e+03,2.363938744011566541e+03,1.836433072122656274e-01,-8.351832722759743310e-01,-5.184052829847871635e-01
2.614353149268398283e+03,2.507155669645169837e+03,1.577944238551428271e+03,2.660090528358522236e-02,8.728560684946586878e-01,4.872521683175372598e-01
2.456569542191330584e+03,8.527877661826804570e+02,2.094555549165208959e+03,-9.991092063694895220e-01,4.109609870020650146e-02,-9.586679266140542624e-03
2.388848900408117515e+03,1.200626253229467238e+03,1.034154815572963741e+02,3.317477385084129787e-02,8.293587205899518588e-01,-5.577307118684999843e-01
7.866796584351104684e+02,1.386599190429828241e+03,6.233155141709372629e+02,8.714225798935881784e-01,5.761549554450097477e-02,4.871377032470024515e-01
2.161565599629691405e+03,6.492313622264858850e+02,1.284136658549453841e+03,-1.620143675639261482e-01,8.398947456615383222e-01,-5.180040163097204831e-01
2.915668688221923730e+03,5.627204759006936001e+02,2.681139870795577281e+03,5.786100721956249915e-01,4.505918944363531131e-01,6.798362516238980469e-01
6.705833214023789424e+02,1.877256605174112337e+03,7.947108555877327944e+02,-1.060859597797362691e-01,9.872644301880171280e-01,-1.185525791501059190e-01
1.059862349687911774e+03,7.952136642126477000e+02,1.617139571985482689e+03,-5.595762033768774124e-01,-3.394477730109355385e-01,-7.560751827776361900e-01
4.202813236619048212e+02,9.705734734255977969e+01,7.314775079890653160e+02,1.889359050240361961e-03,9.998438600018050293e-01,-1.756946040919824675e-02
3.488297477120341910e+02,9.550735132436886943e+02,1.824481961212952911e+03,4.859150429723754772e-02,-1.764964096865994370e-01,9.831011560759511658e-01
2.185951442648698048e+03,1.456520443652381118e+03,2.738024304852043770e+03,-9.196621868195840876e-02,6.804705864429450024e-01,7.269814272781229825e-01
6.638719023893572739e+02,2.695987842768168775e+03,1.122705732988015598e+03,-5.177768186944251005e-02,-9.194643278620258098e-01,3.897491776122945506e-01
6.892992808533738298e+02,8.569647469959885484e+02,2.006229971786875922e+03,-1.948378211449839914e-01,-5.621101859934368727e-01,-8.037850224120246523e-01
2.661299760250480176e+03,6.580570980892246098e+02,9.360091237881338202e+02,-1.026336965142177031e-02,6.913192829828741504e-01,7.224765132649247912e-01
2.776731474066426017e+03,2.617150550571338499e+03,1.369923193477304039e+03,-5.302804489191804693e-01,-5.380242360343251429e-01,-6.552347418549731017e-01
1.035875795701548086e+01,1.003110641751453613e+02,2.498781429907457550e+03,5.719198551993111002e-01,-7.918979345059723451e-01,-2.140218226115596090e-01
1.514759191381044275e+03,2.887772914453016256e+03,1.431117389901557772e+03,-7.883401432716780066e-01,6.091226213666908196e-01,-8.654161222071854453e-02
3.671063569157072379e+02,1.030725225875043236e+02,2.054655826542275008e+03,1.484187184915295721e-01,-8.202825784935202647e-01,5.523661606410676939e-01
2.204260344017894113e+03,6.270579924591702365e+02,1.275118428119409828e+03,3.230158699206262529e-01,-8.055130856954612062e-01,4.967991712480987476e-01
6.393619610934701996e+02,1.979469492768259443e+03,7.898767271876832865e+02,-1.606269788474089938e-02,-2.651156431327117424e-01,-9.640828208732857840e-01
1.374902729956097346e+03,3.206622999201526909e+02,2.507213224525018632e+03,2.688658221890751765e-01,-9.555832510196415885e-01,-1.207137938651807879e-01
2.200919015795792802e+03,1.469480999039696599e+03,2.237396213493694177e+03,-1.581655309053688757e-02,-5.270919586747442320e-01,-8.496610522724670211e-01
6.265199784964435139e+02,7.359880752741860306e+02,2.202771011747784087e+03,2.161829631224164439e-02,6.667378704915115639e-01,-7.449786985659392347e-01
1.381214098201225170e+03,2.380196030666620118e+03,1.167586222129032421e+03,7.879749000614350019e-01,-4.336114867583861776e-01,-4.371231353112683404e-01
1.954660394829162442e+02,2.394359211142969343e+03,1.821723756590532275e+03,-1.290170108182648115e-02,-4.202631382691014439e-01,9.073105536261558690e-01
9.066172707272706930e+02,2.611933860418825589e+03,2.179835111214145400e+03,5.093279466938716027e-02,-6.058081148438417829e-01,-7.939788274359188547e-01
1.678532830760321303e+03,6.238847610422568550e+02,2.877728840183481225e+03,-3.583467520936477468e-01,6.620843702557405175e-01,-6.582035338153338078e-01
2.346378437975998622e+03,7.280467993445056436e+02,2.211835796312067487e+03,6.027166908156944558e-02,-5.673077703298724517e-01,-8.212972784744086985e-01
2.002464667259774842e+03,1.524280640694520343e+03,1.541110085082443220e+03,1.419676797352851551e-02,5.364486630509427423e-01,8.438135360907419447e-01
9.251494395122321066e+02,8.291864293725313928e+02,1.600148821206927778e+03,-6.259113035543285852e-02,9.017350025558086291e-01,-4.277339541894062958e-01
2.503871532827302417e+03,2.221768623329672664e+03,7.987881795765639481e+01,3.099835401106307842e-01,9.059657565384100497e-01,-2.883335791063321718e-01
1.566360668610202993e+03,1.516258241484479640e+03,1.541222317618324041e+03,1.640223070654571067e-03,9.120054728235981178e-01,-4.101747520363530075e-01
1.352871294274066940e+03,1.483560315732293702e+03,1.497044666828082313e+02,-4.291700101539464574e-01,2.182735163979624970e-01,-8.764529504906294344e-01
7.819932098031011947e+02,3.848153441937014918e+01,1.457843517182749110e+03,-6.901766144240008005e-01,6.004153844414118479e-01,4.039277250057190516e-01
2.522401335061052123e+03,1.305884415021354471e+03,2.928027117014906253e+03,6.947406732603087498e-01,7.105045298021438471e-01,1.118870414679353775e-01
2.150078420025161449e+03,1.952279015963104939e+03,4.167666569912937575e+02,-1.799704270813548002e-01,4.511465829104035485e-01,-8.741152132896561344e-01
2.006690106964066445e+03,7.778854576051619460e+02,2.692258263844248631e+03,-1.970938072765339444e-01,3.987137341557222547e-01,8.956457945688354183e-01
2.170343040686981567e+03,6.482781284086044025e+02,1.235649247933921515e+03,4.153989143893109803e-01,-7.742301275459585463e-01,4.775054465912934587e-01
9.341167484874719094e+02,2.272716653765593946e+03,1.669424093155571654e+03,1.115690814881869913e-01,9.812266213777308677e-01,-1.573107038809677949e-01
8.293366177102582242e+02,1.866352730990157625e+03,5.039902608945963038e+02,-5.362745478263137855e-01,-3.003702908344016986e-01,-7.887885000034797756e-01
2.419457217897952432e+03,8.785118220034803471e+02,4.908245370167656318e+01,-6.073972278701408878e-02,7.227874558896492038e-03,-9.981274687659474898e-01
1.378795357079296764e+03,2.157747736953268031e+03,1.083165434941805188e+03,-2.067144567375536670e-03,3.186273863777083215e-01,-9.478777956906936364e-01
3.813022795386298185e+02,8.980699090317178843e+02,5.147453229706211459e+02,-8.330197075882060931e-01,3.796914930704973767e-01,-4.023835693210597864e-01
2.987667832790700231e+03,1.954016938585080425e+03,4.439755970626466706e+02,-4.626811235419841517e-01,2.172193816397273436e-02,8.862586164999062266e-01
1.456883744453330678e+02,1.333369045169275751e+03,4.952020076477098769e+02,-2.603469503069314947e-02,5.441027852054363123e-01,8.386145442253821747e-01
9.486157376131394585e+02,2.212693751536067339e+03,1.650714075543337685e+03,3.889576908377488651e-02,-9.979979780925700705e-01,-4.987138328263651665e-02
2.444423730312576481e+03,1.020595036316170990e+03,9.758023647542083268e+01,-2.587160062323748400e-01,-9.333265969035137166e-01,-2.489327050262295504e-01
5.202452666342176144e+02,2.552999883985015913e+03,2.024076280349786998e+02,-1.783005789950608544e-01,8.446908912473358733e-01,-5.046842594868672371e-01
1.660705680115523137e+03,1.356413221495217158e+03,1.158999266050947426e+03,1.569393388336103382e-02,-9.445655483187220813e-01,-3.279475954609467059e-01
7.527500859903128685e+02,1.687931848277085578e+02,1.326518456128315393e+03,-1.857427098442039626e-01,3.697285383988624385e-01,-9.103847832829659037e-01
2.307149355781928080e+03,4.365025557125133560e+02,6.781154765336302717e+02,-1.225159049383779848e-02,6.631587654475910865e-02,9.977234602075223391e-01
1.642601061162159340e+03,6.317876936632793559e+02,1.455150886165949714e+03,-9.277160388816105829e-01,2.441663103413797831e-01,2.823575111380803304e-01
2.388863697330272316e+03,9.606595505210860892e+02,8.238088779132961292e+01,3.371391690541352126e-01,6.817304560352685852e-03,-9.414301381664061941e-01
1.185053636603692667e+03,2.743062900423113888e+02,1.827955604923357214e+03,-8.156414132026948982e-01,-5.382506084858904583e-01,2.121682528873708451e-01
2.350221801833660720e+03,2.882010344815155349e+02,4.668587192924424016e+02,9.172146586208683103e-03,-9.934077698060501671e-01,1.142666820029829555e-01
1.266247981280208023e+03,1.153844353410229644e+02,1.361094581700850540e+03,1.138250616157086142e-01,-3.852263422659269604e-02,-9.927536763973349165e-01
2.817770422350664830e+03,1.475853223976156414e+02,1.845125848277513796e+03,3.410878882142505853e-04,6.618159921294823889e-01,7.496662432180880575e-01
1.166975618699070537e+03,1.014131915293900477e+02,1.361543943633434765e+03,-3.447704067428546690e-04,-9.999514607227747431e-01,9.846691411630447907e-03
2.555378435975991124e+03,2.947021454300258483e+03,2.404128110497206762e+03,-1.270755439315127688e-01,-7.768636767513863450e-01,6.167127644850785018e-01
1.991912712699651365e+03,2.742269020471480417e+03,2.984043131193288900e+03,-5.406501083635906202e-01,1.222155745828027718e-01,8.323225418405014731e-01
7.007898671086725244e+02,1.965024009107356051e+03,7.641568215789160377e+02,1.530355182069138287e-01,-9.811719252626188714e-01,1.178209796410938232e-01
1.188543297543528979e+03,2.397642059331346445e+03,2.757892359359096190e+03,-5.505644522006728492e-01,-8.204351891227620319e-01,-1.541586339524023408e-01
1.846956822764527033e+03,2.693342347911512661e+03,1.406180220523236130e+03,-3.765448016515258733e-01,-4.657623705171926587e-01,8.007992423569207929e-01
2.606078818890589446e+03,1.368390276296985803e+03,7.595618826237435997e+02,6.037707083293512023e-01,1.764641724664328115e-01,-7.773810697458554131e-01
2.462226056497791888e+03,9.501655491033071712e+02,0.000000000000000000e+00,-3.700464845642803535e-01,6.727212024230658054e-03,-9.289888825384288173e-01
7.439294218817573210e+02,7.919447916238163998e+02,2.275965152681191285e+03,-9.685612241727467042e-01,-9.823548166755909083e-02,-2.285584064753100331e-01
6.547154794073813946e+02,2.200573590237251210e+03,9.794750674899671594e+02,-7.271349249029946948e-01,3.248547618927858371e-01,6.047678766782326187e-01
2.082044831492387971e+02,2.491210106820943111e+03,1.830549728927211163e+03,4.275252092623478273e-01,7.677716060440645807e-01,4.772305065664844137e-01
7.752951404344677258e+02,8.947737843620259923e+01,1.445402875698702246e+03,-2.954278830538128314e-02,5.833770191523702797e-01,-8.116640174259533991e-01
2.524539748755442815e+03,1.152515272659556729e+02,1.632045581847454741e+03,7.920361806353207745e-01,-3.792905129007426712e-01,4.783486128213452204e-01
1.789072197821190230e+03,8.120620310112074094e+02,2.794126991239063045e+03,-9.580025326139818276e-01,2.578601572789342988e-01,1.254563142822233690e-01
2.310214332694416953e+03,9.157411409417429695e+02,6.461410128371005612e+01,3.145049005472193080e-06,-7.360665653341585957e-02,-9.972873508192513503e-01
1.363365915150975525e+03,1.950952807372339350e+02,6.230274976051115345e+02,6.139741879074078756e-01,4.532302149872300956e-01,-6.462337570926393049e-01
1.278047775146807226e+03,1.131822854281205082e+03,2.167342268136224277e+02,4.037268119187401028e-01,6.474457629476884080e-01,-6.463889273332396046e-01
2.414267873579663956e+03,1.096246798037124563e+03,2.284786963276521874e+03,-2.312627491888464004e-01,-7.935344449105400377e-01,-5.628682133307385538e-01
5.699607049324836225e+02,1.326677637179121120e+03,2.858950971984807893e+03,1.913768866013853542e-01,7.502464032314515308e-01,-6.328548188273759312e-01
1.710006251206572642e+03,1.719802710165974986e+03,2.579290770839899324e+03,-6.483348584371330103e-01,7.531857703611098964e-01,1.112344670542559921e-01
1.080710363352763125e+03,1.648406750179505934e+03,2.671441494669321401e+03,-3.850588587039958932e-02,-6.100867193464707405e-01,7.913984405028837710e-01
1.329895501072288425e+03,1.973630756426172411e+03,6.380751358925730301e+02,-2.097320553940514032e-01,8.959154638335985466e-01,3.915966631676202070e-01
1.941625624230673338e+03,1.707102744238205105e+03,1.130931513623965429e+03,1.007668445340898639e-01,-8.240618805339966491e-01,-5.574657479105020741e-01
2.507067155386241211e+03,1.962516752560212353e+03,2.082560346451871283e+03,6.356624908830682541e-02,-9.977019954596891838e-01,-2.345336292725952454e-02
1.274145980152180528e+03,2.568337950972798353e+03,4.458737636092382672e+02,-7.865533755333489196e-01,6.154168313122406753e-01,-5.095008512942467149e-02
1.445161242401754407e+03,2.675915557626125519e+03,2.820452070919553535e+03,-1.462406127181209714e-01,6.464891413081732541e-01,-7.487759834305914852e-01
2.943495042984963561e+02,1.043839953912275860e+03,1.837932620328936082e+03,-5.882146386252650599e-02,9.343642079092513431e-01,3.514307362300383986e-01
4.768201132885038760e+02,7.534407476940906463e+02,2.380667806179061245e+03,3.465713508865983505e-02,-9.741936457341356936e-01,-2.230372695283901474e-01
1.799804158532261226e+03,2.075926413056834008e+03,2.028239445786520491e+03,1.055615752283112219e-01,1.270294873544214331e-01,-9.862658177072702870e-01
6.095770149153868260e+02,6.975159038501685700e+02,1.128475388035672040e+03,3.979841329860793198e-01,8.945821632860735395e-01,-2.033012125436730599e-01
8.508728412517572224e+02,8.317212435709610645e+02,9.169382144701260131e+02,-1.581277616282965705e-03,9.986230908125346417e-01,-5.243493164981310323e-02
2.909642524456576211e+03,2.782583582698411647e+03,1.345416058078142214e+03,1.766189356599243490e-02,6.521732994411226780e-01,7.578641336095430781e-01
2.048429770556069343e+03,1.171637616251215150e+03,2.412384401684321062e+02,-6.776181823127819248e-01,6.255521340867116198e-01,3.866757382338361637e-01
1.131189104651500884e+03,2.273002425596649118e+03,7.717640839688120877e+02,4.879411496483091609e-02,-8.562715464378801711e-01,-5.142160762808571928e-01
2.144336211941289093e+03,5.928146337218520330e+02,1.230689262802929761e+03,-6.581726369518738073e-02,6.409800363221141994e-01,7.647304628666098392e-01
2.003447500249133327e+03,9.181140547997364365e+02,2.337120103348258453e+03,-5.148513012192768717e-02,8.461973558605329071e-01,-5.303765797157441453e-01
1.747381145126137199e+03,2.943204042619573556e+03,4.106061476547976099e+02,6.870296702417072465e-01,-5.111684857368142820e-01,5.164271598174359212e-01
1.147162441514244165e+03,2.093455721099378479e+03,2.804730739333446309e+03,-1.465642021233242998e-01,8.885769073428275711e-01,4.346838096743532720e-01
2.893883985619834675e+03,1.445291600093438092e+03,1.663413383670809935e+03,2.429178799514876697e-01,5.406860925885377256e-01,-8.053877655398136159e-01
9.579744032438086379e+02,2.824588770963853676e+03,2.121210390759503298e+03,4.238525679916832489e-01,3.519363589277059836e-04,-9.057311282867862579e-01
2.462127081666712002e+03,1.433744985059466899e+03,2.152612527476626383e+03,-6.331566243452543818e-02,-5.240762616914035332e-01,-8.493145464561646651e-01
1.600183119651418792e+03,1.218232191299553961e+03,2.219361819689302592e+03,-6.567027958627298379e-01,5.104294673226110746e-01,-5.551605144413904736e-01
1.086235705343395011e+03,2.663328243559966268e+03,2.331302665685282136e+03,-6.542371543976378545e-01,6.519711540490252810e-01,-3.832849593887863726e-01
6.884105002518548417e+02,2.112426714942304898e+03,1.596825416407099283e+03,2.080854767200137345e-01,2.535395596084311642e-01,9.446788481234071888e-01
2.707592942539850810e+03,2.518137658539117638e+03,2.523920124812905286e+01,-1.898554789813556134e-03,-9.898390272180705995e-01,1.421798005544171184e-01
1.300900724894140694e+03,5.772879475389822801e+01,1.296740045286798022e+03,-4.081787844465593201e-02,9.728807131121708363e-01,2.276774447626098707e-01
1.860727189322910135e+03,2.391641243122318883e+03,1.289794079795622338e+03,-5.466722603872071762e-01,3.034102661969285131e-01,7.804432395052509630e-01
2.509659086530551576e+03,1.579310681695468020e+03,2.158182382463379327e+03,-7.864619787912016657e-02,9.859559611764702192e-01,1.473282667370427734e-01
2.557559600092648452e+03,1.631702460831440476e+03,2.655986548328325625e+03,-2.217541569366584739e-02,6.808240538807512898e-01,-7.321112337590462982e-01
2.843863192900930699e+02,1.294055527826967591e+03,2.581713469682195864e+03,-8.939070186050332989e-01,1.628587822220070036e-01,-4.176209515120448135e-01
5.480302389747338339e+02,6.492381995775839414e+02,2.247257642340146958e+03,1.097166078741172307e-01,-3.191861771482963350e-01,-9.413195261302368388e-01
1.542224710599085256e+03,2.512610793247428774e+03,2.114103813221629480e+03,1.851528303502852080e-01,-1.115795867581059336e-01,9.763546616021090419e-01
5.023753592107939312e+02,2.003710976520345184e+03,2.336346242906082352e+03,3.331247934679491644e-03,4.865010082341940656e-01,-8.736736643474554143e-01
2.821705160448788320e+03,8.786004115565398251e+02,2.956547703923999961e+03,4.960118121578557457e-03,-7.716060023244519783e-01,6.360814212072993801e-01
2.046182998733195518e+03,1.148251690499014558e+03,2.873933115149115451e+02,9.577607423564518663e-02,4.320978618692435935e-01,-8.967264808022770151e-01
1.028747582430092734e+03,2.113813184437807195e+03,1.470908909208876821e+03,1.570392965565992338e-01,8.283573153585818138e-01,-5.377386144112505928e-01
1.226084221840638065e+03,2.048784529223365553e+03,5.092700849964495546e+02,-7.063612512534239718e-01,-2.782690766328742571e-01,6.508610479338773347e-01
3.927432037730518459e+02,2.085710185544985507e+03,2.127007691670717577e+03,-1.036849406775140585e-02,-8.426059193168932149e-01,5.384308303421156960e-01
2.365244208050266025e+03,2.686106270294022124e+03,1.953493060208003726e+03,-1.951716088634880275e-01,1.709599838844095832e-01,-9.657539681533180431e-01
2.409228728064732877e+03,8.386213958844256240e+02,2.110649130552456427e+03,5.282632502603280822e-02,-1.778601462900377414e-03,-9.986021309616157637e-01
5.663234675846638311e+02,9.534677207622022479e+02,3.436533916859885096e+01,-5.078212652591354015e-01,-7.658411702082962291e-01,-3.944678244985242999e-01
2.762693686138849444e+03,1.396919163866951749e+03,4.712324820790141757e+02,6.238868010230919081e-01,7.753633378260934572e-01,9.786191222509477150e-02
4.702241661699093243e+02,7.860893535523547371e+02,1.853757544578708576e+03,7.049347636908544212e-02,1.033042128470756382e-01,9.921486327145985218e-01
2.677306387260663996e+03,2.749520947346035882e+03,2.029156339286782213e+03,-6.426805950105745069e-01,2.655486907740851055e-01,-7.186414583260718469e-01
3.481430172186341565e+02,2.308304756599083703e+03,5.066472561406364434e+02,2.724564081254602366e-01,-9.424814307979396677e-01,1.936395059703499566e-01
1.100987611717147274e+03,2.917843390664015715e+03,1.410523585952822714e+03,-9.888200112981004528e-03,-7.855590664133005330e-01,-6.187076665715315338e-01
1.229228597709211954e+03,2.752447409179824831e+02,1.033272379469226507e+03,2.818299365616458441e-01,5.057620502342856650e-01,-8.153383563898306541e-01
7.338707468405868894e+01,4.488035131737267989e+02,1.920295278928040716e+03,-9.999634297320900700e-01,8.295937051410481530e-03,-2.077649362745459961e-03
2.525783118723395546e+03,1.641657535374840108e+03,2.580330269464441244e+03,1.434401762482527265e-01,-7.438146902726453513e-01,6.528128540190358819e-01
1.614686937431317347e+03,1.139935460856684699e+02,2.675909915768370411e+03,-9.410447888229351854e-01,8.683111259613848776e-02,-3.269481049257114691e-01
1.805731799959148248e+03,1.618656620652145875e+03,9.808470275333953623e+02,2.047739479483807468e-01,-9.221173021480976173e-01,3.282793190573357056e-01
6.501471000267074487e+02,9.237828929869264130e+02,1.796967749383383989e+03,3.274096421996945394e-01,-3.001763422200643405e-01,8.959336413853711267e-01
1.260401680207743993e+03,1.292145810865697058e+03,2.818073658703337969e+03,-4.786293396788986465e-01,5.027564795107603013e-01,-7.198262828686432524e-01
1.770185699123322365e+03,1.856152746130431524e+03,1.174394817102294610e+03,6.497685006307907241e-01,7.601257166927168907e-01,3.128963150595077004e-03
2.792305849596910321e+03,2.669097067390827760e+03,1.367471337129358062e+03,5.066196989821072361e-01,5.471289936146958022e-01,6.663230034671242530e-01
3.516662890239998660e+02,8.359600573924370792e+02,2.078625672019613830e+03,7.051935316837648626e-01,-5.138224315135885290e-01,4.885576647079059587e-01
1.283640099943411769e+03,9.837117608274954819e+02,1.738562458102000164e+03,-6.706325962008872210e-01,6.524657602704848625e-01,-3.529027523093521967e-01
2.941253690555450703e+03,6.338339551898923219e+02,2.408498260143132029e+03,9.933115936874333807e-01,3.014853995058789857e-02,-1.114591556803614658e-01
6.146111732909447483e+02,1.988636901172289072e+03,2.570925369028385830e+03,3.187529925940935094e-01,-3.543632495483249878e-01,8.791036441068034168e-01
5.150390027718736974e+02,2.119870263513615100e+03,1.172305818514000066e+03,-3.965822528457255830e-02,-5.392101464950412870e-01,8.412369720144700080e-01
2.981479241597996406e+03,3.000000000000000000e+03,2.782112455926683197e+03,1.233911501278277430e-02,-9.880260200703364637e-01,1.537931399792345499e-01
7.347322028103502589e+02,2.197633155233623086e+02,3.000000000000000000e+03,4.388294485348042118e-01,3.968747499239164145e-01,-8.061756309709866564e-01
1.228312273634082430e+03,0.000000000000000000e+00,1.417863111248277619e+03,8.653916214093941572e-02,1.805360177294018376e-01,-9.797539077331375301e-01
2.253852018145884813e+03,6.856021188416272594e+01,1.537562276397855157e+03,4.451696008541483618e-01,3.035556462498737243e-02,8.949315985993882006e-01
4.969121883402889353e+02,3.343858861481385816e+02,4.491007800140984614e+02,-3.108152544641444859e-01,9.256094846280027433e-01,-2.159651813581815460e-01
1.222392423221266199e+03,1.862158115515539066e+03,1.714261484452432796e+03,-3.861640416897366701e-01,3.572450555681898621e-01,-8.504430040737169794e-01
2.010065808892093628e+03,1.989892517947297392e+02,7.513959882573338973e+02,-7.062497648889638248e-03,7.520711433880756802e-01,-6.590440929178502660e-01
1.097885855235331064e+03,8.251654847236953856e+02,3.585352316856796620e+02,2.752469502691328937e-02,-4.813650404123206300e-03,9.996095337347790100e-01
2.405227202874625164e+03,3.000000000000000000e+03,2.701081796917339489e+03,3.806428531558689876e-01,-6.005149896294140754e-01,-7.032017957682875631e-01
2.886416639418682280e+03,1.933341866169860396e+03,3.624165846120112633e+02,-6.777522951522909310e-03,6.885432983844188559e-01,-7.251635618483232015e-01
1.175389128101317510e+03,1.536855881987926296e+03,2.519420044090145893e+03,-8.572029500336597607e-01,-2.868762723585172592e-01,4.276740660962186080e-01
1.405163946337238940e+03,2.294111973580651465e+03,2.518950040041402644e+03,3.850352855324680468e-04,4.473276761241501420e-01,-8.943700587123858403e-01
2.746878325599159325e+03,1.881865255177567860e+03,2.595664873786281078e+03,-8.710777156258010523e-01,5.094609430925499394e-02,-4.884957613068598992e-01
2.397258322930490067e+03,2.616545646167939594e+03,1.071611298691463617e+03,1.478208356825520264e-01,9.876623402445423583e-01,-5.169238049060887602e-02
1.825088489595129886e+03,1.778482983135936024e+02,1.608505372807363983e+03,1.188623598502792783e-01,8.008973723991053006e-01,-5.868859670285460073e-01
2.462988635406647063e+03,2.466686121033247673e+03,7.651457499594325782e+02,-8.933020496126881094e-02,-9.862133845348142192e-01,-1.392956375697551596e-01
2.551394692709866831e+03,3.296907195931643173e+02,3.920910036067257920e+02,1.226357186944271871e-01,5.641253749831759423e-01,-8.165311027758785922e-01
1.396787034585286619e+03,2.656202665932687069e+03,2.695225788454507438e+03,8.562342004205257817e-01,5.118845561552239909e-01,6.954994751969345579e-02
2.009358960740842122e+03,2.737716839625116336e+03,1.927120523196581189e+03,1.575467496159849200e-03,-2.523450682104804721e-01,9.676360289137732051e-01
8.791355266712693037e+02,3.629321428068401474e+02,2.183005096006085296e+03,-2.733612773972449866e-02,4.014883367903157030e-01,-9.154560893573997493e-01
2.975050819720362597e+03,1.330751949743691739e+03,1.856479155633995106e+03,1.087856249471228290e-02,6.501580512359859121e-01,7.597211102049711284e-01
2.754575632799534105e+03,2.496719373003759756e+03,3.127759037752466043e+01,2.172634523206549151e-01,9.661964854921498702e-01,-1.387838020387409943e-01
2.052949443716811857e+03,1.001509947997070753e+03,1.689821294964385288e+03,-4.301122045309078157e-01,7.851994508166368902e-01,4.454944600674786148e-01
2.138011084486274740e+03,1.329327659077682142e+02,6.769214317482211527e+02,-2.561757300283499239e-01,-8.813744070183585633e-01,3.969296537139532788e-01
2.723365646339241266e+03,1.197856796069323536e+03,2.234235778122490501e+03,5.010815516036508377e-02,1.984786151437976653e-01,9.788234836358520319e-01
2.651802962183847285e+03,2.086662394085980395e+03,2.687548159391676563e+03,-3.171465358851131150e-02,6.982074100523131266e-01,-7.151926966180526257e-01
2.017276560898223579e+03,1.671635075566402065e+03,1.426982604383772696e+03,1.183995455666531950e-02,2.851411650420527643e-03,9.999258397139739740e-01
6.187056766449918541e+02,4.151986983886558846e+02,1.167537374923234239e+02,6.553611351945516639e-02,-6.813784403355733765e-01,-7.289913846340205783e-01
2.441396751820419468e+03,1.137065623155873936e+03,2.277061209131764372e+03,-1.528060266757183538e-03,-5.837826086806486847e-01,8.119085729525448158e-01
2.622621584220817113e+03,1.209909592175256705e+02,6.094609777239890036e+02,-6.455806985953146393e-01,-7.610134117558648992e-01,-6.390734487430993482e-02
9.596476115603620656e+02,2.244612693335796848e+03,1.603340743112717519e+03,-7.370039065728191223e-03,1.400974119811540519e-01,9.901102957147513983e-01
9.819746675624513728e+02,1.082439212310958055e+03,2.947150804221348153e+03,-1.766158550608911901e-02,9.241278856456928148e-01,-3.816748870038904062e-01
2.455426878635852063e+03,3.745650919000205477e+02,3.677641902291252904e+02,-8.552350567093931766e-02,-3.490310146972654820e-02,-9.957246122726638449e-01
9.413965984421373605e+02,1.200872542946905696e+03,2.324723982975960553e+03,5.161355797977732474e-01,-6.463907280985959902e-01,-5.619458069022167379e-01
2.490602655984075682e+03,7.377956824749983298e+02,2.628165613771866447e+03,5.294161943178842256e-01,2.388622782141679723e-01,8.140413412353857403e-01
1.792515773636517679e+03,1.886946098032424516e+03,1.120356112803917085e+03,-5.322830408716590078e-01,8.003397620152743475e-01,2.759185201064872639e-01
1.283608541362955521e+03,2.558058085725112051e+03,9.128532314338455080e+02,-8.279291245374645891e-01,1.488746215936393169e-01,5.407122264088155550e-01
