x,y,z,nx,ny,nz
1.451537627318230363e+02,2.198970586670827743e+03,1.606291273877246795e+03,2.012301806255706316e-01,1.982918917052083410e-02,-9.793432583431816996e-01
2.040081812232102720e+03,1.428936221493913308e+03,6.379101618011628716e+01,7.168244083630761487e-01,-3.960686318798893879e-01,5.738400529901328539e-01
1.970936904640494731e+03,2.529732208841076329e+02,3.826777554760825950e+01,4.897437791629122988e-02,9.324675355182368008e-01,3.579187135541507803e-01
1.155427892303087447e+03,1.341013487001720705e+03,1.099000721446684565e+03,7.350274647856216426e-01,-5.520240594616321328e-01,-3.937055546805532380e-01
2.505044506107590678e+03,2.640430872816496048e+03,2.191971783878836504e+03,4.256164772094191834e-02,-4.702912645127289570e-01,8.814843348955765379e-01
2.883780385224502879e+03,2.024418470732608967e+03,1.217255010098039975e+03,-9.531551262523527690e-01,2.674151500291954142e-01,1.413663426481859553e-01
1.526850676910040420e+03,1.581764850745847184e+02,2.946777814531923468e+03,8.534396999111781845e-01,-4.216241133219909010e-01,3.063882923366412214e-01
1.945728326335747397e+03,2.721992612230871600e+03,1.502458619898224242e+03,-9.218953460304299408e-02,4.637178099593102787e-01,-8.811735824661423022e-01
1.544847725181339456e+03,1.544581145307331099e+03,1.490790035703729018e+03,5.721296828841371945e-02,-4.171806310427886855e-01,-9.070209464738782090e-01
2.059906174449773061e+03,4.240427647209544944e+02,2.048263338106228730e+03,-9.863931778688207058e-04,9.904312046892368437e-01,1.380038253322193598e-01
1.377320879186017919e+03,1.497612809227786101e+03,1.431198633673662471e+03,1.425671282958616004e-01,-9.107200530749857137e-01,-3.876384899059515665e-01
2.681873981245478717e+03,2.579265332313618160e+02,2.971798426780103455e+03,-9.848176939568505928e-01,-1.160637129307520998e-01,-1.290864989463997026e-01
2.415793804204053686e+03,1.430905499305535159e+03,9.592757247823206512e+01,5.100238664381805641e-03,8.134519798569814775e-01,-5.816097179658566985e-01
7.691709102647322425e+02,8.727070935350341188e+02,2.373004870185249274e+03,-1.906054688817243048e-01,5.840307983916162016e-01,-7.890358558154562107e-01
1.719747731431014017e+02,1.267978854619400636e+03,2.289032316501076366e+03,2.682627903280387482e-03,9.186869538782990174e-01,-3.949773212240731413e-01
8.333591038965200823e+02,2.204637165519017799e+03,1.187755751815582471e+03,-4.753273120831771892e-01,-6.152679155075319040e-01,-6.288953319391062946e-01
1.815236993517934025e+03,1.172749142397828791e+03,1.808638676010009704e+03,5.322837227160153286e-04,9.149576727994755965e-01,4.035494686645074713e-01
2.453710421820024294e+03,1.460499556039924755e+03,0.000000000000000000e+00,-7.374927572793940622e-02,6.932763915226869411e-01,-7.168883380882175027e-01
2.942178071971507961e+03,5.850583675613809191e+02,6.067808410450490442e+01,1.608312949902961433e-02,-9.738753369917882985e-01,2.265130480670999313e-01
2.129923247421005726e+03,2.942618771213730270e+03,1.709757801722690147e+03,5.333833097376722981e-02,-9.897179129222005711e-01,-1.327157688063335672e-01
3.776320592785682493e+02,2.777334257126919965e+02,8.416053963944088991e+02,7.644034664812074387e-02,-4.806875191780243806e-01,8.735538805996980738e-01
1.248920065761741853e+03,1.560117954837199932e+03,9.315846731327329735e+02,-1.769400874930760204e-01,9.597015669666189019e-01,2.183234018600822279e-01
1.780335139284035449e+03,1.162947416901004658e+02,2.730753046595686101e+03,2.071322379048928970e-03,-9.877469752363943201e-01,1.560500641940143762e-01
2.805752097120263215e+02,4.599176898402845950e+02,1.782929047070143270e+03,5.672631527339002666e-01,7.980531609295993256e-01,-2.032822370023283920e-01
1.459295442612979286e+03,1.518949422738346584e+03,1.552778215815769954e+03,1.432784551491285141e-01,9.864556656017562375e-01,-7.985301554903961874e-02
2.529722455396326040e+03,2.665971011261856347e+02,3.581897989183191555e+01,-8.206604644793129566e-01,-5.353377789812366894e-01,-1.998245841632979580e-01
1.384785897426943848e+03,1.487707175570822528e+03,1.471222284690553579e+03,-1.488488511403422976e-01,9.589180536557064816e-01,2.414957264370363177e-01
3.738286172181330471e+02,2.146741814441010774e+03,2.116515576171926114e+03,7.451994543408089200e-01,-4.671061458470482930e-01,4.759092579075098750e-01
1.204495032572139507e+03,4.715945517282366382e+02,2.586396633891589772e+03,-8.265562859618881542e-02,2.225776484208535078e-01,9.714047753047191369e-01
2.425311231297388986e+03,1.486199009621176401e+03,8.838805435744308170e+01,-2.055759052822604405e-01,9.034719373513784291e-01,3.761342919569101162e-01
8.035692878709146498e+02,1.581614670687185480e+03,8.659763747041156421e+02,2.601676837369321267e-03,9.930685010306870841e-02,9.950534562525977789e-01
1.280890161963310220e+03,2.931824639965875122e+03,7.682298566176160648e+02,4.883347365164309936e-03,-9.892669752650786741e-01,-1.460376820152703148e-01
1.182489289249017020e+03,2.693272544029808614e+03,1.955823911363208481e+03,-3.296682931846738334e-04,-6.045140236890099716e-01,7.965944303609834298e-01
1.639700475672849279e+03,2.814329038741004752e+03,2.122127851189165085e+03,-3.673717224261315861e-01,9.235645186162697584e-01,-1.098480655940523576e-01
1.873683482930170840e+03,1.222887787323791144e+03,1.814061492584966345e+03,1.301963611132429810e-01,-2.265446395616650399e-01,9.652597753137469594e-01
1.715265208710073921e+02,1.264031257134850193e+03,5.617704414965622846e+02,-3.515740669525074802e-01,7.999128317391448473e-01,4.863487812933597887e-01
2.811848036718308776e+03,1.118144191777792230e+03,7.885146167353293549e+02,2.556303445193702437e-02,-6.319814857389969287e-01,-7.745617683262834285e-01
1.429947711309655688e+03,8.994562900079273504e+01,1.963962460254528878e+03,-9.194789713363271666e-01,2.893816868902195361e-01,-2.661139991861770082e-01
2.471359361266078736e+01,5.155053521333533126e+02,1.368598072271513047e+03,-1.215643110903677770e-01,8.976538559907087933e-01,-4.236032024125127027e-01
2.825123873744214052e+03,2.014720307565354688e+03,1.854229550276889995e+03,9.794636806249528149e-01,9.093826493890733165e-02,1.799475765508433689e-01
6.875663475196985246e+02,2.486970452626723727e+03,2.120936496782813265e+03,-9.541659983110808430e-01,-8.320603010566278088e-03,-2.991621888417035358e-01
8.907465924930778556e+02,1.078991798026298511e+03,6.338285055734324942e+02,9.158653725268075529e-01,3.781194624901483836e-01,1.349677424145989957e-01
9.310953841780457196e+02,2.474946158963463404e+03,2.134923937249585833e+03,-4.896722491620946749e-01,8.360973579225650099e-01,-2.473101220642652809e-01
1.654841767452104477e+03,2.817471338304978872e+03,8.611969504073857706e+02,-1.343540079567459855e-01,9.501691820906844610e-01,-2.812961534594428659e-01
1.001501647817637377e+03,7.420012745104719443e+02,1.914840560805051609e+03,-2.241699374696782057e-02,-9.034846210104363617e-01,4.280338981774420293e-01
1.685954206503472278e+03,2.785130922128967086e+03,8.818113260442277124e+02,9.007741273035742985e-03,-3.469350999805109748e-01,-9.378458812612394668e-01
1.124330361420076770e+03,2.744214295494545695e+03,2.494518357559574724e+03,1.266204606284801193e-01,-5.027517077861398676e-02,-9.906763680200576516e-01
2.234387758029733504e+03,3.708028949735489732e+02,5.684262329169567920e+02,-2.998769273724245510e-01,-9.389696859121356987e-01,1.685519426400622078e-01
4.231399769408113798e+02,2.009622081610785926e+03,9.207842239425310709e+02,-8.628136224365775542e-01,4.838763749372507195e-01,1.463431129758290261e-01
6.019280919608199838e+02,2.883651685611914218e+03,4.118270000588609037e+02,-7.457948109634326972e-01,1.742796363022958497e-02,-6.659477201880948938e-01
1.346805760076668093e+03,2.427270095819054859e+03,2.930775383897782376e+03,5.972974647295757888e-01,-8.003647953602851528e-01,5.149692200034938772e-02
1.301959078142783937e+03,2.839501445907253583e+03,3.273365835775105666e+02,-8.651714992371972376e-03,-5.738069170953273845e-01,8.189449125070908941e-01
3.214829765364586365e+02,2.158281095585551270e+02,8.261214065032580720e+02,1.885782413540550845e-02,-9.297444331710899013e-01,-3.677222748981178180e-01
2.521700640341289272e+03,1.084802242880019776e+03,2.008451089313930424e+03,3.920378198285959792e-01,-5.292218516994592337e-01,-7.524829430012596188e-01
1.299712941262734148e+03,1.429305593817307226e+03,7.102738096165358002e+02,-8.839029542733740918e-02,-8.690311122855799431e-01,4.867977830207897427e-01
1.679672625010564616e+03,2.641759379835671098e+03,4.337329437313973699e+02,-5.849111205102250910e-01,-7.003157159483602845e-01,-4.091905168735077147e-01
1.190484217035888378e+03,1.877281532934547158e+03,7.621695025069773237e+02,6.225980974044086347e-01,-1.253956972196405284e-01,7.724296267150883022e-01
9.692496439611102232e+02,1.807365391395357847e+03,5.931408579792223463e+02,6.255991026843807368e-02,-8.627981360897556407e-01,5.016628688544213510e-01
1.221256704712436658e+03,2.867104150353017303e+03,1.162578208837960801e+03,7.726859316141293510e-01,2.157680840187849725e-01,-5.969929522234476149e-01
2.893431924193948817e+02,4.661383054493077793e+02,1.635919124759270517e+03,-6.942364362322398508e-01,-1.035898637994457777e-01,7.122534034496230682e-01
1.882838969172397583e+03,1.225972081296804618e+03,1.773175463941112412e+03,3.142421774020091596e-01,-2.169148643479043848e-01,9.242292981541834207e-01
1.446677702097656265e+03,2.689737303411337052e+03,2.499958233247075441e+03,-3.762014853348741861e-01,-1.004765386433402741e-01,9.210737796800470001e-01
1.389912433193517245e+03,1.691475240266955097e+03,9.413040285001548000e+02,1.653357802569679381e-04,3.794538696623381835e-01,-9.252106427524259269e-01
1.125290827837301322e+03,1.763106716365520015e+03,2.032866178571662203e+03,5.429769201286922531e-01,7.714592938613670237e-01,3.317026109672347456e-01
2.038225079252615387e+03,8.860650269016015272e+02,2.402112811385546536e+02,3.001872881989313124e-01,1.860103515964000309e-01,-9.355681381400050567e-01
2.847880783895973309e+03,2.036502205782978763e+03,2.589313585619401238e+03,-7.458364348976488367e-01,-4.052291816647636824e-01,-5.286939783149333660e-01
1.358342498698289774e+03,7.302521836028785174e+02,4.102589829797678931e+02,3.853205807852531917e-02,5.088881035816071874e-01,8.599698707125434938e-01
1.279690673712397938e+03,1.584279370624097737e+03,5.218872723757148151e+02,-2.166782060522840295e-02,2.746846943445330758e-01,9.612901873227823746e-01
1.642775742259573917e+03,2.449966342502122643e+03,6.917579352910466923e+02,-9.247604452614411885e-01,-3.569357571371612470e-01,1.319658446598306334e-01
9.786294589825868115e+02,9.595111297000904642e+02,1.315013728042319372e+03,4.440781363169075679e-01,1.237694036974846257e-01,8.873983004004859509e-01
1.803383740553830194e+03,8.946842049480010246e+02,1.368718249835447750e+03,-4.756330824743658092e-01,-7.395099406599844882e-02,-8.765297606656512475e-01
2.091485763866026446e+03,1.070097183561190832e+03,1.055459739987652341e+02,1.126040605259130828e-01,1.715156741848030963e-01,-9.787250375166709482e-01
1.969922899086470579e+03,2.992518700473466652e+03,5.388758172510558779e+02,-6.962236640456013204e-01,5.918231706664289771e-01,4.062240075195613365e-01
2.840738500656761062e+03,2.875394744196709780e+03,1.233825098705924574e+03,4.979735388949167452e-01,2.817225930031901915e-01,8.201553116038642344e-01
1.794894831606249681e+03,1.427235513485906267e+03,1.139138080753169334e+03,1.016536243551612734e-02,8.994048269348147162e-01,-4.369984241309236017e-01
2.823642288103624651e+03,1.584279862334653217e+03,2.884513983075274155e+03,-2.158379467530171028e-04,4.551682019993074091e-01,-8.904054477049758720e-01
1.873747287294957232e+03,1.705877194765505237e+03,2.723891381275144795e+03,5.150933955148266907e-01,-6.034239919852929512e-01,-6.087349832180990461e-01
1.589138065504014321e+03,1.415241221843426445e+02,3.284067076453617346e+02,1.052161385593401582e-01,5.504785774949740862e-01,-8.281925500182741873e-01
2.044615808096710225e+03,2.254271071682565889e+03,1.332986742582128954e+03,1.246849972674405893e-01,-3.325824031612599208e-01,-9.347954838165937197e-01
1.376377859558375576e+03,1.104494134804219811e+03,2.073102127790375562e+03,5.707182831702549697e-01,-3.688045418739647752e-01,7.336646721413888628e-01
9.880060766421522658e+02,2.436213271267624805e+03,8.576893305901231770e+02,-9.538463653522371022e-01,-2.300503183666896267e-01,-1.930128553327767893e-01
2.087450363235522673e+03,2.915618192740194900e+03,1.713726260209835800e+03,4.032630397245924245e-03,-2.073519283619776332e-01,9.782581028014275537e-01
1.888435181098286421e+03,1.669544030465045580e+03,7.151456735803333231e+02,-2.119590558275405989e-01,8.195762732313877086e-01,5.323232955721994841e-01
1.919908152978374119e+03,1.334458297367771991e+02,1.608669398805626543e+03,-2.765586074739822056e-02,3.914341500348904046e-01,-9.197904432819377085e-01
1.648808835974979502e+03,4.956253234867471065e+02,1.911734771169152225e+02,1.574819824456826778e-01,-7.426675025764596372e-01,-6.508797168615889639e-01
9.981670382138045170e+02,5.417853200198141650e+01,5.407050089719618882e+02,-8.801280418428120145e-03,-9.757844849946361032e-01,2.185570321603698130e-01
1.605424692963088091e+03,1.484894416486619093e+03,1.089991018887269831e+02,-8.447729186907605436e-01,-4.771793568196323609e-01,2.421953287573809788e-01
1.189395417009542143e+03,2.592468278877647208e+03,1.591015628475932544e+03,-2.766686471462847727e-02,-6.066704951593520079e-01,-7.944718087509268223e-01
5.118995696846681085e+02,2.208691372557732848e+03,2.932629472167334370e+03,7.951499054254015375e-01,5.535255003272011587e-01,2.476815463240988890e-01
9.755662119647304280e+02,1.303735407021302763e+03,2.362586319184852073e+03,-3.868776879432642840e-02,-3.339017664640072103e-01,-9.418136051777614703e-01
9.140460055680495088e+02,2.098086833349411336e+03,7.412444109328994273e+02,-5.218329752196556454e-02,-2.522259104219569115e-01,-9.662603135654226350e-01
2.154609719667271747e+03,9.206072876915744700e+02,1.171710158834934390e+02,6.785065664138857471e-03,9.158802820709024406e-01,4.013941601439381390e-01
1.575136596418890122e+03,2.020710707679707411e+03,1.889542661423074605e+03,-3.240709222752400920e-01,9.083026731687207089e-01,-2.645076393041070340e-01
2.656610684288931452e+02,4.853442777541516762e+00,3.802384592294232561e+02,4.096267637314527921e-01,3.609903087591364579e-01,-8.377898969412796992e-01
2.113026909859496755e+03,2.545549571289169762e+03,2.811238704690960276e+03,-6.540433675918193579e-01,-5.170579828112077392e-01,-5.521578720985123034e-01
1.343385634033933911e+03,3.463867530914923805e+02,1.434854454744738632e+03,3.802632255046266563e-01,-2.132467479807178407e-02,9.246324337668314630e-01
2.520365913394256836e+02,4.606879072122340517e+02,2.806041807284952029e+03,-2.372283917527023278e-01,-4.679837527651977691e-01,-8.513012964246140513e-01
2.044065365754096547e+03,7.832371768909287084e+02,1.464148770448971391e+03,6.858721283264334057e-01,7.096664055055660336e-01,-1.610993993836667137e-01
1.963042661586402119e+03,7.530469662013733796e+02,1.761740520905606445e+03,2.296987298482434381e-01,2.295449596257364000e-01,9.458052680211306296e-01
1.495796903535534284e+03,1.513982562050634215e+03,1.557860473796998576e+03,-8.394239276514075046e-03,-6.324389778903036774e-01,7.745647009721244869e-01
8.947321693575611334e+02,2.110881102262686454e+03,7.321315345019739880e+02,1.161929555162089234e-01,-3.141084635675686632e-01,-9.422500040878905025e-01
3.299272224115889003e+02,4.909648402804660350e+02,9.114706960637660131e+02,-3.783362496401003749e-01,-9.256551499352165813e-01,4.921951510869604363e-03
2.542283878284656566e+03,2.695812185671921270e+03,8.488427575688692741e+02,5.981728979633432752e-01,1.463193027121936218e-01,7.878958343562638689e-01
1.108610339854371432e+03,2.977872263146845853e+03,2.088047264783353683e+02,9.473558233028158693e-01,3.200276178050036613e-01,9.963327571572701616e-03
2.815697126419263441e+03,2.046925764072870152e+03,1.686686882488133961e+03,-7.251783222846271970e-01,5.826944154157132072e-01,-3.668564012414037845e-01
1.816509037321615949e+02,1.789733618041762384e+03,3.000000000000000000e+03,7.741810085005411401e-02,8.922598362405443906e-01,4.448357250634978333e-01
1.850511504936383972e+03,1.823295086454693092e+03,1.329931573856623345e+03,3.746801339377218154e-01,4.124176207403235095e-01,-8.303773258798083923e-01
4.036848306452752126e+02,6.501922022386280560e+02,2.640668462705939874e+03,3.298900766058762701e-01,6.072514376871467334e-01,-7.227850501939442340e-01
1.399705539054494920e+03,1.890543206548035641e+03,7.663608624969650691e+02,4.633571906871251922e-02,-2.982972942752782908e-01,9.533476414018307032e-01
1.220972361958661850e+03,2.121448714082844617e+03,2.656403197688463933e+03,8.928994823776292833e-02,-7.184571276076761985e-03,9.959797623843953396e-01
8.799469495878155385e+02,2.548798578778284991e+03,1.202780714445236981e+03,8.649273827116972513e-02,-1.028217527121303987e-01,9.909322345123103837e-01
2.952291721106633304e+03,2.927554775423473984e+03,1.758139163089187605e+03,4.270392568084204754e-01,5.552016013451779308e-01,7.137146873984463458e-01
2.486675338834790239e+02,1.375570336476190960e+03,3.568407090119828808e+02,-3.756477991807954595e-03,2.802142305473824813e-01,9.599301400997030109e-01
1.267195297805004202e+03,1.818773943079153014e+03,1.677145512702034466e+03,5.071322112131288612e-02,-2.702385174453619809e-01,-9.614568700115641020e-01
2.058708422189514295e+03,2.329261838975024148e+03,2.322465408395771192e+03,-9.499058802475708330e-01,-2.687201836795435339e-01,-1.595878490184017284e-01
1.451797069576563672e+03,1.791447353301868134e+03,1.084842912348691243e+03,2.696079851561855589e-01,4.415871717846894251e-01,8.557524782641422467e-01
1.676137296723627514e+03,1.713552090301151338e+03,2.305686910532169804e+03,1.018305294801412492e-01,-7.643116268129526159e-01,-6.367560603436234201e-01
2.871559862015888029e+02,1.474536374798662564e+03,2.697345541516925550e+03,1.356515906848745900e-01,-9.818875459650412418e-01,-1.322705296859900959e-01
1.420688122594196557e+03,8.944431538819640082e+02,1.831417418819248951e+03,-2.837212973715902975e-01,-6.798982131048352251e-01,-6.761957151850593872e-01
2.746392201582766120e+03,9.181344093312266352e+01,2.273912899680135524e+03,-2.996498827177633204e-02,-3.716721247501365566e-01,9.278803431270603586e-01
1.649675560201799044e+03,1.979468225636315992e+03,5.626779367566456358e+02,1.767944399067328254e-01,6.369563660885483314e-01,7.503534591892915273e-01
2.577692033750483006e+03,6.850556894177553886e+02,1.198967944002658896e+03,-4.376957965327613609e-01,6.942665988245941833e-01,-5.713285214778637267e-01
1.917545163913200213e+03,2.627457062067910101e+03,2.259349198758499369e+03,2.504165194721377774e-01,-6.545768281477771788e-01,-7.133167198569341227e-01
2.865141724895856441e+03,1.599322451826217559e+02,2.341022712543552643e+03,1.506554336960562179e-01,-4.292537225360378850e-01,8.905302813418572994e-01
2.988846006119566709e+02,8.252052133372559410e+02,5.412837677736083606e+02,8.937552972148138375e-01,-3.127058877491911137e-01,3.215843535799745023e-01
2.405155034210178655e+03,1.586990204024240938e+03,1.594865156474222886e+03,-6.653576731245993692e-01,7.050690976598382731e-01,-2.453094664691118643e-01
2.249586354485302309e+03,3.395922964479976258e+02,2.772046487720688219e+03,4.403836991438934145e-01,-1.801642635861988584e-02,-8.976288798326428342e-01
1.958736962758216578e+03,1.993255636486724711e+02,6.966065123506906787e+01,4.968970910802449591e-03,4.511082182502224591e-01,-8.924554245200132518e-01
2.561031223875366322e+03,2.966496499171399137e+03,1.493477066390861864e+03,7.689988027774794510e-01,6.392478656439648521e-01,-1.734242324150425891e-03
7.689225173812604908e+02,2.614593162094650324e+03,7.851866283403402349e+02,-6.233750733580567527e-01,6.122229058090281617e-01,4.864017182520916638e-01
1.245908419640405214e+02,1.015726647387625917e+03,2.179677219662481093e+03,1.517475896532552264e-02,9.215982452408922991e-04,9.998844319955275672e-01
1.898819935158336420e+03,8.674159801793738325e+02,9.604903723229296020e+02,4.169844094730268402e-01,-1.228139913019704946e-02,9.088306605148375183e-01
1.158914296162908357e+02,3.355509767142911528e+02,5.448155242299295651e+02,9.824217959761861740e-01,1.469600381716480442e-01,1.151093478893547850e-01
3.455933143153576452e+02,2.005359223855946766e+03,1.410466623495990689e+03,9.639488676336201989e-01,1.797315150958392616e-01,1.962120359947767956e-01
2.079685025475182101e+03,1.387579502650325821e+03,2.822721510171500995e+03,-6.230067910120532515e-01,7.313339115248546074e-01,-2.775126090948298874e-01
4.751060626242342977e+01,2.063201664569605327e+03,2.028129660989901367e+03,-8.126930866208201820e-01,6.900615817346267625e-03,5.826511207060925956e-01
1.050047902296653319e+03,2.482815717226614652e+03,1.952713191031642737e+03,-7.822050003327059020e-01,3.353785017925460243e-01,5.250491386431357377e-01
2.374255155322945257e+02,1.307241352978063787e+03,1.874838707860254317e+03,-8.939919227742919583e-01,2.280384986348871768e-01,-3.857160680535243191e-01
1.205339516661047355e+03,1.042454701616308739e+03,7.339846541491269818e+02,-9.533464005857276991e-02,9.881711061053998213e-01,1.201214862684149287e-01
1.432067702631331713e+03,2.661330659444348839e+03,1.664197516754580874e+03,5.801432382564282175e-01,-8.122403878093957807e-01,6.082249186434052907e-02
1.949331021321318929e+02,1.044472503293339514e+03,1.545827095130553062e+03,-7.061418305196215384e-01,6.792760603063016100e-01,1.998693300262648631e-01
1.435563481077162123e+03,1.473225624576541577e+03,1.511498415847055867e+03,-1.936604306233301494e-03,-4.302531466682457673e-01,-9.027061976888350880e-01
1.444365447076114833e+03,2.902536272708327942e+03,7.244393224865109460e+02,-4.852461607396291871e-03,-5.958056916056129193e-01,8.031139592029925556e-01
6.990485933353975270e+02,1.306046842133410109e+03,1.544264851276366471e+03,-9.870416818518649160e-01,1.471638259034257212e-01,6.396504226925880943e-02
2.224672514481967028e+03,2.167329287544631825e+03,1.371129173080803639e+03,-1.729468710355327662e-02,-8.958353163234623606e-01,4.440495240686925249e-01
2.174436922926784518e+03,1.450716298641779758e+03,7.138461529659683720e+02,-7.087100026485021464e-01,-5.555296037910114476e-02,-7.033093208106077077e-01
2.932221651770200424e+03,2.242164908681045858e+02,2.777518058876674331e+03,1.235412828221825465e-01,-2.930105084423067496e-01,-9.480940846672499811e-01
2.669183615547110549e+03,1.671376395022727593e+03,1.269708642376067701e+03,-5.742038992597272573e-01,-1.402268120486444003e-01,-8.066141104999337008e-01
1.023208337202402959e+03,4.605377550241416316e+02,6.983409927381556415e+00,-6.817060203522591344e-01,-7.251293685187473192e-01,-9.728463767259487582e-02
3.698974259564639055e+02,1.161915739077300032e+03,1.614191005722583895e+03,-1.529910093933801452e-01,7.370335535204435295e-01,6.583124577507417641e-01
2.684428166758323641e+03,2.474163316570277857e+03,5.837619356242122421e+02,-4.196144028552897809e-01,8.386066340467550617e-01,-3.473653210226523291e-01
9.714584149220224845e+02,2.486974604320862454e+03,1.240026208507139017e+03,2.543802801892713905e-01,-9.408717025635585651e-01,-2.237210592813702326e-01
7.862883222796912719e+01,8.698107991639259353e+02,5.626459553195084027e+02,-4.239670310897840078e-01,-3.196027949499980481e-01,8.474113582015900814e-01
7.489534937814479463e+02,6.677575774279058578e+02,1.708293968073353881e+03,-7.766824768067913665e-01,2.055799804802685149e-01,-5.954000351419208581e-01
1.112100952351462411e+03,7.678065023436122374e+02,1.872824711918049843e+03,3.585356962824726851e-02,7.033170065354198419e-01,7.099716260971059567e-01
2.079329509051691730e+03,8.468269372039337668e+02,2.181343744837035672e+02,-9.072789473642411690e-04,-9.813601853208114845e-01,-1.921753457444897450e-01
1.776765104211996231e+03,4.602128408320059521e+02,1.982575104686165787e+03,-4.327802553210257641e-01,-1.610670223632943709e-01,-8.869941741134999003e-01
2.713381624305443893e+03,2.525469084878704962e+03,5.565145304117630758e+02,7.647610357001579651e-01,-6.424952045504448428e-01,4.837840845360608794e-02
7.772185378096180557e+02,1.242477763390296559e+03,2.947649943898373294e+03,-5.324497625006544554e-01,-2.409831376729960895e-01,-8.114335325646053754e-01
2.644846732884573612e+03,1.416028073195652951e+03,1.570717364926912751e+03,-1.362507133913064966e-02,9.358012742077932433e-01,3.522645775863281203e-01
2.852392928890341864e+03,1.563459581092804001e+03,2.917658906151055362e+03,-3.889455664782100475e-01,4.193286031927526136e-01,-8.202955984651869592e-01
1.118362662811055998e+03,2.693200766338433823e+03,1.929215212692196474e+03,-8.245639393804156508e-06,7.812252004712750830e-01,6.242492980217322351e-01
2.386975615956918318e+03,8.460648736939895116e+02,5.245756255912660890e+02,3.025826899626503086e-01,-9.160300872806137473e-01,-2.633108332971467735e-01
2.179323940721963027e+03,4.962352149833619706e+02,2.566690402939722730e+02,2.839497594795050150e-01,-5.770122138453185334e-01,7.657868105189952201e-01
8.816146779307565566e+02,0.000000000000000000e+00,1.804777306322880804e+03,-4.778353150473361732e-01,4.077553400339879452e-01,7.780803264235510719e-01
7.708765598125686438e+02,2.964006581939227090e+03,7.928281920483375416e+02,-1.227060539558122877e-03,8.303830604610676902e-01,-5.571915893314821622e-01
2.048043548745828843e+02,2.920827451385153381e+03,2.040216956730880611e+03,-3.164921581173792131e-02,9.039486190866664606e-01,-4.264683120582476450e-01
2.024298095730179284e+03,7.547228514554743697e+02,2.631280381575064894e+03,-6.008819209667324301e-01,3.603305435067289952e-01,7.135144122380954190e-01
6.087437862772904964e+02,1.008995924656975376e+03,2.891297691031403247e+03,2.302916226737654060e-01,-5.236021779189780068e-01,-8.202478453521149238e-01
2.026494836103996022e+03,5.368758240038677059e+02,1.951806858518153604e+03,8.304701969784039628e-01,2.282100949919844968e-01,-5.081726128732247938e-01
1.461828431108611767e+03,1.501826340304549149e+03,1.594765625859614374e+03,-1.961514463563039223e-03,6.053629655969571255e-01,7.959471291139046389e-01
9.706708744643553928e+02,6.378627507336502731e+02,1.513879464949266321e+03,4.425941873588168374e-01,7.267764999112154012e-01,5.252678407184201426e-01
1.761547893119678065e+03,2.353551171770940073e+03,2.123825318907689507e+03,9.262530267999022904e-01,-3.097271623093355020e-01,-2.147659546385927432e-01
6.552556312486489105e+02,1.358309667886638181e+03,2.172748796183494505e+03,1.523635113593832437e-03,4.686986909533887719e-02,-9.988998417794581197e-01
7.015400104434310435e+01,2.918838979101940822e+03,9.963438778073926869e+02,-2.200330301871619154e-01,-9.362330174544624128e-01,-2.739583958464640312e-01
1.790380880261785478e+03,7.226663272323126819e+01,2.699618549920336136e+03,3.271438884263720833e-04,-8.805751547620292996e-01,-4.739064145933292171e-01
2.003653515747940673e+03,3.132227765542801308e+02,8.453813838162952834e+02,8.674563597282157756e-01,4.958684284266900444e-01,4.042234105933274063e-02
1.673600429665963247e+03,1.811607698740586329e+03,1.630349416373572069e+02,1.382085424956475683e-01,-9.781111943479219306e-01,-1.555534964972198619e-01
3.732337431187326615e+01,1.577806466125704901e+03,1.595713280215279610e+03,-4.342151255962194145e-02,-9.496698848333281484e-01,3.102284353306250519e-01
1.685201451817371435e+03,2.307342147847073193e+03,2.534014573806645330e+03,-9.661184776527140250e-02,9.907098458378044148e-01,9.570868420061856563e-02
1.746538988337186140e+02,1.556826985113874798e+03,1.420008454508046498e+03,2.758656697934036561e-02,9.747761680917136351e-01,-2.214732567212795988e-01
1.523101163925924538e+03,2.800668941906308191e+03,2.943832271926718931e+03,2.847449936369792489e-01,-6.051143174314017603e-01,-7.434762615162675559e-01
1.121001232962015138e+03,1.760470146632807200e+03,5.303172297630761705e+02,-2.165591939652514869e-02,-7.314500978841803613e-02,-9.970861691439428798e-01
6.716175940686007380e+02,2.620343426933683077e+03,3.537219916568677149e+02,6.156068763851172548e-02,-2.688653756627660402e-02,9.977411467084891239e-01
2.050666383954765479e+03,1.690424069432270926e+02,6.538308860565213081e+02,8.424145698201799259e-01,-1.947607076891150202e-01,5.024001983430304019e-01
1.097905852067636715e+03,1.853164966279978671e+03,1.574019313762637012e+03,-1.094978059806641646e-01,9.529615624978333699e-01,2.826207545229271756e-01
1.527931368491867261e+03,1.470277558613244310e+03,1.551359918574219137e+03,-5.149290102805147368e-04,-2.095472153471270582e-01,-9.777983940406014263e-01
7.533128102264086579e+01,5.249605436112815369e+02,1.033541917691676417e+03,-8.275993183800900432e-02,-1.285807335296380305e-01,-9.882397424952855669e-01
1.750522748256169507e+03,2.411146649612231158e+03,1.537473175746733205e+03,-8.959267989161269485e-02,-3.968191010735908075e-03,9.959705844902958516e-01
4.604716274263267337e+02,2.813577157012419320e+03,2.995306853508951008e+03,-7.057684150760804576e-01,4.351941205704377147e-01,-5.590143304978155703e-01
2.768853447614237666e+03,2.623195492937229005e+02,1.706786086163913296e+03,-1.838849344721901202e-01,-9.303304279597195414e-01,3.172879223772056556e-01
6.323067951745970277e+02,2.127141337119417130e+02,1.120260431586705863e+03,-3.016837678048094884e-01,-8.811978418486566822e-01,3.639742679975654926e-01
2.768337528185048086e+03,2.064217292160832585e+03,1.207934142914336007e+03,-4.809000485396906083e-02,-2.846689919468881613e-01,-9.574188824423131017e-01
2.383784118520969173e+02,1.172574377393130362e+03,5.230948854802048800e+02,-8.168676869780020020e-05,1.059276518578137344e-01,9.943738360894063266e-01
3.633807893835773370e+02,6.283760864696608195e+01,1.206255984255501289e+03,3.835409458193746873e-02,7.304221480324270266e-02,9.965910888049505090e-01
1.417797527171549063e+03,2.655634849045142801e+03,1.458325801767193298e+03,8.381620336015019879e-01,-4.201120079313538924e-01,3.478366085116411099e-01
1.047816619344124092e+03,7.285250929724229536e+02,1.917605881817447880e+03,-3.578052330083064366e-04,4.136661216305114186e-01,9.104285868702641782e-01
3.000000000000000000e+03,2.100084503545851931e+02,1.482108409629970311e+03,-1.258457953742061486e-01,3.819393891488916948e-01,-9.155791275489000292e-01
1.453984654204905837e+03,1.460100566374751224e+03,1.536411604405775961e+03,-4.389473325319954294e-02,9.957789145762221406e-01,-8.060772716080927269e-02
5.199550289338122866e+02,2.973880813017101445e+03,1.555811175505030178e+03,-3.539687116897062835e-01,-4.871907573310761408e-01,7.983428568703437866e-01
5.094899002048073271e+02,8.814997677113898362e+02,1.254296406584382794e+03,-4.693478354457966684e-01,1.399110966163708281e-01,8.718586435919242206e-01
1.379989249696147340e+02,2.450069142669443409e+03,7.272797161121028466e+02,6.242940050276013508e-01,-2.485719795399231880e-01,7.405869066316265181e-01
2.639135314559715425e+03,2.517124625787108926e+03,4.110295550095281669e+02,-5.144747307037697004e-01,-5.935101996360191423e-01,-6.189195379007649267e-01
1.839046466691489059e+03,1.611000028517158853e+03,2.666781773499124483e+03,1.134596686060271829e-03,5.080775449568004642e-01,-8.613105833559868696e-01
2.074726757232997443e+03,2.842721756200387517e+03,2.709206200794453252e+03,-1.383424114713208419e-01,-9.645575083234917413e-01,2.247002232421607126e-01
3.484159228723881796e+01,1.995451238741009547e+03,2.986536557070819526e+03,-7.696170179276654588e-01,-3.692109182670717804e-02,6.374374311996835463e-01
5.994461663000927132e+01,1.771063862299546599e+03,7.611451635776112425e+02,-4.394174664318344914e-01,2.394795296778793048e-01,8.657723979545024484e-01
3.244432393528188072e+02,2.616780182599591171e+03,2.590605175845201757e+03,-5.609261677637402688e-01,1.245067206230513063e-01,8.184496996380277167e-01
1.556403252556860934e+02,2.204840082312049162e+03,2.714496651463106446e+03,5.941025399049924133e-02,-9.708510799415548398e-01,2.322037947517247569e-01
2.582697257577877735e+03,7.147473512515542780e+02,2.774784692678922056e+03,-7.638126399121007992e-01,-3.213497433264989600e-01,-5.597540473944790929e-01
3.101823962042001313e+02,2.086905186783549198e+03,2.052372053620194947e+03,-8.753177424957362396e-01,6.657517352047712111e-02,-4.789432074295305597e-01
8.334909310543442871e+02,2.530603056107218890e+03,1.156805309572816668e+03,-4.681137257804955931e-01,-8.596988510503439374e-01,-2.044197281052431703e-01
2.193379183539007499e+03,9.887245074601429451e+02,1.325632678969001290e+02,-4.422047085514643761e-02,2.750168081154580890e-01,-9.604219412379824128e-01
4.449048780675626062e+02,0.000000000000000000e+00,5.710258727183804695e+01,1.117181687178197547e-01,7.315041946534706074e-01,6.726222297714476994e-01
2.623947866910806624e+03,2.302832354770203438e+03,7.027464938752170376e+00,8.919185642370487388e-01,2.118177664353262102e-01,-3.995178451479624582e-01
7.711659049352374495e+02,1.540520764103381680e+03,8.036868684461941257e+02,9.312404841488441942e-01,5.969232263219969442e-02,3.594829443812317393e-01
2.834332201563006947e+03,5.322380164190161622e+02,2.545154629621412823e+03,5.655970330627444476e-01,-7.776352117438322109e-01,2.745605099914154579e-01
2.734841910188069050e+03,2.189700589904940443e+03,1.044563131904121292e+03,6.722165512107585172e-01,-7.030796877204522621e-01,2.319565929074341171e-01
8.520868068644352888e+02,2.883359383124481155e+03,7.495833073671194597e+02,4.557386098311134309e-02,7.946322908165832644e-01,-6.053780187508307487e-01
2.127931562048672276e+03,8.568498074253836876e+02,2.717821054420205201e+03,8.222278739591591945e-01,-3.693032833907652357e-01,4.330778315284693480e-01
2.326738955578023251e+03,3.918369986408052341e+02,5.817428676896546449e+02,-3.910958667078613948e-01,-3.502169396345405361e-01,-8.511122829785993105e-01
1.623856702197965205e+03,1.364036693720071980e+03,3.652124005474339583e+02,-2.305494718635046902e-01,8.740953714555835807e-01,4.275561046498863593e-01
2.652872208800587941e+03,7.623379797099003099e+02,2.969276366774525286e+03,-5.304107329512961488e-01,-6.795174733360908048e-01,5.068732166932913286e-01
7.612672476621552278e+02,1.260456529607246694e+03,8.772061449147900021e+02,-3.973448444466408103e-01,8.663023688472548667e-01,3.027165015675719051e-01
2.313290911457492712e+03,2.891215243358243697e+03,9.236069718853194672e+02,4.324024831466113938e-03,-9.495679037027141556e-01,3.135316556057617388e-01
1.470400860396992812e+03,4.256449449731696291e+02,2.386900508501425065e+03,8.470583829886794147e-01,4.745862551070058055e-01,2.392905812440427049e-01
1.534007869276932070e+03,1.517404130254819165e+03,1.514036281657566178e+03,-3.482403786837504067e-01,8.952671014683009076e-01,-2.778946845168961399e-01
1.768259133761549265e+03,2.971247378032640427e+03,5.992454560294264638e+02,4.378704773173214826e-01,4.593193831549202133e-01,7.728487234589216381e-01
2.901948177132911496e+03,2.543314947624973229e+03,1.900289697793554637e+02,4.289385720003343061e-01,-4.163985427460130673e-01,8.016382944004800670e-01
2.616068857385158026e+03,2.173472966535406954e+02,2.431927724218765889e+03,7.227188666856569910e-01,4.607958150103150241e-01,5.151161583619555673e-01
2.120094836477136141e+03,4.518703960765036243e+01,2.576052740524979072e+03,2.737499947260830235e-01,-2.327581155742920183e-01,-9.332119802176641610e-01
4.600253467053505574e+00,1.987609325385874399e+03,1.273492508710047332e+03,-1.889060923255231061e-01,9.327937715485384862e-01,-3.069369121538725320e-01
4.730713186259101235e+02,2.003023120228577454e+03,1.669022666369866783e+03,-1.924893163404848562e-01,8.998239008987817256e-01,3.914904985642338464e-01
2.595498484422200818e+03,1.302919806090671955e+03,1.327725656287436323e+03,-5.822811073064332321e-01,-7.092006631729868005e-01,3.974709189726839398e-01
5.434588437571743498e+02,2.941124157290029416e+03,1.622946048692628892e+03,-9.055777050723702315e-01,-4.150473779924819251e-01,-8.754823868830907685e-02
1.880175022703224158e+03,2.627092305953412051e+03,2.732860279631107687e+02,4.764573139153553960e-01,6.576880475655979552e-01,5.834679597937801887e-01
2.153804118075540828e+03,2.768769809701088889e+03,4.609361862724827006e+02,-6.483422115096887373e-01,5.690570855515774129e-01,5.057928530122492994e-01
4.606418272878025846e+02,2.888842438312866307e+03,4.920599283782972861e+02,-5.720034958792951096e-01,8.196116883980614221e-01,3.238334360662321193e-02
3.392789282493263840e+02,2.165214220399044734e+03,2.148124142765384931e+03,-5.645480491655102684e-02,7.470126540032815399e-01,6.624084463235713205e-01
1.449526751102724347e+03,1.418985759092259968e+03,1.552038236581239289e+03,-6.118000917158966656e-02,9.581386023456006651e-01,2.796916608928181613e-01
2.798087196250679085e+02,1.314111567613329044e+03,1.886340689686792530e+03,1.641378939574684448e-01,-8.880487426148891972e-01,-4.294510245736073428e-01
3.837565960014733832e+02,4.722381683656876703e+02,2.845206914484660047e+03,9.158993844857132860e-01,1.816893938203361925e-01,-3.579347449911651768e-01
1.298938806753873678e+03,2.909366980907596826e+03,8.013922725220528491e+02,4.695461733323775810e-01,-6.744166703959039166e-01,-5.698144836708026739e-01
9.614040233606269794e+02,3.108419381851137473e+02,2.176357228451352512e+03,7.907259937293967256e-02,9.871480623591712966e-01,1.388748609682122215e-01
2.734312971275232940e+03,1.499835745662137697e+03,2.930971406358072272e+03,2.876894590823660947e-01,7.233409037835080158e-01,6.277043189643939369e-01
1.441334280898342968e+03,1.530113667433904538e+03,1.540677456999817423e+03,1.156552279180530861e-04,7.588703428018085395e-01,-6.512417288839327245e-01
1.987459770887361856e+03,1.745566890801769944e+02,1.646936404149768350e+03,5.378786986307122486e-01,-5.756659226884290881e-01,-6.158695081059064602e-01
2.200341499955427025e+03,1.831217544391567117e+03,6.216254577904937832e+02,1.450464385876868989e-01,8.715399449338796511e-01,-4.683798192041140340e-01
1.438847527411759586e+02,4.777303289669062565e+02,2.841799384135241780e+03,7.006567728011091623e-01,4.930272094267613703e-01,-5.157560057748191706e-01
5.081632592482073960e+02,2.949496868139633676e+01,1.932603331091058863e+03,-4.137974977463126924e-01,-7.809407071822206392e-01,4.678709680292458817e-01
5.475151429819103441e+02,7.124335561629844733e+02,1.662842792938856746e+03,9.726019505442308477e-02,-7.262808917262254527e-01,-6.804825646343442003e-01
8.350659744697343285e+02,1.344882807291905237e+03,2.640048440305914028e+03,6.236707146065665341e-01,-4.124935734036741519e-02,-7.805980593500994047e-01
1.942714276983370382e+03,2.083858235922136828e+03,1.018483478619063362e+03,7.843676755823881797e-01,-5.530631505472701770e-01,-2.808709686105150816e-01
2.646489852631971189e+03,1.318250854663560176e+03,1.352739689705249248e+03,-9.247774457852797614e-01,-3.319323275149809738e-01,1.860311955488688773e-01
2.967078667974537325e+02,2.547300453198488867e+03,2.628097962754676701e+03,-2.013197265878511055e-01,4.502299410147564407e-01,8.699214722608252792e-01
1.217044353838990901e+03,1.942795044415691564e+03,2.683861259781225272e+03,-1.925959059250755834e-01,9.727531085037819381e-01,-1.290666762457642058e-01
2.393159556969508685e+03,2.253121042132007005e+03,1.988282792463366832e+03,-4.559466297829428694e-01,8.695505075505103321e-01,1.897223908984546625e-01
1.200592019618860832e+03,1.665108205995193657e+03,9.881462708964343165e+02,2.395918018830828777e-01,-9.172261791786230634e-02,9.665312875601655973e-01
1.843078544246680167e+03,1.297278405412998382e+03,1.753583602945124312e+03,-2.177947953007673167e-03,-7.866312523329352935e-01,6.174192492916235064e-01
2.691604446453437504e+03,4.425991451231126028e+00,2.163502261816717237e+03,3.646268075176174461e-01,7.115552377980267629e-01,6.006133821367152237e-01
1.524694718812235578e+03,5.982060228105697206e+02,2.005141312614028948e+03,-4.363071237324421814e-01,5.346180606448603934e-01,7.237538414493229766e-01
8.287331980886084466e+02,0.000000000000000000e+00,1.773078647767037864e+03,-6.523766852127001192e-02,9.331188466018914829e-01,-3.536004308852926936e-01
4.987406410836329940e+01,0.000000000000000000e+00,1.791742734735591966e+03,-1.988890226997821684e-02,2.538500041692445808e-01,9.670390927722466445e-01
4.194471202093964735e+02,2.853060203001616060e+02,2.398913274778498817e+03,4.787186447602781447e-01,-2.064272805916100295e-01,-8.533558677283676897e-01
2.864139695835523867e+02,1.582912702916317116e+01,2.437986241191393674e+03,8.419178579971089427e-01,4.191961862693851515e-01,3.397776887948398272e-01
3.058589198961025204e+02,2.062488123600114250e+03,1.042240305102551247e+03,2.140392386714216055e-01,-6.833575348146412320e-01,6.980040715647829463e-01
2.799285779360455763e+03,5.156017458962735418e+02,1.418800223985011371e+03,-4.880035507853730872e-03,-7.422664128436685660e-01,6.700871268854780016e-01
1.898073154685464203e+02,1.201521476593396983e+03,5.216944642885980556e+02,-1.238693157791189532e-03,-1.616342569207382396e-01,9.868499544656936795e-01
2.607443863926266204e+03,4.885945553927994069e+02,2.646141931136999574e+03,1.204583859492806691e-01,-7.192649868332117169e-01,-6.842131655926491085e-01
1.503656315558210736e+03,1.778829258793273766e+03,2.496530466503225853e+03,-6.414151520944810780e-01,6.780473679226624029e-01,-3.589406211572654382e-01
2.801259642083356084e+03,2.818465676762846215e+03,7.341160537685673262e+02,5.744193065739855892e-06,-4.144213661596966025e-01,-9.100851230721964669e-01
1.300947523302411810e+03,7.867320338599841989e+02,1.118740641113649161e+02,-3.604356570233734347e-01,-5.994267363581162744e-01,-7.146843533233300239e-01
1.506222427159394783e+03,1.521045001253622786e+03,1.494203824765480931e+03,-9.437763370910533245e-02,-2.541989174425182130e-01,9.625361149725873977e-01
1.187615211558342480e+03,8.176466567152857579e+02,9.845390941820430442e+01,7.017567572028435841e-01,-1.058756515562517680e-01,7.045053584804651381e-01
2.347326637105929422e+03,2.039486372294619059e+03,2.489571700351832078e+03,2.301106996387694559e-01,-9.212906001565196457e-01,3.134847619502354465e-01
1.498679291276998811e+03,1.476012447495323386e+03,1.436703387128686245e+03,-2.336987513484381496e-02,9.822428995356977666e-01,-1.861524516300739895e-01
1.393651038746081667e+03,1.511997554884871988e+03,1.481533371784016936e+03,4.456770508306573397e-02,-7.557073301711628721e-01,-6.533912692936767463e-01
1.460988783969831957e+03,1.517497576943047761e+03,1.872389958131623871e+03,-1.388756021057475087e-01,9.182606612599975016e-01,3.708246554938308126e-01
1.798471970762533829e+03,1.933106505799127035e+03,7.162878730418068471e+02,2.002157426809250337e-02,8.988615560734760646e-01,-4.377751015955528846e-01
1.969807085582195214e+03,2.560030309334008962e+03,6.728477182592184818e+02,-7.738153184674116947e-01,6.315520058676558079e-01,-4.849656472079999503e-02
1.642186357234013485e+02,1.046179465782999159e+03,2.782715525344921389e+03,-4.643369027426524909e-01,-2.412884963682797035e-01,8.521567357427242140e-01
1.431169857516387538e+03,1.105337227507363650e+03,1.584586926118839983e+03,-8.134840254299233742e-01,5.804810455509531453e-01,3.585381606468218685e-02
2.405655629432650130e+03,1.077636395677590286e+02,2.336507074088723925e+02,2.120014567284526918e-01,-9.118048955258654109e-01,3.516634965987794903e-01
2.461994289469137129e+02,5.223485515339406220e+02,1.546646688158241432e+03,1.427398283209725394e-01,8.409554759589996653e-01,-5.219379549960623255e-01
2.622204756671314954e+03,1.710389478413456800e+03,4.702790230814606502e+02,-5.928620234660107041e-02,6.106206693329440825e-04,9.982408393537683944e-01
2.748545567239396405e+03,1.766596645191300695e+03,2.047859748112764009e+03,-3.698182224063757406e-01,-9.181163580662998758e-01,-1.424669625817245600e-01
2.980772898065535628e+03,1.193502395623175062e+03,2.718377077156607697e+02,4.094338335429392912e-03,-5.022151229954002760e-01,8.647330262157852943e-01
2.464164685608665877e+03,2.477361386101021708e+03,2.364814720759731699e+03,-5.012081706507552636e-02,1.663911379774285493e-01,-9.847852014014556454e-01
1.860601526859413525e+03,1.964062644487674106e+03,2.106507079926343522e+03,5.394945362469568684e-01,-8.278678968638620850e-01,-1.535590788650640637e-01
1.653688629132770529e+03,1.425699069173688258e+03,2.739032818786752159e+03,2.935846460319678844e-02,9.994218188017995885e-01,-1.714959646889058220e-02
2.368228669106135385e+03,2.078444006365992209e+03,2.789939375384670711e+03,-1.037380227517124553e-01,4.531714168244663221e-01,-8.853666413463243678e-01
1.948397554778345238e+03,1.702825422393917734e+03,6.019839273474013908e+02,-2.450308559873055902e-03,-9.879967317204281230e-01,-1.544553466142038756e-01
1.849479833745499946e+03,3.775596173824997663e+02,2.685928598509717176e+03,1.803371822859360096e-01,-8.731827816614043947e-01,4.528027500967957142e-01
2.069473020771162908e+02,1.254440845365905261e+03,1.574381655422334916e+03,-1.285617864859371108e-02,8.199366801044034592e-01,-5.723098455294337583e-01
2.839686746832841436e+03,1.234509883786485489e+03,2.090905221744472442e+02,1.503705530613706209e-01,7.277294758217545123e-01,-6.691774852699483578e-01
2.409789229740055816e+03,1.997115405849876652e+03,2.788992491732187318e+03,-5.607247705627970563e-02,-3.111227331834752197e-01,9.487141414637062509e-01
1.317909641718025568e+03,2.102305674194906715e+03,2.669762654670996653e+03,-2.014678868752552976e-01,9.757894426569374557e-01,-8.512140833704907872e-02
2.498214461744428263e+03,1.638741363650198082e+03,1.256893106157542206e+03,-2.682016824449597880e-01,-9.574988369951709100e-01,1.061312144780608563e-01
5.774023285654265010e+02,5.762794487922279814e+02,1.545145407426684869e+03,-6.422613035693654389e-03,7.491909103818172877e-01,6.623229800052672367e-01
2.461917190624996692e+03,1.638301431465800306e+03,2.583268177995703354e+03,2.946889281547346306e-01,5.704862657053776376e-01,-7.666184554682642371e-01
5.116072853837778780e+02,1.867108820518349148e+03,1.396292671120676005e+03,-6.015803242862931555e-01,-7.958116606398647486e-01,6.917307439473141528e-02
1.779919723044535658e+03,5.280826319780733229e+02,1.950725722722187129e+03,-6.602712316533307368e-02,-4.855300491328024548e-01,-8.717230009559278070e-01
5.858387096168804931e+01,3.663772994238064484e+02,1.221837692909674615e+03,4.731897529266110855e-04,4.211709530306621541e-01,9.069811488750477713e-01
1.619526234061936975e+03,2.810294444340675909e+03,1.185678081937568322e+03,-6.576100289828523682e-01,6.860848972083977149e-01,3.111857381110430532e-01
2.321675504214466059e+02,1.242349204144112718e+03,1.855820956370994963e+03,-1.417031135071028861e-02,-8.570910504496234150e-01,-5.149700316672661815e-01
1.387982905216230165e+03,1.685294842886893775e+03,2.841913498319500377e+03,-4.102080979574392883e-01,-9.099714640998334270e-01,6.067331286608208807e-02
1.709855474355561682e+03,4.088438789483680580e+02,1.331108849264065839e+03,-3.625895469719997433e-01,-7.760905492524987626e-01,-5.159576337138493951e-01
2.197853697181933967e+03,1.645259297536660597e+03,2.463077128310594617e+03,2.888518747483953542e-01,5.700693246098942346e-01,-7.691459936794551311e-01
1.926045028082207409e+03,2.677264114695234184e+03,1.507394443123739620e+03,2.871815468380353731e-01,4.460838986608509082e-01,-8.476649777543302511e-01
4.346140437809389141e+02,4.081101770568185998e+02,3.836677648349751024e+01,1.797241591905966163e-01,5.885426557262024572e-01,7.882364930615568532e-01
3.672719924977581059e+02,1.884744551661387050e+03,2.224172474220835738e+03,6.347169024510181945e-01,-5.421786044879078892e-01,-5.506149422041954899e-01
2.366519922695953937e+03,1.602284804774324812e+03,1.555494104732777032e+03,-8.567474439789939111e-02,-2.350781829155082214e-01,-9.681932070044168004e-01
1.712376477327823068e+03,9.506881317392058008e+02,9.503337078387787642e+02,1.001544501807183352e-02,5.275569549610416020e-01,8.494606230622604448e-01
1.944165602068983389e+02,4.809578322871015530e+02,1.694818846723915385e+03,-9.519879560401791618e-01,2.317950792909202751e-01,-1.999749303561768610e-01
2.191254022387575333e+03,2.883569454732340091e+03,2.799750898584687548e+03,-1.694171185167134275e-01,-4.619152594136513579e-01,8.705929778457399681e-01
1.489318214067105600e+03,1.566260302197313877e+03,1.494821912642970574e+03,3.680253017648740244e-01,-3.029643727123213504e-01,8.790733565112203163e-01
