x,y,z,nx,ny,nz
2.569838029688875849e+03,1.634078098841889187e+03,1.516182187698911548e+03,-5.762830222437688166e-01,-8.006648242231472201e-01,1.638100043504808756e-01
2.717896718728747601e+03,1.412158712877470180e+03,2.352106074285827617e+03,-3.076884581971403021e-01,7.194817737347359854e-01,-6.226345557032512135e-01
2.553561521356697881e+02,2.249444869977358394e+03,9.573398985034443740e+02,3.955369099968480961e-02,1.946138566739843423e-01,-9.800821150897405243e-01
2.376539203051156619e+03,2.272788820536432013e+03,1.173202933203498787e+03,4.474946666697632303e-01,-4.874815720933520224e-02,-8.929569645121826493e-01
8.005192827151429924e+01,1.223477198665895912e+03,3.096663333313363182e+02,-7.793801071504807831e-01,-3.722691942640158902e-01,5.039665619662931917e-01
1.475280390058690955e+03,2.101342846518332863e+03,4.373558911648211165e+02,-4.023216195275344242e-01,-5.903620079211727711e-01,6.997213831690602959e-01
2.301167980719354091e+03,1.851724616892620134e+03,1.313998715624947636e+03,-1.352873119659317490e-03,-2.499948477965474314e-01,9.682462216861490445e-01
1.311483190356244222e+03,2.907984996161940217e+03,1.689129855860355065e+03,7.232208165293068092e-01,5.966585446756991207e-01,3.477789982218013609e-01
2.213816135343605396e+01,2.110925940885430009e+03,3.684905983312737590e+02,-2.406579083383663092e-03,9.184427328024998838e-01,-3.955466533032370169e-01
1.940168101702343165e+03,2.132175180783491214e+03,2.773158660455950212e+03,-1.694467599816395498e-01,7.697195666696403649e-01,6.154832119705830884e-01
8.583972389072582700e+02,1.539878094277886703e+03,3.023405995758565723e+01,2.786361459250045192e-01,8.387306573692953071e-01,-4.678597894379570299e-01
8.109345936284722711e+02,1.992984676834201537e+03,2.881709251333574684e+03,3.072116618021418499e-02,-6.318428875627873920e-01,-7.744874275189019830e-01
4.738994649293364319e+02,2.077152568956848427e+03,1.532255379518962854e+03,2.446376821326672751e-02,9.347115280646185465e-01,3.545643571312736553e-01
7.350685745317537112e+02,2.927266288708829507e+03,1.534045337172344944e+03,-3.886218863616984764e-01,-6.671575310244345358e-01,6.355107066273988359e-01
1.183740537101194377e+03,1.453157699673568231e+03,8.951309677001195553e+01,-3.724214578620840266e-01,8.212304498601249447e-01,-4.322994401412252330e-01
2.395625260328512923e+03,2.355937928218469040e+02,2.646298307380850929e+03,4.222185519335909243e-01,2.828428240521447812e-01,-8.612383127133331762e-01
2.917248742516204857e+03,2.134278686637986993e+03,1.594353313912523390e+03,4.020232812964083524e-01,3.648604486766031663e-01,8.397941023174529951e-01
3.230275478298426606e+02,1.842724916255761400e+03,2.072070366089042182e+03,6.588122371843206926e-01,5.688433123730467500e-01,4.923248136186624269e-01
2.555152829129129259e+03,1.921645130794766771e+02,4.232878931662988862e+02,-1.608149355341826903e-01,3.048157188966470546e-02,9.865137760235647146e-01
8.588202432410065512e+01,8.206858347445443087e+02,1.231481357090217443e+02,-5.858493023993326387e-01,-5.912388308330742692e-01,-5.542718103903128135e-01
1.135582845512749827e+03,4.615409612687023468e+02,2.562169241865189633e+03,1.289412580131196473e-01,-9.115953114483442699e-01,3.903436180180104298e-01
4.062890357063548663e+02,1.505470085344486961e+03,1.459072750629005895e+03,-3.312546216270171318e-01,-1.607689199056506202e-01,-9.297439056230012433e-01
1.312132140013454773e+02,4.167082026229765006e+02,1.649669367021106154e+03,-5.107242931978770439e-01,-8.380402261655337526e-01,-1.919616515503812515e-01
2.114641784025820357e+02,2.249897880792562319e+03,1.251473039853070475e+02,-7.770038349503185504e-01,-5.773035141687059557e-01,-2.509695061176975273e-01
2.091200283278730694e+03,1.118851981801424699e+03,1.400157888095876388e+03,8.229889313113332439e-02,8.335425953468080795e-01,5.462907961259256817e-01
1.213681987727070464e+03,1.724059369137830799e+03,6.105628830395086197e+02,-4.149517198688905117e-01,-6.686938705596321419e-01,-6.169793980789211041e-01
2.260185250250275658e+03,3.292390006239576792e+02,7.884154555858523281e+02,-2.494619775965281894e-01,-5.624326821518295105e-01,-7.883135161730568941e-01
1.292926842348510661e+02,1.777502456545862515e+03,8.044390812200481378e+02,2.920747963126963179e-03,-9.979177354190927884e-01,-6.443339636683309557e-02
2.380711617940718952e+03,3.909033160231413149e+02,1.978445298448131098e+03,9.457897936052793719e-01,-3.026827829426572691e-01,1.177488820421293408e-01
3.097975318576177415e+02,2.501821604522762300e+03,6.949080313542347085e+02,-1.085505495994257552e-01,-7.810849364471960099e-01,-6.149171490834699494e-01
1.383146611129168832e+03,1.680211437793740743e+03,2.756313468440934230e+03,-4.700407088644568132e-01,8.242590826947195914e-01,-3.156876567201488126e-01
4.247963960190285206e+02,9.925149995802481726e+02,1.664596401726344084e+03,1.094990165633323437e-01,-3.502726024426163765e-01,-9.302252788167713060e-01
1.185703595939020943e+03,2.770283206736576631e+03,9.980304394798571366e+01,3.644831395224557014e-02,-5.138765219374930027e-01,8.570895172684496188e-01
1.208519320688592188e+03,4.648772987737452809e+02,2.289722117180941041e+03,2.935335989513156996e-01,3.171456420228025430e-01,-9.018074450971407252e-01
6.488856440836698312e+02,1.454475008256473984e+03,1.956540146639091972e+03,1.278821421249700351e-03,-3.064525795648986306e-01,-9.518850671660902263e-01
4.334365869194133438e+02,3.813951015975069936e+02,1.998201127146167551e+02,9.215117710951542529e-01,6.384290667062393621e-02,-3.830667552802227149e-01
2.072048592788753467e+03,7.139417072454153868e+02,3.000000000000000000e+03,5.481376281023174757e-01,7.379395103610989493e-01,3.936882265275241100e-01
2.672687296449436872e+03,2.043197721204079471e+03,2.793117899982697509e+03,-3.544590354576940272e-01,5.228908205587699809e-02,9.336083997480715269e-01
1.338735479091463503e+03,2.633928325480564581e+03,2.604356951966710312e+03,9.995351652710936508e-01,1.055556054240325368e-03,3.046865910905550631e-02
1.779459740155879445e+03,7.741111917185392031e+02,6.520447232062135754e+02,-3.853790936533653677e-01,8.368725208239132796e-01,-3.887509975096392623e-01
2.530494502036706763e+03,2.364562977535118534e+03,1.698464073091752198e+03,9.500337137627109518e-01,-3.086691321807260580e-01,-4.646837153407701315e-02
1.060149090129730439e+03,5.284376077332656223e+02,1.197064287525990949e+03,-9.005456322958707016e-01,-2.572193984028934843e-01,3.505078390536850996e-01
2.349632606085493080e+03,1.973607477728801086e+03,1.421367497610712007e+03,-2.460025929979083124e-03,8.583999557159845972e-01,-5.129751107989739545e-01
2.399519693552595072e+03,2.572900870903228679e+03,2.286081225260508745e+03,-2.762803218597016663e-02,-2.870917677510955723e-01,9.575045737368996779e-01
2.967872542250954211e+03,2.783720745507147058e+03,2.753984952870830966e+03,2.936496777785176353e-03,-2.691079294757019458e-01,9.631055493973518233e-01
1.649801001005065018e+03,2.041775604949203171e+03,1.790473810387325557e+03,9.656765401830505469e-02,9.539350459275063310e-01,-2.840468559035413953e-01
2.093877204425218224e+03,2.805572310299778110e+03,5.866923405109142777e+02,-1.715564742157427991e-01,7.574922950800248023e-01,6.298998325520176467e-01
1.867203698503705311e+02,1.311609434070174302e+03,8.830424369323510518e+02,-1.788429325171657716e-02,7.567890557182310740e-01,-6.534144758114827090e-01
5.779472693736559563e+01,5.362762079143227538e+02,1.612854786252986969e+03,6.274033357148983692e-02,-7.139251960296583155e-01,6.974055240800377531e-01
2.028449176114526153e+02,4.440097682614261316e+02,1.252693179098077053e+03,6.706054186438462628e-01,-4.745158046882658742e-01,5.701956888530106404e-01
3.602629563337931700e+02,1.130110397704962224e+03,1.952771025183653364e+03,4.031398506182766739e-01,4.222851633865262189e-01,-8.118826895722611736e-01
2.418484966302826251e+03,5.778738949142247066e+02,2.504674603655667852e+03,5.424561227007250741e-01,-8.030936791956295728e-01,-2.465398494777734373e-01
2.277589186536556838e+02,3.716374123368804021e+02,2.582278851461226623e+03,7.431680610130002307e-02,1.638717921645697906e-01,9.836783255026380068e-01
1.997106373720961585e+02,6.146706559077854308e+02,1.104779908670340234e+02,-6.296209043795897298e-01,3.613052333566766916e-01,6.877761591661235574e-01
1.685704356945843074e+03,2.330615534062188090e+03,5.080565253415480242e+02,3.428490038746666432e-04,9.998207155303792115e-01,1.893196373546695774e-02
1.898719375646105391e+03,6.675403990708206265e+02,2.227034607523493833e+03,6.103840931393359273e-03,-9.181690836247022869e-01,-3.961417385250620149e-01
9.157098634725392685e+02,1.101610018612184831e+03,1.763977206963527351e+03,-2.074723986955093278e-03,9.992626589902688927e-01,3.833841243551260741e-02
1.041000146254929405e+03,6.451420155025259646e+02,2.382791856602609641e+03,-4.205551949771903567e-03,8.967098948998284413e-01,4.425987773610954301e-01
1.317960872512463766e+02,2.267642879770115997e+03,1.878047073834917228e+03,-2.775013747217788262e-01,-8.445392933427428028e-01,-4.579807518091383312e-01
2.301981922820662021e+03,3.196433069783378755e+02,1.220848342622761720e+03,2.488753587118227306e-01,9.668904253454928543e-01,-5.642660012151679699e-02
1.235553170581750692e+03,1.088759319155973344e+03,2.362244263552801385e+03,-5.429096782729594395e-01,5.906587891370510546e-01,-5.969684045682019935e-01
2.341349817698137940e+03,2.603401505900478128e+02,3.000000000000000000e+03,1.025998918960467771e-01,2.393831304558068085e-01,9.654889844198626392e-01
2.664369960175224151e+03,3.033644734358160804e+02,2.526082575816550161e+03,7.313168945905584861e-01,-6.763575091981129939e-01,-8.784144487510703314e-02
1.668964586628191228e+03,1.139540261476836349e+03,2.311797093646886424e+03,-1.763073981006780047e-02,9.952035375364167713e-01,-9.622409203911322373e-02
7.532745980250506364e+02,2.873193187867289907e+03,2.981396327805928763e+02,-1.828285521481954057e-01,5.535094152368957854e-01,8.125275673867959902e-01
2.123062894385578829e+02,1.425517822384567808e+03,1.020756088709499409e+03,-3.441508073633023357e-01,7.669850541875590511e-02,9.357764482277357576e-01
2.841310008314614151e+03,2.536155495257427447e+03,2.870218350109652874e+03,2.287379800915671224e-01,-4.225357713714321672e-01,-8.770076729283380335e-01
2.317285034012659253e+03,1.594344268844005228e+03,1.681267470804788672e+03,3.914847651285311108e-04,7.787159332827713332e-01,6.273765551813529351e-01
1.693830479241898047e+03,5.579564281086535260e+01,1.126424462237433545e+03,-3.018796485104844121e-02,9.478181372135110472e-01,3.173790565668468400e-01
2.878456245355760529e+03,6.977613476015419565e+02,2.657740915188953750e+03,1.230872275408921301e-01,9.143807458751795555e-03,-9.923537298773326132e-01
2.419812372358743602e+01,2.820614581442003782e+03,1.991982995291049065e+03,-1.806856336906925362e-02,9.934656055228261451e-01,-1.126925803278207988e-01
3.574911477948940046e+02,5.474999383729665396e+02,2.950155288611069409e+03,-9.234736705699084225e-02,-9.732764674319991371e-01,-2.102495701320932775e-01
3.000000000000000000e+03,5.863109791175735381e+02,7.592540538254132798e+02,-5.602360025274973898e-01,4.696139619379606778e-01,-6.823476740085963055e-01
3.644142818837472078e+02,1.493914897696198523e+03,1.447892657707367789e+03,-2.459329784003161032e-02,-9.945933989388761054e-01,1.008917265615225795e-01
1.713739566923383393e+02,1.996910480606675719e+03,2.861923630899404088e+03,3.887235375280679306e-01,-7.811294780877168220e-01,-4.886008082617914194e-01
1.822091831477943970e+03,2.609357730659744902e+03,1.052278522964117656e+03,4.277473711293642844e-01,8.086349270396072653e-01,-4.039080851673647055e-01
2.995127122309004790e+03,1.003244367891428624e+03,1.436013262118765624e+03,2.793217492850900152e-01,3.375390167855406021e-01,8.989142186681484681e-01
1.472360347856514693e+02,1.956895207714374692e+03,2.829123357866682909e+03,-2.227065346848059596e-02,8.475953484722774656e-01,5.301755777497160205e-01
1.283101852329359645e+02,1.131467434830808998e+03,7.222605657903099541e+01,7.461566960815792238e-02,-3.634964998898439215e-02,9.965496499395324337e-01
1.938002602060277013e+02,7.294821990934087808e+02,1.127185059558186822e+03,-5.583410517956159946e-01,-7.308980295327451859e-01,-3.924835541840137054e-01
7.241774451476826471e+02,6.110619038237655332e+02,1.186412880634628209e+03,-9.608782941663833455e-02,8.554252233927837068e-01,5.089349823124805772e-01
6.356843042816522029e+02,4.031072558253524676e+02,3.109307846835430951e+02,9.705138893010244461e-01,2.172342094731884998e-01,1.044609444163593359e-01
2.968600186987366214e+03,4.373463850797338637e+02,2.548098496579782477e+03,5.151796024335669050e-02,-4.521141595860072582e-01,8.904710475215924514e-01
1.668861101049447200e+02,7.691994937804787469e+02,7.703035002024074629e+01,-3.613553878798664298e-01,-9.164996455536740250e-01,1.716120140030446550e-01
1.659631026695249830e+03,1.658872769339276147e+03,1.095111108855525799e+03,8.048008897911632653e-01,5.268115590372509649e-01,-2.734320922205240034e-01
1.425006899115951910e+03,1.128278305046037985e+03,1.148831689372197616e+03,8.495365556908263116e-01,3.037574077934198646e-01,-4.312992902331158618e-01
4.863072426437807962e+02,1.755501872205565178e+03,5.535585409168504611e+02,3.388660042598797273e-01,4.775904896009741107e-01,-8.106029579267799434e-01
9.763629418868848688e+02,2.069192953532557112e+03,5.756633047221458810e+02,-8.808284896263762764e-01,-2.327808821033374720e-01,4.122550579310202412e-01
2.464840671699562336e+03,1.372194096896120982e+03,7.750246199543797729e+02,-8.037447988465764581e-01,3.095705888367237812e-01,5.080948226998190931e-01
7.790789165019675693e+02,9.571552211854907455e+02,1.469557111158457928e+03,1.161480452531138104e-03,8.549540794931179688e-01,5.187023934022609861e-01
2.092219832785291146e+03,2.080957922890598184e+03,1.943528259537243002e+03,1.738326216373489979e-03,-5.807218855129943069e-01,8.141001596291442821e-01
1.592034559970125201e+03,1.285009911431630371e+03,1.573992667515215089e+03,7.431419585183174359e-02,-1.312247977800114207e-01,9.885633276338399167e-01
2.666605651841280178e+03,2.152264552021917098e+03,7.885692543428535828e+01,-3.049527109634322247e-02,-7.939206443624305942e-01,6.072561641481324379e-01
2.014309692728727896e+03,1.676977788909205628e+03,1.693435244496886526e+03,2.358168025188439945e-02,5.699963672610800502e-01,8.213087395527153278e-01
1.149907424547570145e+03,7.147424393949612522e+02,1.548229540214494136e+03,1.730030927147945818e-01,-2.419963473069998558e-04,9.849212513439254968e-01
4.255146177367444125e+02,2.814551408181708325e+02,1.781055697252003938e+03,9.113080800330911752e-03,6.155217146145166573e-01,-7.880672373575315914e-01
1.789714076118698216e+01,1.113529233793617777e+03,2.876971116637022988e+03,-8.477507360314769924e-01,-4.973010716318707614e-01,-1.844189082276599390e-01
2.594307779973941024e+02,2.573472465015825037e+03,1.215953078621834493e+03,-9.743998552836039551e-01,3.388893508619622574e-02,2.222531486886414331e-01
7.585413526263143922e+02,2.378452120404169364e+03,9.649895439239359121e+02,-5.028064593615469979e-01,-2.968362381087419691e-02,-8.638891982782047618e-01
2.015946820292922666e+03,5.580359057128541735e+02,2.003560175666006899e+03,-4.381089871392263024e-02,-8.572358327775619902e-01,-5.130568508031428943e-01
2.868392096844589787e+02,1.678049091116940644e+03,2.898556886063758157e+03,-4.940925659222913935e-01,-8.414608858400561830e-01,2.186689596206881359e-01
5.485574989409835922e+01,5.524755361653684531e+02,1.570337677390825775e+03,-9.593767191144901840e-01,2.041670998626571309e-01,1.947103134268662050e-01
1.425105356962330688e+03,1.971235140647148228e+03,5.932597551884159657e+02,1.252965884905297457e-02,-1.199803146196500858e-01,-9.926972004357099699e-01
1.369799667348074536e+03,1.987588528251936623e+03,1.538736497903976897e+03,-4.995216806928234540e-03,-5.883116582591835231e-01,8.086188475204999504e-01
1.002807498857485143e+03,1.466373637106276249e+02,2.672446833447029803e+03,-2.386463607759184424e-01,5.751179987476965350e-01,7.824878286624366019e-01
2.659356102765459013e+02,1.608977208385477297e+03,2.141755057906971160e+03,-1.800948883025012617e-02,6.308800167813277682e-01,-7.756713625873167262e-01
2.112354522429332064e+03,1.290168316198825096e+02,2.323612765926930024e+03,-1.971619293514325494e-02,4.526577125922126577e-01,-8.914663577314232423e-01
3.382005059645398433e+02,7.270422801856780097e+02,6.743775455890857984e+02,-1.312973491765781209e-01,-9.446170697286583318e-01,3.007650206996266284e-01
9.552023963553115209e+02,1.929814631933526698e+03,1.422319419209041143e+03,-4.842000962199409231e-01,6.004842548624522713e-01,6.363716889388508768e-01
1.465088386535141353e+03,1.514337861558727582e+03,1.432814093142405000e+03,9.947483228728112858e-02,8.863976907570243480e-01,-4.521104860120278568e-01
2.784299312448970795e+03,1.709841705014590616e+03,1.054505600802575827e+03,7.012042273253532229e-03,-1.125300306516580084e-01,9.936235823815249280e-01
1.223161057783400452e+01,1.632595952809685741e+03,3.000000000000000000e+03,6.208995787543447609e-01,4.207258877104048667e-01,6.614177503763933874e-01
2.878518234030450913e+03,2.092492743365837214e+03,6.223833988612094572e+02,2.478568804114792135e-01,9.682674481310934445e-01,3.201742841625354608e-02
1.773575542508657691e+03,2.095231668585377975e+03,9.028977918782896950e+02,-3.052081563969031297e-01,3.683980404393566443e-01,8.781405724992130679e-01
4.728165064245276881e+02,1.287890387400342661e+03,1.647196416534697846e+03,9.998343507670640617e-01,-8.064682850110256596e-03,1.631661474481793661e-02
8.645053091890763426e+02,1.464516362861907737e+03,1.542090540605170418e+03,5.208694713624869577e-01,6.884174747492198820e-01,5.047537758773783523e-01
1.315286765024264923e+02,2.247642764351892595e+02,2.158473272326510141e+03,-7.363637859853470191e-01,-6.665848138846046655e-01,1.159010810465253144e-01
2.778633285405033803e+03,2.542755851435986187e+03,2.357687937393928223e+03,-1.791774258873951673e-03,8.995377624226602586e-01,4.368393337608676985e-01
7.903281167318115195e+02,5.896913953985543912e+02,1.298224031657920932e+03,1.860313301333218206e-01,-1.983847651636742523e-02,-9.823435137762841496e-01
2.064276704503904512e+03,1.656573555041372629e+03,1.712147278982416992e+03,-1.125417946073822284e-01,5.665327208044383944e-01,8.163179654549261866e-01
2.265484239282537601e+03,2.811647842298871183e+03,3.927737584573735035e+02,-6.728329370298532508e-01,-7.390453645418056938e-01,-3.328344929617421677e-02
2.094337445364189080e+03,2.739374115163303031e+03,2.728702095214341171e+03,1.971399575182811170e-01,1.070956554162180718e-01,9.745082645830465129e-01
1.506509153592160374e+03,2.942913556568981676e+03,1.345248532151988911e+03,-9.824436261391691350e-01,1.279675873442556178e-01,-1.357527828363409572e-01
2.217938855513967610e+03,6.748269108444471840e+02,4.112028042127357139e+02,-1.616949632037475715e-01,8.888822655424813979e-01,-4.286526062892936917e-01
1.014594515119112657e+03,1.820318553608126876e+03,2.348867174345722333e+02,3.658711849245715464e-01,9.189564144596046313e-01,1.471644806515393089e-01
2.086988710076288044e+03,2.097423023304610979e+03,2.027674437188321235e+03,-7.088172563181092956e-02,9.096605138477271701e-01,-4.092597347867802937e-01
2.780812385555825585e+03,2.574293003652892367e+03,2.284829375542225080e+03,5.815254748523496393e-03,-7.648084969410245959e-01,6.442314380865160617e-01
4.884836113540070528e+02,1.062372354178323803e+03,1.659928732506969936e+03,-1.671598384892300504e-01,-9.419956594177679721e-01,2.910356782841911349e-01
1.714324902504976080e+03,1.935340059804606199e+03,1.194044860408168233e+03,9.932528089690947359e-01,-3.723173470915804723e-02,1.098301206661907031e-01
1.392091132557295168e+03,1.460741824306377566e+03,1.057195658544593243e+03,1.081447025894972658e-01,-3.434812717589978970e-01,9.329122891529785244e-01
1.184613442397207791e+03,1.861543182886655586e+03,1.812696627522576591e+03,6.654251325566015174e-01,-7.206319036051404836e-02,7.429779872628081705e-01
2.562085272628808070e+03,2.235487177394602440e+03,2.862199142056887013e+03,5.841491554389495189e-01,7.995505569091226894e-01,-1.396018307411255599e-01
1.317020001048588483e+03,1.619265045021022615e+03,2.798253801201197803e+03,-1.105673090342160908e-02,4.471130538709636726e-01,8.944091154275599642e-01
1.031523046448976629e+03,2.781020046530572358e+02,2.412269687455776875e+03,-9.872432277352850560e-01,5.384777558509048351e-02,-1.498373329826514777e-01
8.965232758347287927e+02,1.326156247533470150e+03,1.088166496096026918e+02,4.032016812003992312e-01,-3.747001490116390332e-02,-9.143437002902563560e-01
5.393893297623458238e+02,8.337158832631567975e+02,4.749140182212444756e+02,3.973493563164941234e-02,-9.329610865328838987e-01,3.577775089433787858e-01
2.852713254438354397e+03,1.686884688754847957e+03,1.404300940141738010e+03,-2.291756507007132460e-02,7.597718187787508848e-01,-6.497857867027316825e-01
4.503877954268156145e+02,2.854645150444122919e+03,4.223264318420009431e+02,9.024415695502624457e-01,3.661307701513273893e-01,-2.270406851118425273e-01
2.341714735233407282e+03,2.261705866724157204e+03,3.313533363382131824e+02,7.002293241110515432e-01,-6.062379107552123836e-01,-3.770338038135774839e-01
1.599381937742397668e+03,6.577920071680788396e+02,6.524246391738086004e+02,8.889392672851725158e-03,-9.922828547885786943e-01,1.236758456228871650e-01
1.882183908002224598e+03,1.600917167699628408e+03,1.565132968024342972e+03,4.490841228564267373e-01,-8.356165416921540467e-01,-3.163359698939063325e-01
2.014016792188447198e+03,1.362147307652349582e+03,2.194534183564312116e+03,7.319286165976876708e-03,9.999658115367957567e-01,3.847571646912425689e-03
1.577967898568153487e+03,6.926884484534981539e+02,6.024301618868465766e+02,-2.100373012972381326e-01,7.657709770240981317e-01,6.078479602757020928e-01
1.598198737594172599e+03,1.619271993460965177e+03,4.937085802943069552e+02,-1.501621101975839645e-01,9.849350549039784797e-01,8.575708881664369232e-02
2.526145685755949671e+03,1.113772916785512734e+03,6.000818345088808883e+02,-6.456302127896006203e-04,1.021537600071990431e-01,-9.947684114797875621e-01
2.888273868633562870e+03,4.914734344558083876e+02,4.572911023236745223e+02,-6.469573512162399842e-01,7.624541033660254818e-01,1.048455853038010588e-02
2.724956724165010655e+03,5.288101911729097537e+02,2.517613673744023799e+03,-4.150376317469869902e-02,-9.902024602663160868e-01,1.333286365522175221e-01
2.143956805631544569e+02,2.621236050609301856e+03,1.024747987360500019e+03,-5.615590813237515688e-02,1.358220772717568803e-01,9.891404740012478269e-01
1.387115529807510939e+03,2.021128141589784036e+03,1.051327762507805801e+03,-9.309150679136878326e-01,-9.474125240647138235e-02,3.527339385765246860e-01
1.687099929265937817e+03,7.567504488148648534e+02,1.908927295715251603e+03,6.009743691540430088e-01,-4.676261810506732175e-01,6.481940777389616493e-01
2.379897840714979793e+03,5.389419125266533683e+02,2.525432676226608692e+03,-6.067215944237324132e-01,-1.746999371459819206e-01,-7.754797475247913185e-01
2.853774542581198148e+03,1.803370196344685837e+03,1.854305121362177033e+03,1.981706982321290444e-01,6.349730125070337516e-01,7.466844365258544780e-01
1.505833800191022647e+03,1.544438279300536578e+03,1.489765493924179964e+03,-8.703704368984774287e-02,-9.437836148270221104e-01,3.188997356690199125e-01
1.986725798752459923e+03,1.177391166209643416e+03,7.351814953090747622e+02,1.982640587351419403e-01,-9.588330560227630306e-01,-2.032991236870371754e-01
1.170558504492737256e+03,1.033898525926658294e+03,5.295451290538902640e+02,-3.973191322783985180e-02,-9.370672442963169368e-01,3.468808941670933343e-01
1.051479661868387893e+03,2.817267493562859727e+03,2.690694939491854257e+03,1.307291029677022931e-01,-7.505538317623975386e-01,-6.477490619553551987e-01
2.444094193395951606e+03,1.967949770213525881e+03,1.397777702496192433e+03,1.122550160160530469e-01,-8.740834541106582423e-01,4.726276828849708678e-01
2.843967610167926978e+03,2.873576245616657161e+03,2.298887224539066665e+02,-7.013997171506916595e-02,-9.045551378323659630e-01,-4.205477226057453000e-01
2.526620867985109726e+03,1.146457729644594110e+03,1.458230516660858882e+02,9.625816294248397131e-01,-5.168458720206747792e-02,-2.660174996867168407e-01
1.535976831176516839e+02,1.589075158142363989e+03,1.038919525963437536e+03,-7.056140490306060942e-01,6.064488906864080597e-01,-3.665086039861254474e-01
1.483454019763691349e+03,7.415685733167139233e+02,1.351534450314289643e+03,-6.302561830859553238e-01,6.955520269647328391e-01,-3.449413304711024253e-01
2.713216531611587016e+03,5.002401939481137561e+01,2.422500584648856602e+03,9.120052563643359089e-02,5.659682951870705914e-01,-8.193670441058019671e-01
7.519094944810535708e+02,2.776533009567498993e+03,1.842234558920745940e+03,3.509718717968045298e-02,-9.539766396768092349e-01,2.978200100782648629e-01
1.382517368983219740e+03,1.102241300716430942e+03,1.140498691561630949e+03,-2.123575920350586066e-01,3.624156093976130810e-01,-9.075016138663491994e-01
9.539625610242738958e+02,1.466502278078977042e+03,2.059216074460166510e+03,-8.629314504086561533e-01,-3.904811786498363912e-01,-3.207393973553103184e-01
2.962470428433876805e+03,1.602001256371345789e+03,2.763936934427757564e+01,2.674259586662318666e-01,2.161120011345232794e-01,-9.390308618980947042e-01
2.649678849176696076e+03,2.915327522176915863e+03,2.580087251556811225e+03,-4.736840201229471775e-02,6.013969479969387688e-01,-7.975449488466270775e-01
4.393105327094898485e+02,4.840025792126043598e+02,2.300014393767683941e+03,-2.466721169244172340e-01,-5.748381578234778022e-01,-7.802012298389031653e-01
7.643175587936834745e+02,9.346887634023646569e+02,1.953509353514414443e+03,-3.062307445593568170e-02,-9.737205257463793506e-01,2.256780118909702537e-01
2.852987880433942678e+02,2.510346481254278387e+03,6.472783576885186676e+02,-1.144716853073428874e-02,-6.974923400250755412e-01,7.165008010735043342e-01
1.416806275531261463e+03,2.362025544637463099e+03,2.621322970586476458e+03,3.852345232521892093e-02,9.865363537637891200e-01,-1.589401344009575834e-01
2.021442330441283502e+03,1.618162214081598222e+03,1.698713370109147263e+03,1.033507365235777041e-02,-1.417794960134630688e-01,-9.898443113756673073e-01
1.379020197523678348e+02,1.349739678976161258e+03,7.374857980305179126e+02,-1.328814709893833858e-02,9.805512760105485892e-01,1.958127173111134933e-01
2.619461994323073100e+02,1.312428429847460166e+03,1.073170118670816919e+03,1.394926181221810557e-01,5.220772882197720621e-01,-8.414137594635046069e-01
1.027919066249227399e+03,2.943109062721881401e+03,1.364056940528229916e+03,2.035232843137305125e-01,7.365102844131985460e-01,6.450820674113812991e-01
2.881403592558554465e+03,1.064752424722275236e+03,1.679388179305143240e+03,1.319321828031919941e-01,8.908054963915780222e-01,-4.348096902546441100e-01
2.084377280469967445e+03,2.855677962952371217e+03,2.805837938159686928e+03,-1.142305491074172563e-01,-2.968319621174966253e-04,-9.934542231735714601e-01
4.339500102036569729e+02,1.284620960863877826e+03,9.350111883654047915e+02,-8.441881622584256756e-03,-9.986430346553997195e-01,-5.138894792583758447e-02
1.184357607445100939e+03,1.354866055343991547e+03,1.386115286866769566e+03,8.456452856431665444e-01,6.617335236329824344e-02,5.296273579664196873e-01
2.192480824608590865e+03,3.457596101655029202e+02,2.746412661045454115e+03,-4.723232808190663268e-01,8.464023781194083274e-01,2.459953916440786870e-01
9.601315700351642590e+02,2.041285927474292293e+03,7.102406268655714712e+02,-4.269879261138774251e-01,-9.014076546062842477e-01,-7.173249730887489017e-02
6.962537205103185443e+02,1.747843494949178421e+03,7.311871659888853401e+02,-6.343015346576755809e-01,-8.280962970491594077e-02,-7.686378395311099787e-01
8.373490058577847606e+01,2.972580955469809851e+03,1.944356424827281216e+03,8.141007008175026038e-02,7.502888900070056599e-02,-9.938526381232808404e-01
1.326661959604257618e+03,2.978279199778067323e+03,1.770479712184889650e+03,3.258271346273294844e-02,5.387263393171249914e-01,-8.418505200505463915e-01
1.871047592169382483e+02,8.284280235373593086e+02,1.255216787491116975e+03,1.610872357113237174e-01,-9.867122699561020616e-01,-2.120846078716631666e-02
1.551106994057629436e+03,2.054409050474366154e+02,1.296694473652212309e+02,4.705971002390159086e-01,-8.769318307817405289e-01,9.761625586148325873e-02
1.144682663213554179e+03,2.265014438787604831e+03,1.665204387370394443e+03,-1.922885278230216863e-02,-1.199521728704089352e-01,-9.925934351205150108e-01
1.680641675211793881e+03,1.198438311888056660e+03,2.325958750160842555e+03,-3.728892390161785402e-04,6.410651398153381919e-01,7.674863825939560735e-01
2.142579579584286193e+02,6.153723394181008643e+02,2.447169264795646086e+03,3.559877801972166633e-01,-3.824508530325559374e-01,-8.526453221386536274e-01
2.293292346696977347e+03,1.285550312993312446e+03,2.443213740873194979e+02,-3.081756281719166823e-02,5.436123689593670427e-01,8.387704513968010644e-01
2.234016231955430158e+03,2.779271700706960473e+03,1.463697798440960696e+03,5.324814514322324666e-01,5.239241931915754602e-01,6.648059443696181514e-01
1.277636543432113285e+03,1.861738119894341253e+03,1.634119643521697071e+03,-5.435747916748137065e-01,8.045932094493226661e-01,-2.390736563566162876e-01
1.684381328392915520e+03,1.678737798504787406e+03,5.550117318541936129e+02,-4.239575524717918986e-01,-8.458619494558372587e-01,3.236936146495610900e-01
5.634920007006810465e+02,2.796035623421768832e+03,2.374835129108766409e+02,-6.988758786093574038e-02,1.928215984178711373e-01,-9.787418230803042185e-01
2.659582998827132542e+03,1.857019002383507086e+03,1.809462759421509872e+03,1.631301864752020547e-01,6.846633913493450629e-01,7.103693284528684870e-01
2.000621864066717535e+03,1.630848536479980112e+03,6.739317242948199009e+02,-2.562003991919918899e-01,6.870691326372432295e-01,6.799245270108811301e-01
2.611552303449314877e+03,2.773461707000496517e+03,9.652300563676856200e+02,5.290839540246823347e-01,7.443630549791283024e-02,8.452984124067839389e-01
1.413086500587153751e+03,7.962268402073965490e+02,2.612320450963711664e+03,6.919633493486612164e-01,1.421148891908803891e-01,-7.078065282465586527e-01
2.206785837273211655e+03,6.512435861042816896e+02,2.157572894002785233e+03,-7.724854896447966857e-01,-4.718036103431590411e-01,4.250500224154791784e-01
1.122458183840523134e+03,6.093196889286180067e+02,2.449054771312341472e+03,8.725308535556942913e-02,-4.223265538872209013e-01,9.022345487608408598e-01
1.885778294659536414e+03,5.787958765510926469e+02,1.257269068476119628e+03,9.326852601213064808e-01,-2.103936310871875048e-01,2.929722265853872964e-01
1.475514636407186572e+03,1.746828239080412914e+03,2.948117478986168862e+03,-6.491046519280411209e-01,-7.586250603817975557e-01,-5.613527060672729441e-02
2.079623326892212390e+03,2.881043495296236415e+03,2.076082178732897319e+03,-6.041158078850988877e-02,-7.491692303033248290e-01,6.596179995068033319e-01
2.793251797104148864e+03,2.961179535584095902e+03,1.896356834367288457e+03,-6.645522940260556455e-01,3.906274317327311230e-01,6.370089937219076681e-01
9.307971361351389987e+02,1.949943679641111203e+03,1.341175368873217167e+03,-1.705358611129310087e-01,7.516428586363254061e-01,6.371424747538686484e-01
6.073974207011809767e+02,8.951642388826606975e+02,2.590184167232737309e+03,6.389585246128096641e-01,7.675530015076512669e-01,-5.093519118661493650e-02
9.256614459703691864e+02,1.270262050316801378e+03,2.540041288440073458e+03,4.814477087837013003e-01,-2.224203622450444950e-02,-8.761925561949908126e-01
1.018798428263435085e+03,3.750015425694654709e+02,1.920413588459932953e+03,6.063166407065826435e-01,-5.274735075511380877e-01,5.951065703165984155e-01
1.631070257958970160e+03,1.296409023132417815e+02,2.016602636454208323e+03,-3.806908744241437881e-01,2.563381349458824787e-01,8.884622775912589532e-01
2.834253224580610095e+03,6.816602904410970041e+02,2.758516527895257695e+03,-5.362052479322828441e-02,-2.761075715457027568e-01,9.596298496066247852e-01
1.650357070625132792e+03,1.065090933290698331e+03,3.529579848878683492e+02,1.627003131325937269e-01,4.026288033892413964e-01,9.007877967578732381e-01
1.464251290721143050e+03,2.609741991019749548e+03,2.748809803090511650e+03,-2.389701728816963008e-02,-7.490060801792338685e-01,6.621320294467472056e-01
2.417632528938444466e+03,6.065672502717927728e+02,2.605134714592213186e+03,-3.438757179757118143e-01,9.195766300963774675e-01,1.900744905748241731e-01
6.526569648911015520e+02,8.995578243098967732e+02,2.511986300815128743e+03,1.640966018214455036e-01,-6.722394303632951429e-01,7.219185920417110491e-01
1.593841634638612049e+03,9.379876468743829037e+02,2.286723128438102322e+03,-9.775005113515260469e-01,-1.245297066151491161e-01,-1.702501174092105884e-01
2.538637401859574766e+03,1.846809440681075500e+02,1.860033843860311890e+03,3.544108613302476285e-01,-7.755118051378003807e-01,-5.224695029023821435e-01
1.882882552403601494e+03,0.000000000000000000e+00,2.041009693392904410e+03,1.720626039529088991e-01,7.343540283684896197e-01,6.565962392063450226e-01
2.575333255425383868e+03,5.676439110290798453e+02,1.730411879386224427e+03,1.080044695992293663e-01,8.862974346301778494e-01,-4.503464132360274763e-01
2.102487158620902846e+03,2.946895522724967122e+03,1.082716371168707383e+03,-3.711415403446804984e-02,-9.590997369485944057e-01,-2.806247212122318091e-01
2.082454471775355614e+03,2.229640930822591145e+03,2.697703143211510906e+03,-6.075163229901985318e-01,-4.140328760651401097e-01,6.778648057228646717e-01
2.002465007975926028e+03,1.640249590378453831e+03,1.607896662024035777e+03,9.572630426385268787e-02,8.111876576301768615e-01,-5.768977888503745710e-01
8.111296226796683868e+02,7.293600431776862933e+02,2.544698096329523651e+03,-1.277558472148064006e-01,9.868180050548076565e-01,9.934117173698311931e-02
2.497352095911682682e+03,1.553510522284127319e+03,2.684705073157649622e+03,-5.628232565353761142e-04,-5.669255055870952020e-01,-8.237688719202725940e-01
2.010495759302047645e+03,2.712203222738914519e+03,2.554060521185680500e+03,1.648617181726595993e-01,-8.550405969155035202e-02,9.826035160009465308e-01
1.907957238786050311e+03,3.048177279363636103e+02,1.473307580341627272e+02,-8.819251133389935937e-01,-2.202142982910922364e-01,4.167898238802925648e-01
3.964867883978310488e+02,7.693686544068800970e+01,2.715667706488504791e+03,-6.042512969276790935e-01,2.539006107525713096e-01,-7.552581346934894579e-01
3.526091556668800990e+02,8.810982334889048389e+02,2.663201512019129495e+03,2.570462089145729156e-01,-4.097031952049304260e-01,-8.752545562986326910e-01
9.024514294369513436e+02,2.674643619322468112e+03,1.177350139509632982e+03,6.824542776524553656e-01,-4.368478898205227501e-01,-5.860205457773831617e-01
2.221997187850463888e+03,2.517677010175339547e+03,1.339854741762482888e+02,2.914972839343356673e-02,-9.954888899784795075e-01,-9.028933084259563313e-02
1.682141089943870611e+03,1.813837653428672184e+03,2.283925665128327182e+03,2.637321897975386520e-01,8.999028362860751473e-01,-3.473042143551852146e-01
2.607731487341926822e+03,2.222524302434091169e+03,2.887654565288965841e+03,-1.739002968455082843e-01,-4.022248986984698904e-01,-8.988736382963122828e-01
2.882808220490460826e+03,2.008486848224278674e+03,1.188873411583373809e+03,8.857789231752727366e-02,-7.282289234729691918e-01,6.795856031509091011e-01
2.359606270792566647e+03,1.960056553233192062e+03,1.456257242458675819e+03,8.434328407471046647e-05,-7.791693188631922951e-01,-6.268135013131731492e-01
8.881336170345224446e+02,2.103608070754839446e+03,2.197648097387079360e+03,-1.341744458249870611e-02,-6.838989319056145710e-01,7.294533728205216949e-01
1.529524753581664072e+03,1.675647064353139058e+03,2.287395816955922783e+03,6.783160104447083505e-02,9.787916659986261037e-01,-1.933022205546994221e-01
1.974946716381650731e+03,1.103254472419661312e+02,1.720246937264304279e+03,8.442199017849044695e-01,3.809044995644953607e-02,-5.346418194009907587e-01
7.138827602181581824e+02,2.588067297251935997e+03,4.357480569473095784e+02,-7.174444945325337830e-01,-1.360136846355030904e-01,-6.832083685500573988e-01
2.814082199753968780e+03,6.042554088478007088e+02,2.709565178142668174e+03,-5.783942135252674588e-02,-9.823518303123534023e-01,1.778749077851455307e-01
1.073562524568159688e+03,2.748603763371812420e+03,1.951431210712408131e+02,8.822061501978054358e-04,-3.781347976028771596e-01,9.257501264132453889e-01
5.252704994806947525e+02,2.841105823649520516e+03,4.327185240585300789e+02,1.233206507322669176e-01,7.918115776464658140e-01,-5.981859598887164786e-01
9.603365932315379041e+02,1.097293589690257704e+03,2.079557907799663099e+03,-2.798040682610850038e-01,9.583385802109140039e-01,5.741819453688642300e-02
1.949414418904179911e+03,1.473740252609310573e+03,2.191321817487124463e+03,-6.530697209036080420e-01,7.248047776552305477e-01,2.194492513704146830e-01
1.629517217970493732e+02,2.717613519059248574e+03,9.781687396639691769e+02,-1.374448617471335163e-02,3.791038442536280861e-01,9.252520545083453563e-01
1.626466843999833372e+03,1.933461872525937906e+03,2.085639210855428246e+03,-1.645095499597243327e-01,1.874128505588835703e-01,9.684074717893509376e-01
1.584444823869541096e+03,1.037979052592409516e+03,2.331263640627363202e+03,-1.057820560891238465e-01,1.823817141140176082e-02,9.942220706226179150e-01
2.290738434523631895e+03,1.559601388450728109e+03,3.548934371435408934e+02,-7.831306700486512229e-01,-4.207629148580663281e-01,4.578918246805617764e-01
4.468503334798535889e+02,1.317588165378940403e+03,1.000054692273327873e+03,-9.652854737560859211e-02,-9.688662442364420757e-01,-2.279921935521606324e-01
2.787101447908551108e+03,2.533817745666599876e+03,2.325725120915676598e+03,4.618736520904937470e-01,-8.533825014463288783e-01,-2.416837514807235743e-01
2.184657543309888752e+03,2.121493868368022959e+03,1.036565791911882343e+03,5.057451036199868410e-02,2.825208615130873069e-01,9.579270231659335888e-01
1.448172911616559304e+03,7.647260272277108015e+02,2.869414643918438742e+03,5.232423033332022078e-01,-8.312456307057154437e-01,-1.877450223979926502e-01
2.615298419309656310e+03,8.770507571573921268e+02,1.478020403583561119e+03,-7.321715380095348280e-01,-1.686687764610162454e-01,6.599058135642510425e-01
1.445582897578935899e+03,2.061228116061223773e+03,1.020205108459175563e+03,4.977780024957578070e-02,-3.917280244768739546e-03,9.987526347989262865e-01
4.038646551350741447e+02,9.525346949402414793e+02,1.881647902115626493e+03,-3.876662686947183068e-03,-1.680618211864551015e-01,9.857688348420757807e-01
3.023856135493329020e+02,2.827228945013732755e+03,7.814304434120555243e+02,3.097144349853759304e-01,2.937839926148959058e-01,9.043052219493925570e-01
1.524959747864568499e+03,6.633846318521232206e+02,2.526422896723908707e+03,5.522711790090839568e-01,6.576029774550324891e-01,5.124010820423707813e-01
1.820185787035570229e+03,6.127636644222748146e+02,2.277004402952485179e+03,-3.433525913606409741e-02,6.934293721091525642e-01,-7.197060482421735461e-01
1.240081595349465260e+03,1.449666029934800008e+03,9.348716414201081193e+01,-6.409117790345514321e-02,-3.175302699410315621e-01,-9.460797263371217847e-01
2.393978577747299823e+03,1.108364312925079275e+03,7.985330615780032986e+02,6.829238085875231068e-01,-6.360226019008513587e-01,3.592914158946511893e-01
8.776678759469485840e+02,1.922208110232004401e+03,7.316532591957422937e+02,-9.827613836680829662e-01,1.723556015135113417e-01,-6.688504614419246708e-02
1.141672541884963721e+03,8.663522839933860951e+02,3.973156222896795953e+02,4.247472311242063425e-02,9.860763508917611553e-01,1.607772624114233717e-01
1.469809995129653544e+03,1.695753752739527727e+03,2.694416351927397955e+03,-1.731044418934453086e-02,-4.710795803072973520e-01,8.819208453934332947e-01
2.792200078583111917e+03,2.922140096071465450e+03,1.680985456298635427e+03,5.294763772674411229e-01,-1.685894921307727057e-01,8.314038423406728828e-01
1.317041421591923154e+02,1.965682416339059046e+03,2.871658880921939272e+03,-9.803052192661097786e-02,-3.161772794432727296e-01,9.436217169685354733e-01
1.629209583057479449e+03,1.169749429024430128e+03,2.342243971693102594e+03,1.511378783552848881e-01,9.408841999504554687e-01,-3.031406670340595633e-01
2.046822908094635295e+03,2.074073848820106377e+03,1.926166014979446572e+03,1.267839578817759553e-04,7.695785581670678832e-01,6.385521331381839305e-01
9.870937293965725985e+02,1.197018663243652554e+03,2.070026816057046290e+03,4.852555320730557280e-03,3.771819920632374923e-01,9.261264479378975567e-01
5.868209961565904678e+02,2.273657487967931274e+02,2.894833017072798611e+03,7.656836900113375699e-02,-9.279989432568075403e-01,3.646302869795027268e-01
1.592260888927170981e+03,1.739989749299627420e+03,2.004068412930048680e+03,7.286483406210945979e-02,-9.910261731373721794e-01,-1.120617691891237083e-01
6.647189946528087603e+02,4.260717077038954699e+02,2.308921723550598927e+03,-9.009248329578313230e-01,-9.963393527039478281e-02,4.223831486961083237e-01
1.745230968380684772e+03,2.746291043948026527e+03,1.873208034823811886e+03,-9.157729993625642884e-01,4.009746733336994606e-01,-2.406501575785502389e-02
4.168540871290993266e-01,2.023365036647547640e+03,3.126304863190837295e+02,2.494303683473254353e-03,9.936835260453040775e-01,-1.121910358063698543e-01
2.378431995885329343e+03,3.000000000000000000e+03,2.254224502311766628e+03,2.488209196941971735e-01,9.109734424402813335e-01,-3.289613002938753805e-01
7.562892550411236243e+02,1.525201156604888183e+03,2.978201787112981037e+03,-2.259677625385975719e-01,1.014614953907428813e-01,9.688364852989250764e-01
3.022642168087752452e+02,8.516018097234598372e+02,6.446261256098217700e+02,-1.563358915964540019e-01,-7.404573360285003902e-01,6.536681287322476663e-01
2.744296558250602629e+03,1.102751489203182473e+03,1.711745495020573458e+02,7.195463485006926563e-01,6.739237216167524025e-01,-1.675704920370699735e-01
1.509061121425596639e+03,2.772247556413584789e+03,6.218141019106116829e+00,-7.403585536537973626e-03,-2.231173974751416988e-01,9.747634655982562180e-01
5.856740081564263392e+02,2.065800635456691452e+03,4.569126275887019801e+02,-8.654488813829570582e-01,9.576107129617011937e-02,4.917601559065132300e-01
6.114901980370319734e+02,2.704883531716258403e+03,2.523319173482972019e+03,7.458536864287435009e-01,6.284414080599967090e-01,2.208249874362553378e-01
1.369848367196159131e+02,3.879454539988950046e+02,1.359383091425306475e+03,-9.519407852801144987e-01,2.737155349640337243e-01,1.374356112498933691e-01
7.953372897662513878e+02,2.241120749859197531e+03,2.103876158181545179e+03,2.822828881914874952e-02,5.330272208354771557e-01,-8.456270723899219632e-01
2.662922176131602555e+03,2.008886167764291940e+03,2.428749949102081246e+03,-6.129137165628014555e-03,-6.249153471669889326e-01,-7.806684587920577068e-01
1.693959767744526744e+03,7.215449214454118874e+02,1.400549870784753239e+03,-2.467083168942853511e-01,-7.013308593742385855e-02,-9.665486830119229822e-01
1.008290970227409844e+03,2.870624074873737754e+03,2.450434881024566494e+03,-8.224881217864080662e-01,-3.365774126577533720e-01,-4.585072898099649130e-01
1.521501769994786628e+03,2.868736390293010118e+03,0.000000000000000000e+00,-6.178576404721964135e-04,-3.135534427692939774e-01,-9.495703537808345418e-01
1.060002542971607227e+03,1.536128618912471893e+03,1.887764520745435220e+03,2.007211945158338395e-01,1.978944921761982556e-01,9.594523292162364658e-01
2.857395050858509876e+03,2.603992253283204718e+03,2.590576540087609828e+03,1.072374352319023505e-02,2.109510953723141569e-01,9.774377917218413092e-01
2.599371350694289049e+03,2.836600423158401554e+03,2.595334763685835696e+03,-9.330389727734746952e-01,2.931436947449608810e-01,2.085786410855441642e-01
4.509615184452972017e+02,8.332750659361182670e+02,2.561263742595297572e+03,-9.609253668483398458e-01,1.090158495868259886e-01,-2.544366009170970777e-01
2.550986738490570360e+02,1.698131209905847982e+03,2.187545032780814836e+03,-1.197970741329622280e-02,5.495084162534621397e-01,-8.354022905623993411e-01
1.912766091490613462e+03,2.930897746015425582e+03,2.614961247217592245e+03,-1.423253250284857441e-01,2.934755477275879376e-01,9.453124376318805533e-01
1.905388862094884871e+03,1.266575557872370155e+03,2.765451967552432961e+03,-7.843288793812629445e-01,-3.244589871957503924e-01,5.287292072473774862e-01
1.929872630842267199e+03,2.349611959836198821e+03,2.228904262355564697e+03,-3.727887794042216707e-01,-8.990726708045312376e-01,2.295579634051445606e-01
2.261132141142968521e+02,1.016725196949372616e+03,7.907362223076761438e+02,8.515742684661531392e-02,1.631435189219195003e-01,-9.829203451382195755e-01
1.667063158950644265e+03,1.944213398375295583e+03,2.479540806411466747e+02,-7.356396117966741421e-01,6.718467636420190070e-01,-8.634979872231146603e-02
7.864537807346256386e+02,1.853914967855608666e+03,1.931410003270692641e+03,4.949806050603900998e-01,-5.972479425407206666e-01,6.311014940125923012e-01
1.982526247579720120e+03,2.164201550509622848e+03,2.712907365795608712e+03,-8.645813254785991164e-01,3.873342828903356128e-01,-3.201113633276676529e-01
2.213719232998009375e+03,2.118673308716212887e+03,9.760506847563333395e+02,-5.007667367113359802e-01,-5.622960955033313724e-01,6.580697351992323973e-01
1.416621548892593410e+03,1.093380115302453532e+03,1.966305714763942433e+03,-3.498848651937064985e-02,-9.305103021927056961e-01,3.645907065797528990e-01
1.623144554748868131e+03,9.938726326804115843e+02,1.122345731778810745e+02,2.392046644481918456e-03,6.899795491773247358e-01,7.238249096500521951e-01
1.916190707628122709e+03,1.261408141401990633e+03,2.842805368016848206e+03,-1.074664803294608367e-01,1.403276888543800449e-01,9.842556046812158677e-01
1.679981203145908353e+02,2.734216254234166627e+03,1.451217516097815860e+03,-5.444800014381018238e-02,-9.383010214802840476e-01,3.415063811547234263e-01
2.308305398584038358e+03,9.720210132190743479e+01,2.548632900208713750e+02,-2.445104599519831445e-01,-7.728247112983418488e-01,5.856249658106322808e-01
7.434154766619357133e+02,1.728519446261523740e+02,1.686081442885458728e+03,5.682052800443195828e-01,3.504316662427987006e-01,-7.445403998602440065e-01
2.136219859821749651e+03,5.777784732882778371e+02,2.117410052920573889e+03,1.074209067331695217e-01,9.832162372967393482e-01,-1.474672150434315210e-01
1.970063599920137221e+03,8.894192909586081441e+02,3.599714448042283834e+02,-5.557712023552174863e-01,6.507825393679870229e-01,5.173011280544344004e-01
2.071667335165046097e+03,2.323787891514033106e+02,2.330370400795630303e+03,2.652115787677892800e-01,8.468094085863000497e-01,4.610603474787411393e-01
1.293860075196556920e+02,1.999476648179851054e+03,2.332237477047975972e+03,1.066615772003242941e-03,8.516281867931072558e-01,-5.241452983575063396e-01
2.389249098620107361e+03,1.939610829939723772e+03,1.366092478940459614e+03,-9.837376762587589970e-04,8.272673591931610781e-01,-5.618075726383168211e-01
2.507610250904398072e+03,7.584489837287379714e+02,5.610191675289881914e+02,-5.973184731217519028e-01,8.013997414899335370e-01,-3.113030689483653468e-02
1.504727033659033168e+03,1.635536889053044433e+03,1.838910932563579308e+03,-4.433465964104424950e-01,8.736530139711089493e-01,-2.004350434192425645e-01
1.861729198106219883e+03,5.396587961530119060e+01,2.029887690782085656e+03,-2.009606112537969114e-02,5.762062880892147021e-01,-8.170571962192695326e-01
1.792853032191232785e+02,6.242901374432412922e+02,2.955314712794678940e+02,5.622285832611815248e-01,6.992931234321088096e-01,4.414613773419938103e-01
2.322352220552134440e+03,2.026931758062268273e+03,1.435179965634766631e+03,1.639686528682735706e-02,8.582871515222647574e-01,-5.129076996308037373e-01
2.251291735865211194e+02,2.604989604975043676e+03,9.790834215230147493e+02,5.031291909693974031e-03,5.016546846888537692e-01,8.650533298192928378e-01
1.061868516102074864e+03,4.032561220722213875e+02,2.935219942113447814e+03,-1.832331114426023755e-01,-2.054845754717158079e-01,-9.613541054753298454e-01
7.059817498208128654e+02,2.668714357479061050e+02,2.794180582182936178e+03,-9.586257624763221130e-03,4.522818525166613091e-01,8.918235417103815843e-01
