x,y,z,nx,ny,nz
1.413769977223072374e+03,6.523590630131599255e+02,1.511487071546770039e+03,2.972364616238413193e-01,9.088966023981283060e-01,2.925020547457360398e-01
6.836136399102159658e+02,1.972353673120116582e+03,1.461710721215954209e+03,4.622587923170389921e-06,3.191313050338132618e-01,-9.477105096631813774e-01
1.006190067592468949e+03,2.074456495629769961e+03,8.661588741801599554e+02,2.179019503078472031e-01,8.025457134150855154e-01,5.553729539067489007e-01
3.630835310574352661e+02,1.484434651446779299e+03,2.090362369606547759e+02,-5.973378243456550774e-01,3.354237556086420158e-01,-7.284767860264275141e-01
7.852026449275575715e+02,1.926736621893476695e+03,1.488051778202926698e+03,-2.889258874181381831e-01,4.401134918374455252e-02,9.563392874511994490e-01
2.889138037014339261e+03,2.839655529624415522e+03,3.338000552581825673e+02,5.984963996453457336e-01,-2.537477166238522389e-02,-8.007235356692348205e-01
2.868261759156757307e+03,2.627819096279743007e+03,1.843102415542460335e+02,-9.474329580471316792e-01,1.123017949524940107e-01,2.995982257232341350e-01
1.235465596604565235e+03,9.199343684827346124e+02,2.155396792355318212e+03,-3.859888240587514563e-01,-8.870497368827374995e-02,9.182287598113580973e-01
1.389892339507050337e+03,2.932775984004295879e+03,2.431574034296367699e+03,-7.617753097161791276e-01,-2.997380941671687338e-01,-5.743304383469962637e-01
2.002150063088709430e+03,6.138512559295747906e+01,7.256202751917480782e+02,-9.039693312976215811e-02,3.619171061845500859e-01,9.278170092920987599e-01
1.526316001211173443e+03,2.444036835276275269e+03,9.947851462014945412e+01,1.293743505575738195e-01,-3.881889045393051019e-01,9.124536436501200498e-01
3.364259877717432801e+02,1.859228426454518285e+03,2.768358495578541806e+03,1.183770917811228091e-01,-9.253073669820480740e-01,-3.602681511738071163e-01
7.110101795082915714e+02,1.147041319570464793e+03,2.149118371764446238e+03,8.520458806716910694e-01,-2.814921451768202521e-01,-4.413388600997588118e-01
2.345609851127038382e+03,2.052851369930807323e+03,2.044575792750488972e+03,9.092207237152707400e-01,-2.931520973024771548e-01,-2.956002764102876879e-01
1.915931885902032036e+03,7.820481570207051618e+02,2.577104285049118971e+03,1.558386334329879726e-02,8.537379856115375754e-01,-5.204695909726634317e-01
9.073178510366615228e+02,2.230843867169589885e+03,9.648023196993019610e+02,-1.463281870339993573e-01,9.758911590356972310e-01,-1.619398264643585605e-01
2.026542693727588130e+03,2.852589385298576417e+03,6.791702047000004541e+02,-1.221841839970262966e-01,-8.184214557869375906e-01,5.614778231493836591e-01
4.891174160983585466e+02,1.211470874554081774e+03,1.104661860031372953e+02,1.457563436492407827e-01,-9.646917645751912351e-01,-2.193738536079634649e-01
1.378106692850318041e+03,1.087833540239617150e+03,2.483303088063720224e+03,-8.147199222969871979e-01,-4.482139988850229462e-01,-3.678799524517311070e-01
1.382678560801194635e+03,1.386952797808938385e+03,1.933367727723796179e+03,7.874995178538364560e-02,9.809563171424318107e-01,1.775475963007004943e-01
1.240538331502112896e+03,2.175600414531903880e+03,2.525794157536018702e+03,7.244861969363479703e-01,3.605492316581269119e-01,-5.874725542520617960e-01
2.327370685248087739e+03,1.812794935216180875e+03,5.832942294625374871e+02,-2.772278333808783548e-03,9.982216773610150806e-01,-5.954659788267906151e-02
1.714338405609230222e+03,2.938544769566533432e+03,3.984601947561699831e+02,-7.570195555175917024e-01,1.842528100507803412e-01,-6.268750230726527484e-01
2.498495844955397388e+03,5.049998310143022309e+02,1.831361771789478780e+03,1.418973402616534665e-02,1.225022614666106124e-01,9.923667907501907415e-01
2.647903080765867799e+03,1.328027926321681662e+03,6.278333478491067581e+02,-4.155021073041278434e-01,8.342066698377127443e-01,3.625703115591546455e-01
5.472960457927226798e+02,6.703326618249056992e+02,1.521841067069791507e+03,-1.594491563958380176e-03,7.171624217533902890e-01,-6.969042390611960291e-01
1.744215214030190054e+03,9.575362911773130463e+02,1.747559351461927236e+03,-2.612215178953533057e-01,7.891832947101967699e-02,-9.620474083234937801e-01
7.395404763211886348e+02,2.717650823650502844e+03,8.296350139940733470e+01,9.537628259208075221e-01,-3.475188121997898477e-02,-2.985444332812588475e-01
2.330025102514072842e+03,1.142534002320884838e+03,2.129743528948307812e+03,-2.081655004520860039e-02,-9.171911120704725473e-01,-3.979034244425966316e-01
1.647358733459923997e+03,1.771784015745060515e+03,2.396710648532346113e+03,-8.266744111495359301e-03,-9.513031917522383196e-01,-3.081459042463475240e-01
1.391616816165202636e+03,2.953631002197068483e+03,2.494662810282978171e+03,-4.951774530152753401e-02,-1.580240879614614596e-02,-9.986482247400696455e-01
2.143897280222889549e+03,2.293824380452007063e+03,1.121713551968209686e+03,-8.443867680441035084e-01,-3.198891718838487441e-01,-4.297463247818402721e-01
2.440345408044464421e+03,6.739342726434296083e+02,1.560240384188348571e+03,2.420798774059192485e-02,-6.442746688026664836e-01,-7.644109656910775819e-01
2.409505287557960855e+03,2.935334577094519318e+03,2.785693102275029105e+03,-5.749452758993141288e-02,-4.843498189039933122e-01,8.729831798063920623e-01
1.265670760563348949e+03,1.563686496575856836e+03,1.480768679241692553e+03,4.810884166001163087e-01,7.446534175010165457e-01,4.626502169212176607e-01
5.692882940970143864e+02,7.078696335898476946e+02,1.519044188901395955e+03,-5.187683192137151900e-03,2.950236884077924171e-01,9.554758559070762880e-01
1.740164356359852036e+03,2.920503771055452489e+03,2.343993647964438878e+03,1.491123626773102895e-01,-9.775691847710923366e-01,1.487413603634588632e-01
7.908417866810575561e+02,2.469597951959377497e+03,8.201202741121367126e+02,-1.431303695003737220e-01,-1.935895627906896940e-02,-9.895144911210100869e-01
2.729887649485989641e+03,1.314258155317671026e+03,2.739429857514194282e+03,-8.108639261081775906e-01,-5.169134580943074431e-01,2.744087647605603641e-01
6.610386744282201334e+02,2.111057222304232710e+03,1.655346786419359660e+03,-1.021243632010396884e-08,7.860705976891850522e-02,-9.969056776618766547e-01
2.478026816770359346e+03,5.152495981116977646e+02,1.782957275509154897e+03,7.258216283929268611e-04,9.974336300337198757e-01,-7.159348336769361110e-02
7.282350766367735559e+02,1.106840774939825224e+03,1.602298341808668511e+03,8.485596632023737484e-01,-4.875534332442647556e-01,2.055192149595854723e-01
2.550490853923257419e+03,1.636109208358661817e+03,2.073204792627459938e+03,-9.930452306637074233e-01,-4.218850840035426319e-02,-1.099149653824145340e-01
1.905304580558630732e+03,2.648273003394895568e+03,5.202229716539280844e+02,3.477828862073991112e-01,-1.900334017152741362e-01,-9.181145736201841157e-01
2.395348272472355404e+02,5.174301178085348738e+02,2.608727625648481535e+03,-1.610771247506943837e-01,-2.694127116833288094e-01,-9.494582406117105799e-01
2.720702227017576661e+03,2.001241668622908264e+03,2.833836035157077731e+03,-1.776230879683827202e-01,8.753420164747761634e-01,4.496958892567830546e-01
2.185673238748596759e+03,5.095040242391344236e+02,2.594065243294302945e+03,5.984854368551064674e-01,-7.136713120087030404e-01,-3.639896156322715015e-01
4.629777921398409148e+02,1.398060767397350446e+03,2.819697355978832547e+03,-7.907301009233127509e-01,5.293017716829711006e-01,3.075476255591572117e-01
6.945184824165032751e+02,8.414473566234499913e+02,1.344011846983180021e+03,1.948022993199113873e-03,9.657347463528322962e-01,-2.595238040975213489e-01
5.104781555238631086e+02,2.594761514111773977e+03,2.436738502835101372e+03,1.289388972430722570e-02,-9.882093159691792694e-01,1.525650531396506027e-01
3.926014564251402135e+02,6.819985111344200277e+02,1.026698165156262121e+03,7.110386709997025267e-01,6.458688448533072002e-01,-2.779882076470716612e-01
2.349331736489709783e+03,2.588726539444211085e+03,1.293946038794805872e+03,-8.043917149451210724e-01,-8.169732214194930231e-02,-5.884551949660072889e-01
1.686133945493774490e+03,2.447647959705999710e+03,1.828192844161251742e+03,9.248821152490979136e-01,-3.365365228214408644e-01,-1.770204555965445015e-01
1.513093444964050377e+03,2.105783692361980229e+03,2.070079475388856281e+03,6.435593144826111667e-01,3.456489650090779908e-01,-6.829042405277805372e-01
1.956759577394045891e+03,2.821455872554903181e+03,2.727782041261114500e+03,-4.934765129192780070e-02,7.497217815936428886e-01,6.599106450997926920e-01
1.738430984920229776e+03,2.802991373736117112e+03,2.439642059265330772e+03,4.182674998458409954e-01,3.603184291206371244e-04,9.083238237233123291e-01
6.028872452455822213e+02,2.233611736312722314e+03,4.204632879537856525e+02,-9.285722368154030182e-01,2.398004108457450767e-01,-2.832831868887579763e-01
2.235891501576207702e+03,2.186569434514655313e+03,1.535849258574960686e+03,4.427784041839890605e-01,7.712513573364518926e-01,-4.572949033118132722e-01
1.342984084120766511e+03,2.576445707141934690e+03,5.946738163282880123e+02,-8.643516302910975169e-01,-2.086631383192378841e-01,4.575543179993917242e-01
2.568690559638831928e+03,7.558746316177431481e+02,1.218853511096590182e+03,1.177430307191915972e-02,-1.894929197927937015e-01,9.818114885942068604e-01
7.358548582008074845e+02,1.712644119906353581e+03,1.818466204400097581e+02,5.707747885992192627e-01,3.416397089206391069e-01,7.466581881879670313e-01
2.030329672336082012e+03,1.971408666242740082e+03,1.256850114422180923e+03,-8.812858006599978422e-01,4.618341951691936065e-01,-1.002223215031947667e-01
1.364590741385519095e+03,8.607149511331404028e+02,2.531355970260831782e+03,2.399635777385991306e-02,-7.780352214883963224e-01,6.277621913886587413e-01
1.704103594745099031e+02,5.000643625821446108e+02,5.243270308617850333e+02,-1.219945333443949766e-02,-4.222232667232216907e-01,-9.064097783982210110e-01
2.331905012235592494e+03,1.420217968529907012e+03,1.173631485485605253e+03,8.236279389072935775e-01,-4.041902446117243142e-01,3.978281845370410519e-01
6.079867245973591707e+02,9.105042380428780007e+02,1.335794580485095594e+03,5.346971232613895175e-01,2.928742241509304511e-01,-7.926687045695604006e-01
1.984585560273572355e+03,5.425903679432582294e+01,7.592130588321440428e+02,3.741695486379922626e-03,9.710564579311874445e-01,-2.388207596190566884e-01
2.336641101824454381e+03,1.830185328181640671e+03,4.542897207773075934e+02,-5.737259788749924511e-03,4.986270605984445548e-02,9.987396028968241746e-01
2.573705562999499307e+03,5.390402534817268361e+02,1.855787979381107178e+01,8.622834040383179355e-01,-2.751006113791945595e-01,4.251905275742680068e-01
1.050086170436552493e+03,4.072459921201987498e+01,1.369281010821575819e+03,5.779677649615988511e-01,-8.160234441115010728e-01,7.681232042979770427e-03
1.922357393767257918e+03,2.226109975517458224e+03,2.033210311692341975e+03,-2.227830569702786145e-01,-9.285521855252836243e-01,-2.969150523014907339e-01
2.745403403509370946e+03,1.352534567377304711e+03,2.719195104160092342e+03,3.314700344950222838e-02,4.926696132583839871e-01,8.695849172646412661e-01
5.260660974169039719e+02,9.506943034677373134e+02,2.331435762165271171e+03,5.322916841237802787e-02,-1.544777004754536304e-02,-9.984628295688752209e-01
1.384418091474448829e+03,1.616220570553606990e+02,1.831925874251639925e+03,1.190760963887384782e-01,5.601687026168468142e-01,-8.197755228581653508e-01
6.195141332634824494e+02,3.303471154405734751e+02,2.016355276332932135e+03,-9.063565240448250293e-01,-3.610606844539122617e-01,-2.194379945749030669e-01
8.178838430568355022e+01,2.231424202784717636e+03,8.628203222335017699e+02,-9.053848735192826513e-01,-4.138822328051696142e-01,9.476142765218269204e-02
7.639213240190173337e+02,1.913108408397969015e+03,1.471148970451005653e+03,-3.432689540148903817e-01,4.317859806438476694e-02,9.382441227520252891e-01
2.900185685002765695e+03,2.377067051182373689e+03,8.054815037561061786e+01,-1.697846777017469888e-01,-6.597407742077098236e-01,7.320623430183562652e-01
6.946661286680185867e+02,5.256726757739101004e+02,2.058021201806036061e+03,4.370152025691779740e-01,-9.704092130397219684e-02,-8.942039880899081972e-01
1.772101454769965358e+03,2.414241033821924248e+03,1.193531117427060735e+03,5.127193163493896089e-01,-3.688451242252471229e-01,-7.752884475970711620e-01
6.403570903158399688e+02,2.063055566118925071e+03,1.640271841062414296e+03,-5.393358986231003294e-02,3.248791416077196487e-02,9.980158832994825424e-01
6.256945594214816992e+02,1.020323188734135442e+03,2.992346373295663398e+03,-2.275959696593351511e-01,-9.628090424131049430e-01,1.455981539800106639e-01
4.234531607808730200e+02,1.341330738053388814e+03,1.153390174044648575e+03,5.430944515094484615e-01,-8.390239123191886028e-01,-3.297410038581549685e-02
1.641540933159579936e+03,1.773327225013154020e+03,2.346358210205770320e+03,-8.229111729802496538e-04,-4.013231079019480285e-01,9.159361800262738607e-01
2.811880199659600294e+03,1.283575459422285576e+03,2.686663496245209444e+03,-5.759613754729509157e-03,4.646656362665197437e-01,8.854674885744968638e-01
7.250824737452053341e+02,1.843940491344349084e+03,1.493695932981542455e+03,2.143500593656487690e-04,9.999304832743217686e-01,-1.178909126410087986e-02
8.883664711135357948e+02,2.255576033856284084e+03,2.396510333963247774e+02,6.735476004937662742e-01,-7.028693009771411759e-01,2.287102437867507831e-01
1.021616567840337439e+03,3.610068756102077145e+02,6.665415290387750247e+02,-3.865263246565186495e-01,-9.025903389717837566e-01,1.895470399197096700e-01
1.634883005067388012e+03,2.082680462068412623e+02,9.592466628645049695e+02,-4.996421988010817383e-01,3.184609175830063754e-01,8.055683193556025801e-01
2.648117570668022381e+03,1.437114535336709878e+03,2.189686424845570400e+03,-3.532172582985117215e-02,6.191554673907276873e-01,-7.844736342826126307e-01
2.385485137427348945e+03,2.119170411262811740e+03,2.783097081276023346e+03,1.463468931554563202e-01,-3.111999390370447927e-01,-9.390086180685910389e-01
3.316034256820485666e+02,9.689361347500827151e+02,7.073118379319241740e+02,-9.833802572518153540e-02,7.302416234313082732e-01,6.760745551378789520e-01
1.284918110914479939e+03,3.993773393062115815e+02,4.240568558659338692e+02,-3.124316854188456394e-01,-5.494927700401871506e-01,-7.748833058079787062e-01
1.495427172967523347e+03,2.341040496717511360e+03,2.248817995407256603e+03,-9.329856202591479963e-01,-2.928014777295368520e-01,-2.092967439523425455e-01
1.789835927334228472e+03,1.598188582807970988e+03,1.074310141286759517e+03,-1.936722368921800497e-01,-9.695638602847030940e-01,-1.497898043493079978e-01
1.411312879734418857e+03,9.228767935371506610e+02,9.126100718022761384e+02,7.532259436407311437e-01,-2.839832536811871533e-01,-5.932994096197775624e-01
2.449738512676127357e+03,7.759699080056010416e+02,2.412778738525609697e+03,-2.731652508504545974e-03,3.244183358386100724e-01,-9.459097639026037285e-01
2.360253593718296088e+03,6.784818579015636715e+02,3.693785859480709632e+02,9.158953642916988214e-01,-2.034214753421271782e-01,3.460569101153865290e-01
1.756163703910696313e+03,8.727738489083729974e+02,1.953927594943427692e+01,-1.030643544858824701e-01,-9.939973215255200056e-01,3.670236551641360007e-02
1.458561078726907681e+03,1.750469459556862546e+02,5.634000230693729918e+02,-5.234420144701170674e-01,-7.479046854656729026e-01,-4.082242508058024910e-01
1.629215249124357797e+03,1.929224179902017340e+03,6.403909024332217541e+02,-1.624693735341367282e-02,-2.922783673775180557e-01,9.561952692780730789e-01
2.716565563108011702e+03,2.226478540077422167e+03,1.197451465993207876e+03,1.122180441130041645e-01,-6.712627449155277315e-01,-7.326755338237540549e-01
2.010790238849088155e+03,1.464676606846769801e+03,2.683536244455160158e+03,-6.596147045048376123e-01,-4.124160138325559943e-01,6.283482100996713449e-01
2.736202060243525466e+03,2.997517168756521187e+03,5.802997374940863438e+02,-9.170000705576557554e-01,1.235355601369608064e-01,-3.792754091407743999e-01
2.054485085227703166e+03,1.629222833311869749e+02,1.158572794437674020e+03,2.804519034502828689e-01,-5.218168689507126645e-01,-8.056388056254415453e-01
6.522798818352291619e+02,2.049919502710624784e+03,1.654141615359788830e+03,9.000177227642038036e-02,3.592220583470388529e-01,9.289021443532252675e-01
2.139382050901345337e+03,2.431985524166379946e+03,5.669132337005389211e+00,7.700450331089067069e-01,6.009836259954419724e-01,-2.141245625090064664e-01
1.614533586467880014e+03,1.786385452249973468e+03,2.059255381783209486e+03,-8.171079633977837986e-01,4.091272042088781036e-01,4.061397628011238492e-01
1.004334265867905401e+03,2.481199863655055822e+02,2.793031603602643713e+02,6.419261129636721908e-01,-1.432054815476589138e-01,-7.532748871096486276e-01
2.763076836342120828e+02,1.449071091100319563e+03,2.887895370703830395e+03,2.711286562850636073e-01,6.788047174844215048e-01,6.824319799525450092e-01
1.568140787362556011e+03,2.021663508977154379e+03,2.525997696349440048e+03,1.687750487471977312e-01,7.087472892866163443e-01,-6.849761038527215629e-01
5.860932607350100021e+00,1.187744880747574143e+03,1.729107624864686272e+02,-3.054354515400966030e-01,8.538051570777294152e-01,4.215755432777988365e-01
1.755252950374783268e+03,2.440434958528664083e+03,1.157147133267230629e+03,-4.371570032127127803e-01,3.863856723003625260e-01,8.121575381556690454e-01
2.374155425677080075e+03,2.823560971814582672e+02,1.166041331576169341e+03,1.486498956016213402e-01,-6.840146148068564358e-01,-7.141618970991485682e-01
5.214191486904969679e+02,1.016666923495469064e+03,2.295079536078339061e+03,1.335469550118491833e-01,2.110196207927045320e-02,-9.908178026274396810e-01
2.439300576319991706e+03,4.631202777313423553e+02,5.845686172429118415e+02,-7.031085824099456150e-02,8.169538630249502109e-01,-5.724008812903993437e-01
1.745843928242744596e+03,2.168817842856041807e+03,2.464889878553232847e+03,-5.249547519417923080e-01,-3.325400548035741255e-01,7.834791767270954388e-01
2.962035205230594102e+02,2.004590547034479641e+03,8.230976219909832707e+02,8.479905707463760711e-01,7.783460222306945453e-02,-5.242649774894486692e-01
1.277947129321833700e+03,1.839389615330403331e+03,1.909094010515655555e+03,3.252078966457067066e-01,-2.087011301091536430e-01,-9.223251391187586856e-01
9.871371890960449491e+02,2.984300010078752621e+02,2.898823030889915344e+02,-8.345939689016144136e-01,-4.152990365485468849e-01,-3.619110627141699510e-01
2.923314871858389779e+03,1.201901875988386564e+03,1.604122331764484443e+03,5.195056953008501122e-01,-8.104290738797294003e-01,-2.707739809516866991e-01
2.203207180212706589e+03,5.329879115787409773e+02,1.125651904191284075e+03,8.640418092854909929e-03,-6.308740824273328940e-01,7.758371190505461978e-01
1.968840815842857410e+03,4.236497767869568634e+02,2.468309830290468199e+01,-4.218822919289659697e-03,9.984458262770552484e-01,5.557097734523116367e-02
2.149594127761778964e+03,6.586756420519218409e+02,2.542117951602463108e+03,-2.839611434960962466e-01,8.265291393735101355e-01,4.860202164014107429e-01
1.037766837059592262e+03,4.414139986725901394e+02,5.196744619450465734e+02,-9.757169345755997147e-01,-6.821492567365476656e-02,2.081422290111563100e-01
2.263960761957903742e+03,8.748105401576718805e+02,2.925341363327126146e+03,-5.093715475275272242e-01,6.933905295560789384e-01,-5.096569435329539877e-01
2.617383746845629958e+03,2.090497451187856768e+03,5.979599785638289688e+01,-2.493009919142151753e-01,2.977347228933689971e-01,-9.215221376690834187e-01
9.791246538111935251e+02,1.160248332423951979e+03,2.873651666220318361e+02,5.203702629493761611e-02,9.886789988278713581e-01,1.407337385671887375e-01
2.182511025088274437e+03,2.608839835819340806e+03,2.370432730394112696e+03,4.008563338776087170e-01,-9.133818157041488917e-01,-7.104828169065902088e-02
2.097639189152531344e+03,2.032959801562932626e+03,7.858893453467893551e+02,1.426072893602855411e-04,-1.708755917385488543e-01,-9.852926021295207448e-01
1.773043135064432590e+03,2.118394662642470848e+03,2.438088224478797201e+03,-5.628837905332170766e-02,8.795526426978718115e-01,4.724603338977141354e-01
5.917356198696962792e+02,9.991879657458413533e+01,1.073404281162956750e+03,6.519261391179363707e-02,4.828847292254710433e-01,-8.732538355897392357e-01
2.343182351955535523e+03,1.193368123379356803e+03,2.221485502095473748e+03,2.989281322207884561e-02,-2.486300673675061884e-02,9.992438394174257832e-01
2.592587848599917379e+03,5.520752678886898366e+02,2.794248375605336150e+03,6.209541959170509218e-01,-4.322752696054568688e-01,-6.538761181298322622e-01
2.226429178303249898e+02,5.127247508262023530e+02,5.361226689251695916e+02,-1.815276360444566988e-03,-9.592124746251364797e-01,2.826802669010646252e-01
2.746241958339379835e+03,8.963093484262381025e+02,1.173643797419864825e+02,-5.544406708267279882e-03,-6.375220893903066344e-01,-7.704121267825885244e-01
9.101217020312857287e+00,2.004849188116497544e+03,1.391031854987601719e+03,1.739093698117501197e-01,-4.741970031577713574e-01,-8.630716849068034158e-01
6.544363589455971351e+02,9.609773522912076942e+02,1.877430762297381079e+03,-4.033781046763568745e-01,6.409595952051606593e-01,6.530366773636429034e-01
2.413570755331027613e+03,4.076391064818538439e+02,3.077947968184091465e+01,8.065572186669953680e-01,5.638545992355128433e-01,-1.775765861174270210e-01
9.525511880395886521e+01,1.093803626133904345e+03,2.398766111686573822e+03,-1.673945626945816945e-01,-9.265889300043552712e-01,-3.367670042828928012e-01
1.259594682105602942e+03,1.227318334763976736e+03,1.198141845746303034e+03,-7.335994702300011605e-01,1.522171932571335373e-01,-6.623154409759612893e-01
1.427670053956248694e+03,1.832950096810346622e+03,5.724546339161436208e+02,-5.791675733856833409e-04,1.689706112138029404e-01,-9.856209195785953225e-01
2.858089973830780764e+03,2.657905425997090788e+03,2.261905323279187542e+03,5.817138143412994289e-01,5.927803322467934954e-01,5.569744302083150522e-01
2.416355258832374147e+03,1.997845446870242085e+03,2.452435780337968652e+02,1.887654786026092824e-01,7.992562690886388932e-01,-5.705760338556441491e-01
6.249917293841625678e+02,1.466667890284692248e+03,1.530030513111804339e+03,8.801380270217804558e-01,4.119382954963941024e-01,2.359319692066619567e-01
2.588071728772370648e+02,1.870411234704562986e+01,1.932017887376489398e+03,8.721148614281675204e-01,1.284881681360406369e-01,4.721297058279352865e-01
2.017416571556364943e+03,8.568399798476146145e+01,6.643876951606280272e+02,-3.398690654912081555e-02,5.903003005044091811e-01,8.064678824402281565e-01
3.994046021171833445e+02,1.069034673006787216e+03,2.668807931056363941e+03,-5.206879953903486014e-01,2.005372862864596428e-01,8.298607161838924551e-01
1.213656857861343042e+03,1.241440876747602033e+03,2.279884990995427415e+03,1.057809117590046422e-01,8.870614415663785612e-01,4.493688881015374115e-01
1.917684443468514019e+03,2.335267190810046031e+03,1.179122951275353671e+03,3.264835024979556022e-01,6.416598903315768876e-01,-6.940324976082433706e-01
1.379080612655355708e+03,7.859612164246595967e+02,2.298133498172242525e+03,-2.649853116233734374e-02,1.036332701316545341e-01,9.942625272874655584e-01
2.444705252636253135e+03,2.227530924745402899e+03,1.384918628242606701e+03,-8.960733252184960307e-01,-2.839297538099920248e-01,3.412279161107201197e-01
5.527385823793645159e+02,1.460625679639168538e+03,1.504436272404006559e+03,9.836873098117562275e-01,-4.786397511374053740e-03,1.798231545551711719e-01
7.586225499354343356e+02,2.020989394866708381e+03,1.665699836017823372e+03,-9.000517669493740547e-02,6.387256398584458816e-01,-7.641522264284336119e-01
5.836577190521957164e+02,6.338119486597660170e+02,5.836860906640988560e+02,-2.981279522462615059e-02,-9.992768551758436368e-01,2.360008370261544933e-02
2.697648933663799653e+03,1.724111105177733634e+03,1.120534379057593242e+03,4.901031234837806561e-01,4.829120839791019026e-01,-7.256685520941382750e-01
1.650090225114985287e+03,2.987333806689310222e+03,5.536210226185324927e+02,-2.843648771588990209e-01,-5.953381934209576176e-01,-7.514712583277385338e-01
2.875157475956873441e+03,1.597809887590211474e+03,2.642854922077209721e+03,-9.250830343089997410e-01,3.612114409518530356e-01,1.172504778631628941e-01
2.393873326347521015e+03,2.974534493131096042e+03,2.812573639911259306e+03,-1.398083344307193554e-01,-4.803874648064135333e-01,8.658415058661573793e-01
1.858735924075169123e+03,8.402259522733863832e+02,2.576889288513457814e+03,6.893212768161836035e-01,5.622682631191632252e-01,-4.568266384718234208e-01
2.350152895668041765e+03,4.151073647899891625e+02,2.232863444208325291e+03,2.481359496339043125e-02,-4.192715755151989188e-02,-9.988124943975434933e-01
2.518618681030050539e+03,2.648400463824581038e+03,2.862921677336389166e+03,-8.134557843994004722e-01,3.059511548856562180e-01,-4.946550087195007439e-01
3.672915855928757765e+02,1.197000862545000928e+03,2.823664757525674304e+03,-6.818398340179908645e-01,5.126604195040469492e-01,5.217985578939954294e-01
1.818988413242264187e+03,1.097990133772904983e+03,2.264074802692423873e+03,-5.747815647956833196e-01,-6.231128208834516569e-01,5.304305470291970082e-01
5.182420575834121337e+02,6.495255566036400978e+02,1.570253388196253809e+03,1.842360551479827000e-04,-7.751021686693989610e-01,-6.318358918113711198e-01
8.292954220095838309e+02,1.629872149372653666e+03,1.168439857496363175e+03,-9.464960400946789143e-01,2.332005356888311454e-01,2.230756737959882496e-01
1.600112415501710757e+03,6.314067955715855760e+02,1.845125487874196779e+03,-4.226077094129109812e-01,-4.480071231415368449e-01,7.878403020658542033e-01
1.450526250718575739e+03,2.804005451061212170e+03,2.113098980395046055e+03,1.343553341497174224e-02,-1.532571980573721737e-01,9.880949942619173809e-01
2.460632238256764595e+03,2.852762392118973821e+03,2.787464259376701193e+03,3.724676538553234328e-02,-7.571423589445420710e-01,-6.521871869028166291e-01
2.770979961359154586e+01,4.975019854561289776e+02,1.964499902902007534e+03,-5.837306854655105459e-02,6.857130148137924319e-01,7.255275640411185112e-01
2.636473025444653558e+03,6.200480688152909181e+01,4.363193343034803320e+02,3.027515547338827107e-02,-2.176311826248280290e-01,9.755614195479344053e-01
7.248159167561171898e+02,1.227286302691105448e+03,1.255042416140707473e+03,-7.744496093842438559e-05,9.989684792629549559e-01,-4.540893569923579870e-02
2.851133835747546073e+03,1.050919793023773536e+02,2.100642006037364240e+02,2.724886079689259333e-01,3.446734968625005391e-01,-8.983040348833644106e-01
2.271374093101697781e+03,1.945762125851950032e+03,2.099237213785282620e+03,-3.540188529198456391e-01,-5.878059668826041140e-01,7.274302695616423620e-01
7.590737685595961466e+02,1.804852548856406003e+01,2.602060299750586125e+01,-8.221380249782145322e-01,1.723113958046256500e-01,5.425844180961912899e-01
2.095146157528025924e+03,6.816748758475553132e+02,2.512137664583909554e+03,3.632489598050375745e-03,-4.580151497921220449e-01,8.889369649082100588e-01
1.797161849449184729e+03,7.877120392780507245e+02,2.098737512076230360e+03,9.028446578625467511e-01,-4.171869713907043198e-01,-1.040507312367997678e-01
1.599500801856182534e+03,2.198659808026065093e+03,2.726627971191620418e+03,5.902066205261412568e-01,1.046074691581334731e-01,8.004457648607066211e-01
1.335860789248972651e+02,1.378711962275572432e+03,2.195718137688697027e+02,-2.076529533081811763e-01,7.987337466818427156e-01,5.647164358277314555e-01
1.467947736997680977e+03,2.956655378537034721e+03,2.011919314637688785e+03,9.710765744924736431e-01,-1.262087673154465017e-01,-2.026860466945832329e-01
2.239361374176349727e+03,1.764049721230886007e+03,6.270776251583487237e+02,-5.426577785759101324e-01,-3.911014644852801037e-01,-7.433452628681558316e-01
2.364433831922998706e+03,2.288610213091088099e+03,3.319387230702571401e+02,3.145568151981223970e-01,5.714986831479857976e-01,-7.579203554282814004e-01
2.003960258764890796e+03,8.942205148096164180e+01,5.820772130930922685e+02,8.276045530951874341e-01,3.620417328697767556e-01,4.289481173251192825e-01
2.115024478784672795e+02,4.897651877418504682e+02,2.808568179983634309e+03,-9.881487529855351726e-01,1.492900624431540424e-01,3.570040936531415632e-02
1.413008246470404174e+03,1.301086841599240643e+03,2.535453186036788793e+03,6.570628489448793186e-01,-2.106255438104857602e-01,-7.238130233913838696e-01
1.705968158923352803e+03,1.108536876400288520e+03,1.687873004285922036e+02,-7.613025737736493770e-02,-8.668629714744974235e-01,4.926994749317892275e-01
2.666077442393086130e+03,2.773161792850896290e+03,1.636461746215786661e+03,2.034250883556877609e-01,9.781686907446863755e-01,-4.247641550680536504e-02
1.111570513929528943e+03,5.840094741915487475e+02,1.172927499613862892e+03,1.107478012503412407e-01,-5.362960217421856024e-01,8.367326344667811444e-01
1.834877136147644705e+03,4.071897183961054907e+02,1.319084324000542665e+03,-5.602613365916375709e-01,-8.252637069465361686e-01,-7.104258383120232168e-02
2.208567414670514609e+03,2.236515572921074408e+02,0.000000000000000000e+00,1.138655757342136188e-03,-9.987408964233072117e-01,5.015301859943380181e-02
2.041537756385327611e+03,1.879752676481452909e+03,1.729476152879418123e+03,7.666443170542051044e-01,-4.531503378895816447e-01,4.548749964540250712e-01
7.267101072001876219e+02,1.958135610794008699e+03,1.500988768447558414e+03,1.465405460014257422e-01,8.073208930605522138e-01,-5.716282393352487556e-01
1.610899915143629187e+03,1.732755551656480520e+03,2.844998594960222363e+03,-2.987442774782901600e-02,9.651234630463217945e-01,-2.600850238752993593e-01
1.442369189650447424e+03,1.682685421882083801e+03,1.785970829872404465e+03,-2.658859018514610484e-01,6.645866689205036648e-01,6.983045515316250729e-01
2.897391201304659717e+03,8.043241237777087349e+01,2.085958095834272541e+01,4.005933064922974074e-01,-8.801893790965694686e-01,2.545420588412921070e-01
1.747270551945131501e+03,9.918097734647915331e+02,1.844231594922443719e+03,6.671244002446129473e-01,-6.656506988377404177e-01,-3.344460819550638675e-01
1.118629857320054271e+03,1.947076272954726619e+03,2.750656814391225907e+03,9.566820051842522821e-01,-1.284482024014876531e-02,2.908514252150686819e-01
9.025739437662435876e+02,9.324112729440039402e+02,2.558765757558085625e+03,-5.791172633358549447e-03,1.393505884016621732e-01,9.902261740792561717e-01
1.998656070532134379e+02,9.630456424796502688e+02,5.901598108857867828e+02,-3.478123479284495612e-01,-5.153065917968382426e-01,7.832532713492016407e-01
2.676549372227648291e+03,2.162073399615434482e+03,2.655274052820721863e+03,-5.991529343197099511e-01,-5.545340579371113021e-01,5.775012899413141110e-01
6.018964502006885198e+01,2.388257067864662076e+03,2.765168667635874499e+03,4.424474236557447426e-01,7.867374453373473520e-01,4.304468252925770511e-01
2.002326608408219045e+03,9.532987685342502004e+01,2.298662240477276100e+03,8.551167160759651220e-02,-1.589387546980351174e-01,9.835782766378650122e-01
2.330881206594960531e+03,1.649922608501972036e+03,1.441311053399220782e+03,-6.230713545725003605e-02,8.801533147843254579e-01,4.705825786674175393e-01
6.744802374255835957e+02,3.256432755746423027e+02,2.035009520089989110e+03,-9.994757092754097405e-01,6.405828265649713728e-03,-3.173754767854064518e-02
2.170581765080188234e+03,8.543450549691200422e+02,4.602398471591515658e+02,-9.621414470360203919e-02,-9.952369786851379407e-01,1.569059006642725684e-02
4.729875872978260531e+01,9.398568139455330765e+02,2.509929439774949458e+02,9.535705786791601191e-02,3.813752218636539543e-02,9.947123005755279523e-01
2.012902487941401205e+03,1.958374820100315901e+03,1.904897417661797363e+03,-1.300541644160859434e-01,9.646427839745668198e-01,2.292383337136941202e-01
1.089900110104672876e+03,8.073507019398562079e+02,2.435670720607688793e+02,-8.940217195145299112e-01,-1.183764095801442678e-01,4.321020605032996897e-01
1.325052265834242235e+03,7.612471031163174757e+02,2.295171541806704681e+03,-2.591354582498608602e-02,1.042883604657951768e-01,9.942094477594410895e-01
2.576354573010324202e+03,5.564491486595361494e+02,2.580382886654681442e+03,4.427712794549587549e-01,3.774508097167196818e-01,8.133169617891978787e-01
1.425680526106781599e+03,7.128748152963360099e+02,1.544192778249997673e+03,5.950005333447751232e-02,4.820878470993458786e-01,-8.741001380461577153e-01
1.520713212341049257e+03,2.638341321237925513e+03,2.792091004207396509e+03,8.892726423954387949e-01,3.622005777868904375e-02,4.559410870951888239e-01
2.323568339901955824e+03,6.877911112400429374e+02,1.441964487798438313e+03,6.378957899080260896e-01,-7.308892376891517051e-01,2.426723788315972574e-01
1.244960071858385845e+03,2.719939564609141598e+03,3.559176415393381490e+02,5.865631735609410091e-01,7.742903303260401104e-01,-2.375250045483830175e-01
8.113202436454907911e+02,8.386150864520142250e+02,2.304200712883738561e+03,-3.305218241961124792e-01,-9.287277378364541258e-01,-1.679884302660654694e-01
2.491725579419465703e+03,2.026052861137090531e+03,3.016146830723627090e+02,-1.357935530638137989e-02,3.350578925068606884e-01,-9.420996814447630818e-01
6.395611932970863336e+02,2.186298978050282130e+03,2.598779118618551820e+03,6.686459364056720478e-01,5.205326907301792427e-02,-7.417567451038069581e-01
2.372504199817090466e+03,2.133607462161741751e+03,9.826518708116487915e+02,5.053845513254435762e-01,7.236886657725370986e-01,4.699586900079040230e-01
1.540486412753241211e+03,1.115695444710880111e+03,9.603132515229964383e+01,1.406273759843068096e-05,-9.694726817125440821e-01,2.451993458705136186e-01
1.169604206575982971e+03,7.662974647416626794e+02,1.604302535501618422e+03,-3.819621089459290242e-01,-6.259171218790063884e-01,-6.799505157496973373e-01
6.762231120594823324e+02,1.286584059453438158e+03,2.149752897660615417e+03,5.970108816701300558e-01,7.933043438218737586e-01,1.193575520895111541e-01
4.540631947903649461e+02,1.818521118605380252e+03,3.781743452000605430e+02,8.660276630519569974e-01,5.372428745852521337e-02,-4.971013858015684850e-01
4.411070034423381117e+02,1.923917704036810164e+03,1.071953540291963463e+03,3.080009990271790135e-02,4.786015570844868727e-01,8.774918252623709058e-01
5.822377155124138426e+02,2.016346204554016140e+03,6.682601833432852345e+01,3.844391530503591392e-01,-9.101710462044826366e-01,1.542569423169022069e-01
2.948726807498059316e+03,1.577235396452618033e+03,2.912556564308455108e+03,7.187885491653717152e-02,-5.288141156456754866e-01,-8.456885131712322812e-01
2.588455211040769882e+03,2.453041003741958775e+03,5.673943652352843401e+02,5.635315441869088726e-01,-2.499307673620446424e-01,-7.873797115954521697e-01
2.001397284221822702e+03,5.586559119092615902e+02,2.979130769836918716e+03,1.470315117462961119e-01,9.239560939609492429e-01,-3.531102816203803840e-01
2.413722966418215492e+03,1.663857570281628568e+03,4.454571259671842540e+02,8.497372081400255128e-01,-3.888595569165054916e-02,-5.257704437797374730e-01
9.979087759380665545e+01,3.614269404329508006e+02,8.665994646630823581e+02,4.956537151157475174e-01,-2.478089697686596538e-01,8.324170284143357357e-01
1.860184109644460023e+03,4.348864907797121191e+02,9.835506548434618708e+02,2.514331648041036038e-01,-3.267176271141493046e-03,9.678691487984343311e-01
2.334969528806807830e+03,7.433547587478519745e+02,3.686035096140677325e+01,8.919946349130196683e-01,2.224405552089322169e-01,3.935298853768677274e-01
1.760825803265937111e+03,2.912377972237756239e+03,2.082277125253053327e+03,-4.922423421610813699e-01,-7.565016538958990733e-01,4.305841662631620381e-01
1.007885679989961091e+03,1.629685508364537327e+03,4.140908248595426357e+02,-9.101332218802316021e-02,-6.507282545613197744e-01,7.538363973037367494e-01
2.704919459537489729e+03,1.643676174031985283e+03,1.192057321517154378e+03,9.324080277360600189e-01,2.947879677298977930e-01,2.090820984566290619e-01
2.631577272387763969e+03,9.232936597407974944e+01,4.406330601496107988e+02,2.217134189936479857e-02,-2.752656854038771361e-01,9.611124981174239412e-01
2.195708219118373108e+03,2.197649991530468924e+03,2.393118296153757456e+03,-7.899339650294600057e-01,-5.049132253036291429e-01,3.479467858830178617e-01
1.884641733692213847e+03,1.350041826075466588e+03,0.000000000000000000e+00,-8.844674848675640466e-03,2.981412088045893860e-01,9.544807967368225121e-01
2.806842587887426362e+03,9.097761159249417915e+02,1.097433117905167990e+02,1.119142386662702049e-01,6.710495631365999136e-01,7.329172443038352025e-01
2.520944927630238453e+03,2.518965086705205977e+03,2.425740398150121109e+03,-7.033277034820162310e-01,7.093040177701867011e-01,-4.709513658313291273e-02
1.766860041180421376e+03,7.838395368193080230e+02,1.433705148652435810e+03,-7.640763847903222529e-03,6.800006576882596798e-01,-7.331716881272454245e-01
4.933258864271737707e+02,3.897643736908855772e+02,5.204196140983921168e+02,-5.492845928887384321e-01,7.635779728313477621e-01,3.394629809299127832e-01
1.793505831827341581e+03,5.058461250950743420e+02,2.691152285421890610e+03,9.207830467613681291e-01,-3.620837780700602027e-01,-1.450996845460514884e-01
1.879597671555726492e+03,1.336510935885928802e+03,4.793187024006428487e+02,6.027440299821078956e-02,7.913656936118426133e-01,-6.083644757194955899e-01
1.114420009738554199e+03,9.909257428323169279e+02,1.084274315009981592e+03,-2.358824759264986082e-01,-5.832096332804586059e-01,-7.773197419335609037e-01
9.134241690546622294e+02,3.035922322594587399e+02,1.115118197346183251e+03,8.899874533477872829e-01,-3.718871345018458507e-01,2.638603647301469568e-01
8.806761695573653697e+02,1.637113167948250066e+03,1.188706905893150179e+03,-1.349516701043996791e-01,-2.299514599418809452e-02,-9.905853168691424182e-01
2.719642066259117200e+03,4.388668695885756961e+02,2.690715967093479321e+03,-4.906503490523588251e-01,-8.072915361358412589e-01,3.279369004217613792e-01
7.353189400458032878e+02,1.967923419697183363e+03,6.582965616036165102e+02,-1.318535700038190803e-02,-7.524218986977219137e-01,6.585494914741698569e-01
2.919859514526953262e+03,2.107733895974892562e+02,5.670387040235582390e+02,-8.336494105109677477e-01,-4.739033013692030560e-01,-2.836270814045909749e-01
1.423534764399546248e+03,2.165272767965340336e+03,1.010210260371859135e+03,3.723471845996159657e-01,1.463941309203655450e-01,9.164749492227326488e-01
1.360220720077435999e+03,1.139003137627584465e+03,2.176892776331515506e+03,5.877244728115736949e-01,5.849875420699749418e-01,-5.589002770452766722e-01
6.331238346910087103e+02,2.115126792782979805e+02,2.746169918988337940e+03,5.891971436649081628e-01,8.034491099653056079e-01,-8.553510152605103833e-02
8.433644021542245355e+02,2.176763683974401829e+03,6.674725816137603260e+02,-9.347445385380775962e-02,-8.203278719220800097e-01,-5.642027197953976003e-01
7.481599025864934447e+02,2.046072116485691822e+03,1.662698127283373879e+03,-3.492009081908748480e-01,2.218225667956010005e-01,-9.104139028919095988e-01
1.623299059550457514e+03,2.149661984120671150e+03,2.699581307789974289e+03,-4.290145597036656988e-02,9.813415372379833412e-01,-1.874253247750003737e-01
2.539413766901930103e+03,2.866894100265876659e+03,2.905753596562626171e+03,4.610277183757409691e-01,-8.699545638992458585e-01,1.750214262315659408e-01
1.281995396338735873e+03,3.507812518373581838e+02,3.996238635222033508e+02,5.021672848761591368e-01,5.002263534381535814e-01,7.054088270826173179e-01
2.438293196162144795e+03,1.198100292754610564e+03,1.803854245035806514e+02,-2.821316572826841340e-01,3.295761992324598988e-01,9.009890436949896664e-01
2.940014966019015901e+03,1.681298431760361154e+03,1.660761182259997440e+03,-3.264314427910876368e-03,6.345775731994149349e-02,9.979791868006262501e-01
1.133280565088520291e+02,6.541685613767368750e+02,2.071119658448429618e+03,-2.308173677907199017e-01,-5.170295787728753645e-01,-8.242595206608818170e-01
2.123778068605084627e+03,1.873244104221625776e+03,7.291871154756742044e+02,5.528937531062163568e-01,6.017017553148629183e-01,-5.764230177804624544e-01
1.713180087207502993e+02,4.928665864346235708e+02,5.620400966124973365e+02,3.573114975686948469e-01,8.958918028727378413e-01,-2.640196417894927761e-01
1.400901348536842079e+03,1.956766028606669352e+03,5.513602681156053222e+02,-1.790123475818907184e-01,-6.229810353155647989e-02,-9.818724589831369087e-01
1.690247323877272038e+03,1.761899836203451031e+01,8.705076973941128244e+02,4.724595371858400505e-02,8.074352982187537053e-01,5.880612715080069108e-01
9.988386644976141042e+02,6.568652632060556016e+02,3.255523329106381425e+02,-1.528033742318059274e-02,9.816274474945475559e-01,1.901948096388888232e-01
2.240524733072325489e+03,7.219720028929626778e+02,2.275880676679393218e+03,3.238447265314150364e-02,-3.090767990263069143e-01,9.504855486721667246e-01
1.634570661584633342e+02,7.217174390506786494e+02,8.930095157641083006e+02,-4.459720382044087827e-01,-8.908775503691901410e-01,-8.629096933049652807e-02
1.997034831175647696e+03,1.419955347046664201e+03,8.565085613620919958e+02,-1.426109187300860781e-01,-6.589807919902631594e-01,7.385163787261906920e-01
2.980030895417578904e+03,1.507183215476623445e+03,4.361942203221226464e+02,8.083720268758575189e-01,-1.842394333086106728e-01,5.590979318319286850e-01
2.172315476282763939e+03,2.265880401649526164e+02,4.483870547637739890e+01,-4.030644760537404703e-05,8.547532256024571728e-02,9.963402870548858647e-01
2.764649111715613344e+03,5.623722265367275668e+02,2.211190831170592901e+03,2.668848221243689395e-02,-8.976659936496406145e-01,-4.398675809402186054e-01
1.430442523635677617e+03,1.358382741685456040e+03,1.481972994134579039e+03,2.956331822669256426e-01,-2.910217385719910954e-01,9.098941527569381904e-01
1.974471004303983591e+03,1.188434783734105395e+03,1.220624039079772956e+03,-8.615173958222204220e-01,-2.453011641453435032e-01,4.445392171278468307e-01
1.601106275294819170e+03,1.782293772809685834e+03,2.511062172021978768e+03,-9.700314593319022682e-01,-1.684407044805625864e-01,-1.751190937062887809e-01
1.657460532629908812e+03,1.787739093020518339e+03,6.460601769190827781e+02,-3.409310957752274829e-02,-9.443256277003184707e-01,-3.272411476995744639e-01
7.885408657473117273e+02,0.000000000000000000e+00,6.026120470714808874e+01,-9.397912045198648645e-01,1.034401810315993125e-01,3.257186222113369056e-01
4.813977600453787886e+02,1.689278578871943637e+03,2.046970076193692194e+03,2.429224035493771430e-02,9.438879912734652322e-01,3.293711386692538268e-01
1.148980067453856009e+03,3.623176546257017776e+02,1.789565994463235938e+03,-8.465127606432440999e-01,-3.575055080084333925e-01,3.944692102202474460e-01
7.642510319423729470e+02,1.934063679987341402e+03,2.004595379363590837e+03,-5.799505450716756216e-02,-9.105366535219560076e-01,4.093404160912381684e-01
4.896122918430067728e+01,1.201767139878877742e+03,2.450684098421434101e+02,4.174361271099833459e-01,-8.717865421104763202e-02,-9.045147660670711520e-01
1.351381709469207181e+03,1.678222295624867002e+03,2.944714134700531758e+03,2.194460249807331786e-01,-7.954331716497008431e-01,-5.649154906350621896e-01
2.219084588470105246e+03,2.434736580136628618e+03,1.796775107230761250e+02,-2.954256051502983649e-01,8.150048487440845202e-01,-4.984885237848630801e-01
1.816239830339376056e+02,1.027396243931623985e+03,2.182231068075619987e+03,1.155841869470734251e-01,9.773292773462697314e-01,-1.773915989262234982e-01
4.616031888887647483e+01,1.452706949720959983e+03,7.134104362072135928e+02,-1.771872020843513404e-02,-9.581388620556602342e-01,-2.857550838967869433e-01
1.076865144198428197e+03,1.523655598733223997e+03,8.623492600266620229e+02,-5.433046716284999356e-01,2.914860287491689017e-01,7.873092968018899906e-01
7.745097925463741149e+02,2.662939099268239147e+02,9.816330132613570925e+01,-8.623867411956473994e-01,-4.755723653963921382e-01,-1.735512428109697858e-01
8.245890789986339087e+02,9.281550731481136154e+02,1.987419036432345138e+03,-3.083514030734868516e-01,-9.503418684714165510e-01,-4.206834026757921841e-02
2.325101339284345158e+03,8.445425560198852963e+02,1.291785016776601196e+03,1.157634526846921530e-01,1.627722645828160175e-01,-9.798489745389851180e-01
1.590793511897854842e+03,1.166946165668957519e+03,1.660995855042540370e+02,-2.774387411878266319e-01,4.513598365203797536e-01,-8.481167625182338687e-01
2.443106366593347332e+02,1.689506261294430715e+03,6.523715772596664237e+02,-1.642885155080964221e-01,-1.243864773728726864e-01,9.785383425900662235e-01
3.755264575257099295e+02,1.605990781723531882e+02,8.455189270603046907e+02,8.936210895513216346e-02,-4.462612517313122029e-02,-9.949989559970016106e-01
2.456962948765664805e+03,7.460957878489311952e+02,2.523936052351021431e+02,8.165234623463284852e-03,-8.997977256429003923e-01,-4.362308813821043629e-01
5.570834413229779329e+02,2.702468252027738799e+03,2.539588537427150641e+03,-1.294339914807757230e-01,7.348203930595664964e-03,-9.915608129350155231e-01
1.139718321470598539e+03,2.349422562514905621e+03,1.193021624061170087e+03,1.019116113623801372e-03,-9.988887696770212266e-01,4.711886262924874780e-02
8.073459329019233337e+02,1.895740304859515845e+03,1.093507345521743730e+02,-9.672584432512377761e-01,4.966949848424914021e-02,-2.488856060111055424e-01
6.634740539662742549e+02,1.587832028174333800e+03,2.519732573086771765e+02,8.291597429831875088e-01,-4.436833106351710243e-01,-3.400577016917403217e-01
2.492218307626797468e+03,2.329116844038704528e+02,5.438555188367982964e+02,-6.103127773151433288e-01,-5.693567179809596590e-01,5.507733122944742377e-01
1.001800579030227027e+03,6.106060066458447864e+02,2.728339721273721352e+03,8.006381752833504617e-01,-5.848330924544147269e-01,-1.301874273851086894e-01
1.536713745141700656e+03,1.145067317496026362e+03,1.563816791310003964e+03,-9.387121925422989843e-01,8.621534057840356258e-02,3.337459132654356786e-01
2.092895579352929417e+03,2.766809734282970567e+03,2.310912674428784612e+03,-2.888561087026406127e-01,8.086757592099990122e-01,-5.124506463370888110e-01
2.081610427647465258e+03,2.875527616638573363e+03,2.523891670967200298e+03,3.217976520768290900e-03,3.795730162519602713e-01,9.251561867925334193e-01
2.263206708898669604e+03,1.765689820207184084e+03,1.452629046026185051e+02,-4.456511454014467494e-02,-9.990057882733203165e-01,1.177099157059887692e-03
1.815649302895240908e+03,2.600991534130358104e+03,2.894145052300621956e+03,4.035975774195553201e-01,-8.451118574354016255e-01,-3.505637515818649241e-01
1.001582324379845886e+03,2.298341857934119616e+03,1.193366792255533255e+03,1.102870743210263016e-01,-7.325044942824421312e-01,6.717692513755987305e-01
1.716627441667164021e+03,2.222165144629582755e+03,2.396980220000570625e+03,-2.850953457268496916e-01,9.370368907190982366e-01,-2.016990562109128859e-01
6.336652579661806612e+02,2.151239363440615762e+03,2.801523016544324491e+03,-6.989865180057620586e-01,-1.852396655480111898e-01,6.907272355668636621e-01
1.361559395483733169e+03,1.561131720491632905e+03,2.525601210008973794e+03,-4.000132397741524848e-01,-3.811687299519913030e-01,-8.334865369711572658e-01
3.171497106966944557e+02,5.123298459411436170e+02,2.688455918438680783e+03,-1.795523428170260616e-02,-6.692415901583816940e-01,-7.428279097908007111e-01
1.702586873376054882e+03,3.473015545894649847e+01,9.188860283946357868e+02,2.280200785488755155e-01,4.921570428208079107e-01,8.401120692981633997e-01
1.045366434111709168e+03,2.391581256741994821e+02,8.617985565435569697e+02,4.661029637802043268e-01,-1.231508788176238489e-01,-8.761175082155112648e-01
2.091414420594683634e+03,3.850208062809377338e+02,1.874104360453089384e+03,-8.662397825181646915e-01,3.067580585950205885e-01,-3.943705524882617497e-01
3.601762831351339855e+02,2.154774757532135936e+03,2.560767142989046079e+03,4.752121731794991533e-01,-4.266175919734117583e-01,7.695263612643983286e-01
8.688913572455014673e+02,4.700261644525640463e+02,2.074587034444977235e+03,9.218267876361334601e-01,3.860157493798507256e-01,-3.503162609927468196e-02
1.744823145841539827e+02,1.979151299419566840e+03,2.615264876435498991e+03,8.756535251246208018e-01,-1.098571896398990305e-01,4.702789617038471981e-01
2.756308553034134547e+03,4.380011597783284287e+02,2.307955420937957570e+03,-7.220406149447164967e-01,-6.875937748761550283e-01,-7.662996229814568461e-02
4.208251716012589583e+01,1.111450606378346265e+03,1.517670666510321553e+03,4.335825687423226077e-02,1.135644886463436920e-01,9.925840863520443147e-01
