x,y,z,nx,ny,nz
2.075377937294544779e+02,2.111591358645948731e+03,1.667059132192512152e+02,5.310028864894156264e-01,2.605451025116797825e-01,-8.063201498766400244e-01
2.934873396515378090e+02,2.580334511462277533e+03,2.079415368567530550e+03,1.645743598075048763e-04,-5.109126773859035131e-01,8.596326011742736473e-01
2.656338488539307491e+03,2.427782131641325577e+03,1.218714852050953823e+02,-9.938920638894108150e-02,9.948911415230136113e-01,1.770316842860630499e-02
9.016319236015888237e+02,1.758655800426877022e+03,1.318304219253523570e+03,5.320958353638958194e-01,-8.361240558955610469e-01,-1.333063582172828720e-01
2.322183914753317367e+03,9.424898481681956355e+02,1.541981179172295697e+03,-5.709172608150219208e-01,-5.839731971500056185e-02,8.189281008449864618e-01
6.562934042489760031e+02,6.802759287135015711e+02,6.307616152468151540e+02,-5.740987443859620898e-01,4.580875397569767471e-01,6.786504531891672798e-01
1.505254310459253247e+03,2.489040751363201707e+03,3.946095251809694560e+02,-8.596256859305226872e-01,-4.556372680694658062e-01,-2.311673853178089211e-01
9.606410554705539653e+02,2.289742425889528022e+03,6.630286249513285384e+02,-5.429704325428766354e-02,3.221073206938536715e-01,-9.451448063917342601e-01
9.211018598391318335e+01,7.483702608719866589e+01,2.935243654363761721e+02,-9.263118467496729569e-02,-3.485229798812327640e-01,-9.327117433164535676e-01
9.368197019857456098e+02,2.073765331593444444e+03,1.140189507961167237e+03,-9.685186909496188434e-01,-2.464552463902968671e-01,-3.509069403609466065e-02
5.993459429070619535e+02,1.912454034896010171e+03,8.838074698004194261e+02,6.960398621574103162e-01,3.442943076681380110e-01,6.300713769051972113e-01
1.389133325365753080e+03,2.789157616300019527e+03,7.156966710218819117e+02,4.135227085603039587e-02,-4.355505444817212024e-01,8.992139416716834477e-01
1.067400292041930243e+03,1.667161530416237156e+03,1.697813017937852464e+02,-4.044127948037396503e-01,1.153896771891245870e-01,9.072681598056981933e-01
2.467086245748840611e+03,3.516396257878438973e+02,2.090242905976619113e+03,5.413672911560286904e-02,1.774556766433357455e-02,9.983758357396950167e-01
6.735795633717453939e+02,2.204585569442825999e+03,1.691768599217222118e+03,-2.116580985558048356e-01,-8.151018446619503477e-01,5.392678667827586203e-01
1.113649856879233994e+03,3.603411106690512611e+01,1.600885330882012340e+03,-3.377953525491922959e-01,-6.043763915410357290e-01,7.215424292056591415e-01
2.321165554248111221e+03,1.490462972590594745e+03,9.382420592887864075e+01,1.165838614834839027e-01,-3.145256494059998076e-01,9.420625346054973814e-01
2.215712171538827420e+02,1.303932296831697386e+03,1.753503190160204667e+03,-7.980555808127004491e-02,2.937681245235943539e-01,9.525394280097948529e-01
2.195159900876883967e+03,7.482762652280709972e+02,2.089751276287915516e+03,5.841045897527081809e-01,7.946791665705309482e-01,1.652478455187451900e-01
1.141725156026649984e+03,2.772154336289551338e+03,1.238203113809770912e+03,6.110035606814709364e-03,-5.264976482736209717e-02,9.985943469339824130e-01
1.043728381303456842e+02,1.965817242142418309e+03,6.211346983567370899e+02,-4.221062435586333539e-01,3.612565208072969214e-01,8.314565805398540510e-01
2.994736011924923105e+02,1.347566357864242036e+03,2.968555996701208528e+02,-3.524684945094617300e-02,9.902641305632209345e-01,-1.346648110073696003e-01
4.084309975182275139e+02,2.176591978370701781e+03,6.053460735212235022e+01,-8.331300433835828745e-01,-2.769287192703392964e-01,-4.787533971210635730e-01
2.407496538090700824e+02,5.623827476644302124e+02,1.700445025270746839e+02,2.323608273461554574e-01,9.132950123369388828e-01,3.345155696757338148e-01
2.803213061384716639e+03,1.959802622703729412e+03,1.856034091329924877e+03,-6.981800074869687345e-01,-4.751831638979637784e-01,5.354863564026792755e-01
2.796122203825320867e+03,2.689340817919925939e+03,2.863942137867832571e+03,-1.078930044248343073e-01,-9.183427002537748463e-01,-3.807962506207069886e-01
2.479714816370339122e+03,6.476278323543641591e+02,2.657627697827527754e+03,-7.283990869880322405e-01,6.288757341115661648e-01,-2.719376419708020021e-01
2.755677286087329776e+03,2.192107790624786958e+03,4.577888495314596895e+01,1.559805690958727953e-01,7.140337859542644772e-01,-6.825143328753964234e-01
2.420939671239992208e+02,4.688512163617043598e+02,1.563620121133515568e+03,-2.604222388319467618e-01,9.167009182843013360e-01,-3.030506293319239486e-01
2.142962068697129780e+03,2.671066663904380221e+03,2.702023910475249977e+03,-1.810152998885609238e-02,7.812397648493422109e-01,-6.239685604501296057e-01
2.246338695079433819e+03,2.122703254775645746e+03,2.854541111211280622e+03,-5.613353627743450369e-01,7.039317082359288769e-01,-4.351812962881580482e-01
2.628104396699615336e+03,2.643536125577387338e+03,2.947128336258804211e+03,2.336952267338436307e-01,-8.968202195294358581e-03,-9.722685392170219432e-01
1.832004132468138778e+03,4.014881350281604000e+02,2.518615101960187985e+03,1.778047029844827820e-01,-5.478828356279509260e-01,8.174410596617198710e-01
1.474549950041155398e+03,1.099494340161256105e+03,1.829698682494296236e+03,9.659695096004594639e-01,-2.459180929782503466e-01,8.016980770956451396e-02
2.402043934412625276e+03,2.017980846743178063e+03,2.019591131695087370e+03,1.215194348349114047e-03,-8.978446884168276299e-01,-4.403106162521923661e-01
1.708813555027046732e+03,3.609923613478350717e+02,8.047723201908415831e+02,-7.545367411655097556e-02,6.437053017747672579e-01,-7.615446326574490943e-01
2.514000315154971759e+03,1.370611055160396745e+03,2.274586756155305920e+03,4.324471848182485645e-01,7.406509150449992473e-01,-5.142233506811774157e-01
1.161047580988416485e+03,0.000000000000000000e+00,1.384478697925912911e+03,7.353325420559794212e-01,4.203328848656184835e-01,5.316072972543153252e-01
1.627864987549631053e+02,1.600839964143687894e+03,1.766428659770190052e+03,-3.911113700157068385e-01,-9.199853615104034432e-01,-2.566770053996147993e-02
1.956484812973392309e+03,2.235824356736884965e+03,2.124681177052989369e+02,-1.225396130235214404e-01,5.763952406306738219e-01,-8.079310427371590997e-01
2.037769788318618794e+03,2.752859601208007007e+03,2.752616656484482974e+03,-9.231085314886815496e-01,-2.877662087349061038e-01,-2.550710650057121942e-01
1.645700986891375578e+03,2.182002982222959872e+03,2.051450795738431225e+03,2.581925273024526235e-01,8.953488935803863846e-01,-3.628870039138218928e-01
1.603942489193411120e+03,1.517023098720877670e+03,1.474463085925071255e+03,3.281836985272441106e-03,-1.381966838039183632e-02,-9.998991180673468815e-01
3.411168087395356565e+02,1.468329578257916182e+03,1.765795992361672972e+02,-3.547303071560275328e-02,-5.000137186871868034e-01,-8.652906709403844765e-01
5.870533592635912328e+02,1.101505832444722500e+03,1.401092515479895155e+03,6.554753816779655962e-01,-3.859303924148015930e-01,6.491608092180878309e-01
2.283002866712354262e+03,2.899884091151969642e+03,1.948924867767870182e+03,-8.088686186907632913e-02,8.680342517678217573e-02,9.929362924954207026e-01
2.629621932606704831e+03,2.177755251891584066e+03,2.695467080525477741e+03,-2.703048365738993340e-03,9.415597355381365441e-01,-3.368352088824548840e-01
2.381953249513449009e+03,2.995404620924713527e+03,1.094356341854026908e+02,-1.003862574293634957e-01,9.948662350662205167e-01,1.279740772537119216e-02
1.382901423331495153e+03,9.400488920073584040e+02,1.834557792629306959e+03,-5.599962894431638194e-01,4.517640510128241305e-01,-6.944878674407284347e-01
1.319718137395611279e+02,2.555135732638938862e+03,2.676418969560408641e+03,-6.236454782900529015e-01,-7.808755735331596171e-01,-3.605074295531740525e-02
1.619902942696529180e+03,1.409636803736156253e+03,2.908388403588024630e+03,-8.867507638264222614e-01,1.981846814322094363e-01,-4.176073693062306025e-01
1.996907883089143297e+03,1.374065220961612567e+03,2.908641617251360003e+03,7.397922137585165592e-01,-6.560313221383894389e-01,1.494335465537448837e-01
1.909399835189627765e+03,2.216540404344487342e+03,1.052153525578703920e+03,2.635145257296293841e-04,-9.927026370994126436e-01,1.205877475366651658e-01
1.135874555770058123e+03,1.784420539976998271e+03,2.716594568032823645e+03,-4.901845641611256577e-01,-6.092521168070894610e-01,6.233225098007033615e-01
4.055042684557164989e+02,1.906009835571642498e+03,4.473892015022736928e+02,-4.572941621184515304e-01,8.812767812943076429e-01,1.193033278828734556e-01
1.174027020352235240e+03,5.338203184079246739e+02,1.483322559675072398e+03,-1.084521913782971565e-03,7.433890921532203544e-01,-6.688583418630804633e-01
1.355192626643156700e+03,2.925942687381157157e+03,2.008715428338478205e+03,-6.366556563834452863e-03,4.997561110582466326e-01,-8.661427690730073570e-01
5.569520476141261724e+02,1.861267357207266286e+03,1.685807248757904745e+03,-2.382406219430517613e-02,8.196059956444232686e-01,-5.724320273746704713e-01
7.775758735333187133e+02,2.862688238514615023e+03,6.963021470124906500e+02,-2.536597084928873813e-01,8.646186985904843469e-01,4.336948908334068986e-01
9.649994113330105847e+02,2.796911933722528374e+03,2.290045974587883038e+01,-4.130607820830612537e-02,5.417244927964390833e-01,8.395405778206852521e-01
2.088828440521032917e+03,2.359598257849050242e+03,2.342145251798367553e+03,6.354056632260607872e-03,5.405717212176532893e-01,-8.412739388475657387e-01
1.813897526710849206e+03,1.933552483456161099e+03,2.256442197442891882e+02,-1.467046914355627949e-03,6.488014271671327382e-01,-7.609563429522371303e-01
2.246449510916806503e+03,2.600112115540418017e+03,1.068822347289763229e+03,4.896333593729199768e-02,9.981151021285992186e-01,-3.699776529343096892e-02
1.117152873754828590e+02,3.556167461218989843e+02,2.275821385948082479e+03,-5.001300227525716791e-01,3.100209010300746248e-01,-8.085524109580113361e-01
4.834528405026804307e+02,5.010840685618527459e+02,1.701475385287947574e+03,-7.201409309840626216e-01,2.235463815096283210e-02,6.934675981432347758e-01
2.857788568058196688e+03,1.141542546933121685e+03,1.829182497940729718e+03,9.524075941601628514e-01,1.063744542494458739e-01,-2.856645761538926798e-01
9.945960053372574521e+02,2.852545288450693533e+03,3.059149819960693684e+00,-2.524822378929459932e-01,6.792591637093203794e-01,6.891006516217240696e-01
2.775710001835152525e+03,1.071673699251013431e+03,9.568445542612621466e+02,-1.652843113242640216e-01,9.857719240940689964e-01,-3.057466431444193916e-02
2.214834514441349256e+03,5.098746658474329934e+02,2.631947280233811398e+03,1.386306469985468526e-01,-6.605028443790369463e-01,7.379143149986764350e-01
2.905817477801262612e+03,5.610208441551893657e+02,3.277671565138511482e+02,-9.698079166907814797e-01,-1.413955368697664416e-01,-1.986955129770091588e-01
2.591423038966191825e+02,8.919562640964079492e+02,1.791435325274316938e+03,4.236143193706565224e-01,3.027998458283517325e-01,8.537348310748846814e-01
7.834408106576142927e+02,2.052251634638540963e+03,2.548403897894527745e+03,6.456685848972251174e-01,4.341206651981537878e-01,-6.282128035345406758e-01
1.584612970689888925e+03,2.629719346994740903e+01,6.208136580121241650e+02,9.605282188705651647e-01,4.029872763814835307e-02,2.752481667588109748e-01
2.884389726561990756e+03,1.867239907140271725e+03,2.793156983871492230e+03,-8.274046194956224953e-02,9.777329866444512962e-01,1.928528526719118785e-01
1.317188821043620010e+03,9.559855489612926931e+02,1.802708359436550381e+03,-5.910218200906307562e-01,4.398553247861304305e-01,-6.761808200725939466e-01
2.523536369158235175e+03,2.689019807661971754e+03,1.030807509949899213e+03,-3.133437073438645193e-01,-3.626336490190177342e-01,-8.776745169293422855e-01
2.655897474529281226e+03,2.265957633563235959e+03,2.521933461700828047e+03,1.468880130806250336e-05,-4.522361519114608264e-01,8.918982356124229849e-01
1.061702348803492441e+03,3.275422408150669753e+02,1.372182213366040514e+03,7.312246186314749208e-01,6.355558697326350037e-01,2.477484481397373983e-01
1.976657467817381303e+03,2.444730417231216506e+03,1.110852929663255736e+03,2.677039526853200457e-01,-5.307231223198445313e-01,-8.041564282847779577e-01
2.069288309563338316e+03,1.573356645189217716e+03,3.087196938315695149e+01,-8.638313419972442064e-01,4.416429525709240078e-01,-2.423776289752763713e-01
4.394200998919602625e+02,2.140980810363521869e+03,2.186189158481477364e+02,-5.099709606350663615e-02,-3.305562616071409110e-01,9.424074777427230432e-01
4.608375005410459835e+02,7.366015833883382129e+02,1.208627109636860496e+03,-9.355282404221199055e-01,-2.828873882798607631e-01,2.115694612293834709e-01
1.198374272024484753e+03,2.623968817208669861e+03,4.759989393957773132e+02,4.103901160272190561e-03,-8.989893097179977310e-01,4.379513431969636605e-01
1.326451564923826254e+03,2.411415600513700610e+03,2.264010605363729610e+03,6.920017649477879784e-01,3.784603968502699423e-01,6.147367610002534288e-01
2.535826819296395115e+03,2.357965784735380566e+03,5.326412569099919665e+02,-3.871977634481514885e-01,-8.683451827774825160e-01,3.099266615312236683e-01
1.762560858668488436e+03,9.749090734899882591e+02,2.275217035651337937e+03,-7.403858430596707008e-01,6.560239405733027107e-01,-1.464970743444948820e-01
8.843859913639786328e+02,2.804764044524261863e+03,6.055733864746138124e+02,1.482634885884511200e-01,-4.667042351092048902e-01,-8.718974107558263853e-01
2.170788853073127939e+03,9.169504329498411721e+01,2.515779403374506273e+03,8.689359277705727136e-01,-4.947400733949195439e-01,-1.351344540388432769e-02
1.324764221949044668e+03,1.232738905930222245e+03,7.239468485069123744e+02,4.030182895273523580e-01,-7.199767739662685795e-01,-5.649864628958572998e-01
2.259946853197809560e+03,1.708634626053280385e+02,1.967659463248097154e+03,6.439223438881812589e-01,-4.186109538166117305e-01,-6.404130576325699487e-01
9.870378446964275554e+02,1.249588331470245748e+03,2.804945907680697928e+03,-9.378718957735825146e-02,-4.218895662777500388e-01,-9.017833203919622953e-01
1.667080131408581565e+03,2.311744199076006225e+03,1.615531964239011813e+03,6.277463635509945572e-01,4.479501433720652348e-01,6.366122619785521408e-01
7.299686193343683271e+02,2.395372972318533812e+03,1.598502596156853542e+03,-2.554294951933910873e-01,9.667439087647622387e-01,-1.272744481341225864e-02
3.113958725540362593e+02,1.165508980847433122e+03,5.641876931856214696e+02,-5.987318756688359001e-01,6.664021208008247266e-01,-4.443291060129199721e-01
1.915655751010672248e+03,1.392859533095971756e+03,6.447833351486034417e+02,3.378136400813804840e-01,-1.315500502812465555e-01,9.319745322947237121e-01
2.100372593901833625e+03,1.100461308463469095e+03,2.924319662881222030e+03,1.739416270618599492e-01,8.321835881728315565e-01,5.265119048519832923e-01
1.556956113211989532e+03,1.536720686072082799e+03,1.451993072350474904e+03,-4.207659025820523657e-04,-9.898804445364811633e-01,1.419032363278361353e-01
1.851614479487486278e+03,1.834053422217617026e+03,9.508910457059752162e+02,-5.771765010583627120e-01,5.296450963380830990e-01,-6.215652488283498478e-01
7.630555195997297915e+02,2.589372243500783043e+03,5.364844421677800028e+02,-1.995879294426392836e-01,-9.273390842572386550e-01,3.165547049559460646e-01
6.439050427381343411e+01,0.000000000000000000e+00,1.245077363714425331e+02,4.119346367444829959e-01,6.844815500690898391e-01,6.014938592082275104e-01
2.330505387732500253e+02,2.773430451884399190e+03,2.009511249201179453e+03,-1.720733684153586962e-01,-1.468872152392420097e-02,9.849746176131570774e-01
1.607786913272395395e+03,1.523582676159964649e+03,1.399224668533059457e+03,2.245603214221870703e-01,9.585906813026762174e-01,-1.751472744933104120e-01
2.727805300513687143e+03,1.724880242350043773e+03,2.747845647755352729e+03,5.299003895156548793e-01,4.685347905228626209e-01,-7.068809852166449970e-01
2.788765017098358840e+03,1.729414430973998606e+03,2.245309750988757060e+03,6.157886657494935356e-01,5.056307202898262521e-01,6.042697194412856021e-01
2.322200162280387758e+03,6.425856123788827290e+02,1.123341252900173686e+03,-8.747555755625863183e-01,2.099797945095835394e-01,-4.367048991251203938e-01
2.990496238921221448e+03,1.606986069468961432e+03,2.813479628513803618e+03,9.129279475549301193e-01,3.962097388492568650e-01,9.787954543287626097e-02
1.382347544205388203e+03,1.545879042106429779e+03,1.586767171143099404e+03,2.316274147101111350e-03,9.964294155611483905e-01,8.439819120421797327e-02
2.470905725751711088e+03,1.727908215806241287e+03,2.199579760721770526e+03,5.528809248727800663e-01,1.817701378569717974e-01,8.131926585350341963e-01
4.071111088191570389e+02,2.025089242975463321e+03,2.476111557872481171e+03,4.324531293235434615e-01,-8.344221085611035482e-01,-3.416489948510263996e-01
1.444541770614151346e+03,1.501867767156584705e+03,1.791102707072188650e+03,4.969785522358063368e-01,8.592235990728024353e-01,-1.214377429549062803e-01
7.837149773361472853e+02,1.896422485581600540e+03,2.629355689593849547e+03,9.116132783517659766e-01,-6.114863899277719200e-02,-4.064751833532727621e-01
1.762354944023054031e+03,4.460684446874741411e+02,1.713761916542794552e+03,-8.420608011233555318e-04,-9.966725317384775851e-01,-8.150555448324221797e-02
1.760334136237421035e+03,2.150044603999575884e+03,1.456653836317238984e+03,-5.410354193646524923e-01,-6.459256375078098467e-01,-5.385728788223967944e-01
6.849623546135295555e+02,3.085582939489246428e+02,1.507676718487859262e+03,-4.968069981685251796e-02,2.912937045562888350e-01,-9.553427687231328402e-01
8.469798866001763145e+02,1.603767074126244324e+03,1.767349183285921299e+02,-6.761069736309450739e-01,-3.321218182654451789e-01,6.577039288613526491e-01
2.140898850703181779e+03,2.896668287941382005e+03,2.190943815389124438e+01,-5.951052545233261395e-03,1.896802485978771879e-01,9.818278811815497331e-01
5.798103293674323595e+02,6.121898838859468697e+02,1.074630806821090118e+03,-2.882951095016435955e-02,9.847263378504516051e-01,1.717058497606082923e-01
2.094465083443841650e+03,2.209949501596595383e+03,6.632596299535025537e+02,1.763761609253294560e-01,7.595066941864401233e-01,6.261318002970521768e-01
6.253607157255243010e+02,5.577239030183837940e+02,3.485206715369287735e+02,5.947330101571558503e-01,-7.969766370027813185e-01,-1.054556148393503978e-01
1.699118444442343389e+03,3.393144662304488293e+02,1.347949275618683259e+03,4.322151722855928531e-03,-8.016340568990372173e-01,5.977994294276933740e-01
1.258932550037178089e+03,1.290988069028964674e+03,8.886669701306276465e+02,-8.293657281048582020e-01,5.421417735311037100e-01,1.350362412008266066e-01
1.129767672627610182e+03,5.729038872932221693e+02,1.046215063779841557e+03,8.081008486669836177e-01,2.378909580407459756e-01,5.388700311449476921e-01
9.427731582613375849e+01,1.172881948116318398e+02,2.698094872095107917e+02,1.007644505204936813e-01,3.482463952919180872e-01,9.319715519679171445e-01
2.571407510590730908e+03,3.997409499591992699e+02,2.194471497056648332e+03,-2.141528985161741429e-03,9.999515500882871777e-01,-9.607878519085245525e-03
8.151400042552418199e+02,2.379145289252524833e+02,5.086662882806858761e+02,2.030079569224280955e-01,9.014636511459900303e-01,3.822970770078190639e-01
1.000041479483255557e+03,5.021716150601140782e+01,1.889198674354008062e+03,-2.129581974810212108e-01,1.409363850847057953e-01,-9.668431835023143517e-01
2.331442187177853157e+03,9.003622079346371265e+02,1.520602882902120655e+03,7.609780733381804607e-01,4.614679908843594830e-02,-6.471343329111833853e-01
4.040291731378199529e+02,2.523545975596111930e+03,2.344252447681433750e+03,-4.813441336276091942e-03,-2.576069854696016459e-01,-9.662377925851206584e-01
4.629481688450215415e+02,3.468135647458361746e+02,2.527179948864921073e+02,-1.299931342881975038e-01,2.731739663356555839e-02,9.911385094320042111e-01
2.911396842378446308e+03,1.132949494260775509e+03,1.829785849821797683e+03,-3.095944037229851342e-01,5.388723306592275650e-04,-9.508685581088589522e-01
7.911146833662672861e+02,2.939153617059825137e+03,2.441828115782931491e+03,-4.750704114108029175e-01,-8.663752491578651238e-01,-1.539546421794995013e-01
2.210090877000749060e+03,1.517772035497427169e+03,1.122142513999811399e+03,-9.470288908197660449e-01,3.208676865000313350e-01,1.342414663214824139e-02
1.827461009341405997e+03,2.505780034635979064e+03,5.259509989842076720e+02,9.268538545306892473e-01,-3.751992186700658372e-01,1.294135429451626247e-02
2.200061156192961789e+03,1.349688284593584285e+03,8.654197986230726656e+02,-2.283787385903697786e-01,7.602083070731617820e-01,6.082158182888941500e-01
4.615605802184434765e+02,1.243306654706310965e+01,5.037638162081810265e+02,-2.920346437391348471e-01,7.605839865881171002e-01,5.798515035781863780e-01
2.706453508106970730e+03,1.926038770732351622e+03,2.190562814508623887e+03,3.559440444328336173e-01,2.547151811917344189e-01,-8.991240257624411036e-01
1.506943491836398152e+03,2.759675322269868957e+03,1.580350495000416458e+03,6.930758520309838744e-01,3.989185914810952638e-01,6.004247002766165409e-01
5.135306922651608375e+02,2.657045991766296083e+03,2.032637175424718635e+03,-4.732415062664841604e-02,3.046043204019817097e-01,-9.513025978940208294e-01
7.468676648459090757e+02,2.957443519987682066e+03,3.511465163257212225e+02,8.014018915900305018e-01,-5.089043120736480574e-01,-3.142791900663612914e-01
8.510752066038201065e+02,2.528250579311412366e+03,1.773908577152378712e+02,-3.112184187965069126e-01,1.948173781154065309e-01,-9.301555165594841412e-01
2.379204026480997527e+03,2.381536715820675909e+03,2.736949932405017989e+03,-5.158225015357545962e-01,4.450474898722699135e-02,-8.555387041081077282e-01
1.655680481569055701e+03,3.391762364236302574e+02,1.556642115846329588e+01,-4.310207971753117207e-01,-8.389583233027249065e-01,3.322198130205953892e-01
4.071361612917767729e+02,2.220937485231570463e+03,5.587418476925090545e+02,-4.699794325619842672e-01,2.000660869283830412e-01,8.597051202766445854e-01
2.674340695447667258e+03,2.311199554224958320e+03,2.600790013707269736e+03,7.277454003664501903e-01,6.618614325186285008e-01,1.797945393772127920e-01
1.031671952369826840e+03,2.978321277383211509e+03,2.019904437109104492e+03,-9.148081022488364911e-02,7.245736717638142643e-01,6.830990085978044801e-01
1.454282718554326038e+03,1.644264844802549987e+03,1.486617947202454616e+03,-2.098610218472146682e-01,5.911961876796372195e-01,-7.787460556447821647e-01
1.760140446869022298e+03,1.285735320298296983e+03,2.563769126886577851e+03,-3.010649061805142912e-01,-7.376560127395900279e-01,-6.043372643943512035e-01
2.537031536567887088e+03,2.789397197170377467e+02,1.522146047133854154e+03,-8.954780115331303914e-02,-3.713420613075221199e-01,-9.241678769641841207e-01
1.524875184555529131e+03,1.440245112012356913e+03,1.515618647861609816e+03,1.681083749463285759e-01,9.631347164964116914e-01,-2.100264082259210574e-01
1.182400592335182409e+03,5.684952287479569577e+02,1.487778158734237195e+03,7.154141185584371801e-03,4.394272445353134549e-01,8.982496952540527380e-01
2.130048116042525521e+02,2.923947618054789643e+01,2.463961491403164473e+03,7.171965265529113287e-01,-5.945142305302403285e-01,-3.635683869610715213e-01
2.067463217734265982e+03,2.262032810844855817e+02,1.307257482819997676e+03,-3.436003207157165202e-04,-5.757336389783125341e-01,-8.176372416222305040e-01
2.827704768397033604e+03,2.949993430428201464e+03,1.522207393528016382e+03,-1.703726176121964364e-01,5.508179358036442430e-01,-8.170512669135154837e-01
1.241002448565103862e+02,2.585363902262805368e+03,1.120635685154244356e+03,-9.522481631916948075e-01,-1.204455565963826469e-01,2.805642592958537684e-01
1.730891261076672208e+03,2.111766107312219447e+03,2.164263332280596842e+03,6.252714332185668189e-01,-1.929585745382908779e-01,-7.561763176091607086e-01
2.432855827691431386e+03,2.147112182256383676e+03,6.523899014311247413e+00,9.450633692019118348e-02,7.416587443245934441e-01,6.640864847659486703e-01
7.312811731272472571e+02,2.209053968324411471e+03,2.587597551881599884e+03,-4.098913626389568687e-01,-6.393435126504856125e-01,6.505604842485575023e-01
4.688945335305219260e+02,2.201463997893740270e+03,6.002834045297385046e+02,5.423889537276979089e-01,-8.319502832349048305e-01,1.169313862892888967e-01
2.553212807594763490e+03,2.756728659404487303e+02,1.911725404112566139e+03,3.582687838950171511e-01,1.207267943390899186e-03,9.336177060180994580e-01
1.497049111692465885e+03,1.676677857939462911e+03,1.567437695602962549e+03,1.395594216423043654e-01,1.350630439397632332e-01,9.809592968072585739e-01
7.453501278829596686e+02,1.497473414934876018e+03,1.307812211587819093e+03,-3.743849394412825937e-01,-5.428998618915327201e-01,-7.517284463672382344e-01
1.615767315724514674e+03,2.557064760110456973e+03,1.306573557777830274e+03,-9.604722527356949341e-03,-9.908595508353778003e-01,-1.345551924805803157e-01
3.919385340481744606e+01,1.627406154060424342e+03,3.976733300371097357e+02,-5.062967050994672535e-02,8.531372846985292302e-01,5.192238533824067304e-01
1.656588424551726121e+03,2.176196305302185465e+03,4.644053596790963638e+02,-5.979399249157666407e-01,-7.990421224549693058e-01,6.324185903644252704e-02
1.780064053319249240e+02,1.970079834700640959e+03,1.727988568458689315e+03,3.592454313248621967e-01,3.059305933943261002e-01,-8.816740849642850097e-01
3.039454158995799276e+02,2.870210494751428541e+03,2.569656893978326934e+03,-8.443538364770956011e-07,-9.814570278831017403e-01,1.916822955261009709e-01
9.051382785190085087e+02,1.206029585455951860e+02,2.922069441983900560e+03,2.652589524544057276e-01,-6.949246162209402611e-01,-6.683692586534560887e-01
1.874892320308909348e+03,1.964158992448142726e+03,3.019013190629510746e+02,2.057235271786344872e-03,4.295635695348457017e-01,-9.030342781486859760e-01
1.412461321469511631e+03,2.013971922464626232e+03,6.953077087169294828e+02,-6.514283562302484176e-01,-3.812095606458224539e-01,6.559880849309502882e-01
9.622745007975200906e+02,2.179735131365039251e+03,2.643061105282336030e+03,-7.271928705131246451e-01,4.920334531998699079e-02,-6.846674812521797993e-01
2.306976863799640114e+02,2.818328151351372526e+03,6.817442840722833353e+02,-7.356972313341898495e-01,3.800866082733963536e-01,5.606101622504120474e-01
2.791676153858889847e+03,9.588305708525574573e+02,1.384755908093553217e+03,4.382155735116440715e-02,8.504813390894409020e-01,-5.241766524483419953e-01
2.140195769127053609e+03,4.457350643804870174e+02,1.511173778400033427e+02,-5.205839792015500844e-01,4.415404368168296401e-01,7.307765481009111941e-01
2.405302846604637125e+03,8.667167208751050111e+02,2.152278851815513462e+03,-8.814850724723301001e-01,-4.138951088545356760e-01,-2.273211514020263557e-01
1.562285175663624386e+03,7.862954320892733904e+02,1.557274034366184424e+03,-8.163307197347624208e-03,-9.626057560401198865e-01,2.707831583648270812e-01
1.984513952622095303e+03,2.862104092910866257e+03,1.821830527968912520e+03,1.716667030321215523e-02,7.720441140439668892e-01,-6.353370691221842392e-01
1.688369282802847692e+03,1.708335865918984155e+03,2.803282073123546638e+02,-3.512737321797038126e-01,8.493026895399107268e-01,3.940706873402484711e-01
1.551436878752954726e+03,2.916704933743641959e+03,2.804473474383380562e+03,4.991719895241267246e-01,-7.263903181517078478e-01,-4.724239944901038601e-01
1.783849067243640775e+03,2.734177677248999316e+03,2.395996826116821467e+03,-2.725311133933567831e-01,1.872421829102475510e-01,-9.437516395596792229e-01
1.316218428906893678e+03,1.878019610992399748e+02,1.214715365487707913e+03,5.053614111866553404e-01,-8.251666983198765459e-01,-2.524079318628997814e-01
1.205840959304086255e+03,6.525455650584237901e+02,1.114028105788650009e+03,-1.450168577058535448e-02,9.774193877549430809e-01,2.108104398519283496e-01
2.217325934418142879e+03,7.641313228713561330e+02,1.886510361626822714e+03,-5.186015437364037695e-01,6.224386780893504945e-01,5.861932538443282992e-01
2.227858011326449287e+03,2.112014949767852158e+03,2.909074075586403978e+03,5.190940119994971180e-01,-7.270069049772227565e-01,4.494467341317603948e-01
2.113143866909476401e+03,1.173597384192338268e+03,1.056479259053191754e+03,7.971340406086711017e-01,3.654398812557215215e-01,4.806568573220375562e-01
1.526796375149091773e+03,5.534703653845176774e+01,2.643909827970161587e+03,-2.884083384385334112e-02,-9.812586481269238714e-01,1.905247274747114694e-01
5.425760211315656534e+02,1.114446037433168613e+03,1.560193807067385933e+03,5.058450051134064651e-01,2.236682767042076914e-01,-8.331226397103776993e-01
7.552307254652438360e+02,1.556403204362697352e+03,2.301079054528347569e+03,-6.976478523936490150e-01,6.871629847355920084e-01,-2.027178000566354221e-01
1.579465673531774200e+03,1.805134760862181793e+03,4.300609953406672616e+02,-1.358794667903507059e-01,-9.721005532182751541e-01,-1.911995945013836573e-01
2.784657999409499496e+01,3.867238562252906036e+02,1.839513658370512303e+03,3.804748921256196348e-01,-1.604461973281991194e-01,-9.107666409267077823e-01
4.229826225628448242e+02,1.216364469004295870e+03,5.236464319214929901e+02,-7.560597938508711868e-01,6.238993249217964498e-01,1.977959061363629978e-01
1.433471381494632169e+03,1.302021222786885346e+03,1.501831828513172923e+03,4.002955555816620214e-01,4.655131814895303033e-01,-7.893420969649751484e-01
9.555808270992722555e+02,1.059539953438251587e+03,1.183017344161640267e+03,-4.579435996139307186e-01,-5.746522808858732789e-01,6.782790101759743617e-01
2.113871071491431394e+03,2.424390609408700584e+03,2.850828718377903897e+03,-6.694942124038839593e-01,-9.887841911275378759e-02,-7.362068716002763136e-01
2.641962427643560204e+03,2.219739664847180848e+03,2.549051536143847898e+03,-2.495345518996917519e-02,9.820637158094620567e-01,-1.868908322111982323e-01
1.341227636646880910e+03,7.311326673553127193e+02,1.149033779653278202e+02,-8.741235142330719965e-01,-4.808894493407246395e-01,-6.821597597043403682e-02
2.378754900645853922e+03,1.320558292260794815e+03,2.486997464313367345e+03,-4.533813191012404653e-01,6.871296403634864491e-01,-5.677131642158433911e-01
1.792085916736548825e+03,1.502237369122610289e+03,1.556053842976436385e+02,-5.913701259639328467e-02,9.112286122924040388e-01,-4.076336957132390970e-01
2.314568783621376042e+03,1.874314385998909984e+03,2.312105539310615768e+03,9.611672498385198660e-01,1.551890184861949296e-01,-2.281970341155811766e-01
7.956380767368502802e+02,2.505677730855187747e+03,1.743520399527233451e+02,-4.700991789458613956e-02,-9.381046335939481340e-01,-3.431468549311046945e-01
2.569106122053202057e+02,1.614487342147122263e+03,3.064438987582037726e+02,-2.974854283430174440e-01,8.670924436131669522e-01,-3.995661574164137697e-01
5.421270817993574838e+02,1.517995524952332289e+03,3.652750187146453413e+02,-3.598830091234478390e-01,8.540518656734622516e-01,-3.756056848397409387e-01
8.244684821301957527e+02,1.253557490884984418e+03,2.147287168957161612e+03,-7.827759473731963347e-01,-2.985723655801056919e-01,5.460003285034675802e-01
3.042022605138526501e+02,1.329855340941141776e+03,3.451307495122003957e+02,1.060758380854161112e-03,-1.644896269155319557e-01,-9.863782425767746442e-01
2.298640732411507997e+03,1.301830049400428607e+03,1.707434618556670102e+03,-5.763746598245262920e-01,7.763380688142249575e-01,-2.551302695133630949e-01
1.070798341197268201e+03,2.081493444062106846e+03,1.965041279478095021e+03,-2.722097563906023015e-05,9.786018502047142409e-01,2.057630142540895768e-01
1.318459745424803941e+03,7.712698941442407659e+02,7.440224767663784178e+02,-8.692505147150887679e-02,-9.596633589033525258e-01,-2.673766500744051977e-01
8.880668947168588829e+02,3.000000000000000000e+03,7.313008634956319156e+02,4.494800789650277850e-01,5.736575911241338366e-01,6.847515073070291614e-01
2.840067288859114001e+02,2.761059726626885094e+03,1.320132838293858640e+03,-2.315934398195699465e-03,9.999702302548457711e-01,7.360370366643493104e-03
2.077067909770371898e+03,2.582354077889725431e+03,1.295556618587419052e+03,2.380660046613354217e-02,-9.711541166370195599e-01,-2.372613063970104852e-01
3.215445724944174231e+02,1.937800240724393689e+03,2.138863670798420458e+02,1.904954795964816927e-01,-9.816876418927968917e-01,-9.197870765581969916e-04
2.166804720469700897e+03,2.862014996705433987e+03,4.888851035003519030e+01,-5.404030160092614717e-04,9.950131749777347823e-01,-9.974211540421590305e-02
1.558433019759469289e+03,1.654350400777419736e+03,1.614777870865749037e+03,2.184480299158304550e-01,1.479723971106038094e-01,-9.645644757709223027e-01
2.621677946229356166e+03,1.838588885835677047e+03,3.275114633078298993e+02,-8.814052780335283888e-02,4.732834403034489323e-01,8.764896077496173721e-01
2.483895591767085989e+03,1.931002548649225446e+03,1.992042288428701340e+03,6.839977409517234985e-01,7.075701158675690161e-01,-1.774587881850147042e-01
2.452669769385256131e+03,2.633874209358782537e+03,1.941596209999600887e+03,7.161436100858450393e-01,2.657581865476383309e-01,-6.453765691564297136e-01
3.424548665871124626e+02,4.552410780304745685e+02,2.838898240217492003e+03,-8.008242563856267718e-03,8.949327709715919621e-01,4.461291332026489087e-01
2.581826998236376198e+02,5.832144207510428942e+02,1.954903639996888103e+02,5.799670701352938051e-01,2.544768831426200695e-01,-7.738731895502650726e-01
2.679129608606893271e+03,2.182826145942241965e+03,2.716146002373477586e+03,-4.932657054880711751e-04,-1.593599963743676795e-01,-9.872204152287904488e-01
4.269523574684077403e+02,1.197557304847301793e+03,2.354603476333894832e+03,-7.796822260699192153e-01,1.080061090234241267e-01,6.167903264191776369e-01
5.425534176832065896e+02,1.996383789432231424e+03,8.685300090021141273e+01,-6.401781255964004158e-01,-1.688239223706176212e-02,7.680409835029856636e-01
2.709194410529980360e+03,1.614153528144549227e+03,2.713949146195786852e+03,-6.062546278476813599e-01,7.116878135072626232e-01,3.549024969178451450e-01
3.266054547718247250e+02,1.945699097975394352e+03,2.770604414360350916e+02,2.162171303184039217e-01,-9.760700754441746785e-01,2.318103490522991153e-02
2.434821096400536931e+02,1.135604170925182189e+03,1.130697547263511296e+03,1.262556080149414839e-01,4.755762749740171103e-01,-8.705669004313312254e-01
2.237755236564140887e+03,1.531290875608350916e+03,2.560131102930276938e+03,-7.611143244415389253e-01,6.012686583679873742e-01,-2.432714237107607147e-01
1.323914180233496836e+03,2.820786672774874759e+01,4.212370197035842239e+02,-1.155440790251975602e-01,6.170664407856497613e-01,-7.783820228257775087e-01
2.094885799263311128e+02,9.169508980090990917e+02,1.792370002651781306e+03,8.852875847753366445e-02,9.849454638268976270e-01,-1.484758977384675882e-01
7.015767780625403702e+02,2.475965481583201381e+03,2.102800669544276843e+03,2.749537096129250555e-02,-9.487798028904708136e-01,3.147394004614298413e-01
1.014718858366766653e+03,1.642664182657570336e+03,1.989037349137847968e+03,3.058010849973415764e-03,8.175707953298336772e-01,5.758199746391094997e-01
5.415812861093370145e+01,1.067231360684970241e+03,1.538012570099530421e+03,-2.421612956192198754e-02,1.379816451033089586e-01,9.901386997202082929e-01
2.198946359150649187e+03,7.907945501769663679e+02,2.001489223781861256e+03,-4.945892635903975654e-02,-6.258857650632971836e-01,7.783449259130185149e-01
7.476768677233055769e+02,2.364732179445909878e+03,1.358852025645237518e+03,8.685432850654411369e-04,-7.946415276092867463e-01,6.070783213320510852e-01
1.551479968652786738e+03,2.504450482496087261e+03,9.897843518612262415e+02,-1.165416975899570412e-01,8.639504841076705022e-01,-4.899056988165914062e-01
7.244132753631413379e+01,4.282508799829909663e+02,5.166711852134433229e+02,-8.730181056779209858e-02,5.838465150015262894e-01,-8.071565156722442236e-01
7.436454016267525731e+02,1.995207625045799432e+03,2.558522568505368326e+03,6.603982481620939149e-01,-2.113818785696994218e-02,-7.506179659710796592e-01
2.710827659287744609e+03,2.989456294398834871e+03,2.391809360231907249e+03,9.956821361448466023e-02,-5.632786957894586610e-01,-8.202458666200926896e-01
2.293128333443766223e+03,1.577144419387178687e+03,1.997438285152317576e+03,7.643934638275482474e-01,-6.152093384550610944e-01,1.929251210584275456e-01
1.280976746868660939e+03,6.417832758174191667e+02,2.039972726247390710e+03,-2.696959929305533521e-01,-4.598607587678573139e-01,8.460450070431557723e-01
1.161750490097426564e+03,3.149467264973323495e+02,2.350175729647145999e+03,-3.840482272623293447e-01,7.251519994381574463e-01,5.715431189748545471e-01
8.864709153129646211e+02,1.617678909932981810e+02,2.891461149099029626e+03,-9.411026148187547902e-01,1.130332166585623216e-01,-3.186681036958690649e-01
1.442920347863220968e+03,1.762397931434595876e+03,9.489145175092694728e+00,-9.088096528776848926e-01,-3.482074207006702893e-01,2.298186393775063507e-01
1.070313803001402903e+03,1.694578297968062770e+03,5.194288122563432353e+02,-9.222683981549155696e-01,-1.808563106122898501e-01,-3.416313754274878378e-01
1.654955774235367926e+03,2.365334676612649673e+03,1.305173431303159362e+02,-5.451816205765402240e-02,9.678067450631023805e-01,2.457190961570110965e-01
1.548514787109773351e+03,2.242671939726336404e+03,2.711911515912982850e+03,-4.713849386578428113e-01,-8.760360088396578204e-01,-1.017700880555032494e-01
4.591404661196871757e+02,2.825948682892895704e+03,1.908602697614044700e+03,4.933027073986981370e-02,9.464409959828061769e-01,3.190861412092431681e-01
9.810847654698497990e+02,2.852449214083742390e+03,2.312680258031610265e+03,-2.282315585185971385e-01,1.828512203115404133e-01,9.562822736654448263e-01
1.119744793674139373e+03,2.311975346149656616e+03,7.608211584644869845e+02,1.061137698370477750e-01,-7.121284457397034640e-01,6.939833892964040185e-01
4.694483277457188706e+02,1.182176834276706131e+03,1.206750876323704688e+03,9.869041084781059459e-01,1.513241803306278055e-01,-5.586835523172983820e-02
2.578880572576059080e+02,2.021055315726387562e+03,2.728452308148321208e+03,4.928544649889071150e-01,-8.132490036397289623e-01,-3.093873533606152915e-01
2.284108181227770274e+03,2.567590891715384487e+02,1.478547540555262231e+03,9.816496031224648533e-01,-1.145574554749637791e-01,1.524488310372004163e-01
1.530310675494148427e+03,2.263993543440812743e+02,2.737324159137390780e+03,-5.180296465673859402e-02,9.870337624267074839e-01,1.519236804535443464e-01
1.181345162732585777e+03,1.102062047688669963e+03,2.260513429726466256e+03,6.488104894073343232e-01,5.404885625019780759e-01,-5.356463970191164270e-01
2.600828749393277803e+02,1.864725788339284918e+03,1.065257063781565648e+03,-3.345944805939338185e-01,7.175023203515888959e-01,-6.109312185886079938e-01
6.851984644800819524e+01,1.531997126457478771e+03,5.702337943924210322e+02,-9.266875242004785074e-01,5.985812808334876195e-02,-3.710353581446722560e-01
9.398273339572699570e+02,1.592802276814790332e+02,2.947083701879892487e+03,3.628683632056446950e-01,-1.862775326359758232e-01,9.130318898151965623e-01
1.721056190325646867e+03,1.500404546679919804e+03,0.000000000000000000e+00,4.016804230741640169e-01,5.924136366101481754e-02,-9.138617502393586722e-01
2.876583361319444975e+03,1.594753785654439469e+02,3.000000000000000000e+03,-7.236253633442691902e-01,4.359519211194440858e-01,5.350815414468532705e-01
2.559671047931038174e+03,2.406049270122218786e+03,2.097987325672947009e+03,-7.531125539204765185e-02,5.950005228591521700e-01,8.001890980315897739e-01
1.633143775731699179e+03,1.125381026746043062e+03,2.263581793858993478e+03,-5.912529777940496445e-03,-6.811398772081417308e-01,7.321294350512774773e-01
1.598197022094873773e+03,3.647853839134593841e+02,1.780611206838106227e+03,6.089338626836514612e-01,4.488127980633154213e-01,6.540387015855755326e-01
1.915623253736589220e+02,1.857713824743836994e+02,2.079743598542631844e+03,-1.501369505857570175e-01,-6.306956243340530732e-03,-9.886450922205373137e-01
2.965191924095308877e+03,2.816821946308396946e+03,1.121743636823906627e+03,1.990918359651230041e-01,-4.710521255443596567e-01,-8.593441312257723563e-01
2.814772465108059350e+03,1.078880823972780718e+03,1.002630680934066049e+03,-9.512907341203709066e-01,-3.082130501560481073e-01,-7.117224896776575861e-03
4.518806471852151390e+02,1.932771714641641665e+03,8.217837673457553365e+02,4.296834206244166676e-01,8.914792903234501908e-01,-1.436552573521008569e-01
4.204004322211125668e+02,2.403744793813952583e+03,2.210570020536401898e+03,5.581846208622639471e-01,-4.593529460138476295e-01,-6.909593331168266683e-01
1.350901013886522151e+03,2.864622430259593784e+03,1.991994644658156858e+03,1.483551920833948989e-01,4.942358973839941494e-01,-8.565755160631998155e-01
1.754103338440165999e+03,1.849361673626238144e+03,2.228852128189093946e+03,5.786182567796905873e-01,-2.806557938888839532e-01,-7.657892910441046475e-01
1.108355798309695956e+03,2.934688416617711027e+03,1.722592871323693544e+03,-2.225140724882227472e-01,9.262304410352697470e-01,-3.042772709952481502e-01
1.208947851527210787e+03,1.582572913420280202e+03,1.863599517176245399e+03,1.804011234500104421e-01,3.836597773604188966e-02,-9.828445891443527982e-01
2.376424211918720175e+03,4.593063192941752959e+02,2.152704389638503528e+02,-7.616306863822297490e-01,1.707632019310040272e-01,6.251068920010438568e-01
2.128323571055385855e+03,3.656716665314815486e+02,1.124267865793717192e+03,6.938988527200058432e-01,-7.028161168777977696e-01,1.566968029369890936e-01
2.500451384524003061e+03,1.979880482473829943e+03,1.094657156103214447e+03,8.820647362514495438e-01,-4.616179467035626538e-01,9.418424678706949216e-02
2.447430009320636145e+03,4.549517637475675258e+01,2.452207837929558082e+03,6.627982794689827317e-01,-3.185399240263701026e-01,6.776656679618870971e-01
2.908383903079437914e+03,2.134784321624930271e+03,1.052925452182346817e+03,6.463330457027573195e-02,-9.957194859279974164e-01,6.606997263213106042e-02
2.585629765927742028e+03,1.663187616083566581e+03,2.463640277533016160e+03,8.168052484143035752e-01,5.690912156014747980e-01,9.468038069253625899e-02
2.549786490076152859e+03,1.969296694803807952e+02,1.502632582582379882e+03,-4.241933423251696977e-01,6.203848930276324447e-01,6.596837066580426567e-01
1.247109453118255942e+03,9.353489973982445917e+02,4.473127360102704415e+02,5.048046351746548338e-02,5.111229069017309001e-01,8.580239488751968402e-01
1.916088951401724671e+03,2.212743001750552594e+03,1.095650830675706629e+03,-7.670704329874010463e-03,9.419064948441557839e-01,-3.357876043952189860e-01
2.551168601880817278e+03,7.411327250021856798e+02,2.806401231109911805e+03,-3.895689146172995614e-04,-1.301407454777683270e-01,-9.914954536469400281e-01
4.619196628035301160e+02,2.102815580457225224e+03,2.446274781216271776e+02,1.199342861235592056e-01,9.810975480386203706e-01,-1.518662840943943437e-01
1.541269615347070840e+03,2.499096473487853928e+03,9.393114696485873765e+02,-4.189345291967191409e-01,9.057754907029345048e-01,-6.375437779934522986e-02
2.491452607021219137e+03,1.105411432293429471e+03,1.634282556061966488e+03,-6.839434310121167426e-02,5.592746046139601690e-01,8.261562385321872259e-01
8.777787888758244890e+02,1.174224735111956306e+03,1.699419707328533150e+03,-3.131276017284933544e-01,8.859208037831292071e-01,3.421921016914570846e-01
1.961206071752050093e+03,2.736659084304124463e+03,9.784289715888235150e+01,-2.044113552779003307e-01,-5.410509355954509214e-01,-8.157695035515480919e-01
2.807347974205708397e+03,2.577612074254262552e+03,1.941069714659226747e+03,2.928557430716002274e-01,-9.180853446809755791e-01,2.671232180698546177e-01
2.671882888973229342e+02,1.879766204666468411e+03,2.893367081168865752e+03,-1.800587597368394632e-01,5.443179032058409472e-01,8.193270795546965246e-01
4.169521343843732666e+02,2.944281588987667874e+03,1.333765708414186975e+03,2.929241175150305247e-03,-8.291482592186142364e-01,-5.590210942181694787e-01
2.812483861244164927e+03,2.767080821882394503e+03,1.477572230274017329e+03,-6.494661541131904192e-01,-5.705374610496214416e-01,5.026735722121001837e-01
1.657117795754414828e+03,1.395163167452279140e+03,2.284016115130630169e+03,-7.219696683961707162e-01,6.880908497562687742e-01,7.273775084245692746e-02
3.000638983651660041e+01,1.752723612044151480e+02,7.519873505921796095e+02,-5.637829477483773388e-01,1.092101580131688010e-01,8.186708308074064355e-01
1.766013146641912954e+03,2.675378516276089158e+03,2.944706731350644077e+03,-4.332083022043957399e-02,-9.901620238468900048e-01,-1.330506377303121435e-01
2.422394722624619135e+03,2.148794307716215371e+03,1.903040754892782161e+03,-1.053804995929456950e-01,9.898887535396113657e-01,9.494843822483810258e-02
1.219834327580059380e+03,1.263702532726962318e+03,8.495744218222183690e+02,-8.125750647319902598e-01,5.655762400510615517e-01,1.408732794589016846e-01
3.000000000000000000e+03,2.139891481284130805e+03,3.683790838216287966e+02,-7.428880422862985111e-02,-1.313902256563142731e-03,9.972359034988363957e-01
1.048904006908625888e+03,1.378572473927776173e+03,6.135415215043605031e+01,-4.949816003099507533e-01,1.234722709485745334e-01,8.600859338818429567e-01
1.090156327003967363e+03,1.604741857165342481e+03,1.749496489390852730e+03,-4.403060489890365803e-01,-6.465498401048443977e-01,6.229798451668114856e-01
2.197310636224473910e+03,4.982458835557497423e+02,2.161810902255965175e+03,5.383966486261141174e-03,-6.928227742502427455e-01,7.210878007462557804e-01
1.390732270980673320e+03,2.501680793115862798e+03,5.704633877843302798e+02,7.606389488743193761e-01,-4.946471423847105253e-01,4.204195451998045119e-01
6.840678607370610962e+02,2.826518709895161123e+02,2.836387201960557377e+03,-2.473351328076508759e-01,8.458361284135655911e-01,-4.726378909369962078e-01
1.870138913959415731e+03,8.239649090849970889e+02,7.845687068921440641e+02,3.239240749148142307e-02,4.467042342700527913e-01,8.940951062510696934e-01
1.312801451796706942e+03,2.989723387197397187e+03,2.065265336270121225e+03,2.025088938225429180e-03,9.377002931954632192e-01,3.474392884461034448e-01
1.769951062316658636e+03,2.453577982002459976e+03,3.490357721648691722e+02,-8.575147781115838308e-02,6.383857302491292574e-01,-7.649250574190181728e-01
3.971279011421249265e+02,2.096240695410247554e+03,1.321713392779902961e+03,-3.076779593020873005e-01,6.263722139672078804e-01,-7.162346842547639980e-01
2.437420340224569827e+03,2.664384097039837343e+03,9.837252511006689701e+02,2.688175513104467673e-01,9.161836293205792847e-01,-2.972283322168782771e-01
2.860795633920477940e+03,3.370102540990395710e+02,9.792825492288264968e+02,-7.887792688243527861e-02,-2.761798481762735014e-01,-9.578637502860517516e-01
2.091038815799917217e+01,1.237399018561641924e+03,1.952786999330493245e+03,-9.690204611641851928e-02,3.005714073267566535e-03,-9.952893846220611795e-01
1.196837093405591077e+03,1.401526227327502056e+03,8.051229618521749387e+01,3.252578487235319726e-01,-9.401951417562016688e-01,-1.011949962289446781e-01
8.456420429582001361e+02,2.935883983411671124e+03,6.529140375151841909e+02,9.937585709079956725e-03,-9.601257451544429333e-01,2.793918357466809166e-01
1.096439003763014171e+03,6.225568820851623286e+02,1.516738130962068681e+03,1.525991248490461694e-03,-6.940698487149096207e-01,7.199060469641659354e-01
1.491411894674176608e+02,1.813585269148035195e+03,2.306056459160523445e+03,-2.366911898489932470e-02,-4.063728853740500996e-03,9.997115878663614952e-01
4.289742474212037848e+01,0.000000000000000000e+00,3.171606374379400251e+01,-7.382161148969481647e-03,-9.997363808914991878e-01,-2.174103076530580977e-02
1.122411726472105101e+03,1.827421541129520165e+03,2.694541346194434027e+03,-9.340955565787358028e-02,5.859286656426524464e-01,8.049610261932059752e-01
1.463199030167290175e+03,1.670862731423049354e+03,1.609806878855795958e+03,-3.431625864451583185e-02,9.436854320680798658e-01,3.290595686120132979e-01
1.184981593129338762e+03,1.038517951779153691e+03,7.226616344815795401e+01,-6.388906487255063826e-01,5.360283898548460213e-01,5.518082132776955806e-01
2.110075829586143641e+02,1.080679935889529588e+03,2.820934618408120969e+03,1.264136548004644034e-01,9.114969371218809568e-01,-3.913986733465239509e-01
8.502871049249580437e+02,5.219633343441058742e+02,2.590053403456010074e+03,-2.533665292223397092e-01,-3.048427337541852467e-01,-9.180829535216848969e-01
6.157709651156579866e+02,2.881207804950836817e+03,3.060503294079063608e+02,5.157005990065813283e-02,5.256224829350167882e-01,8.491534221535413929e-01
