x,y,z,nx,ny,nz
2.871516410750194154e+03,7.577868461685500279e+02,2.918133028448555251e+03,5.581540918656566763e-01,2.624180532133211230e-01,-7.871472385020191753e-01
2.649956815305874443e+03,1.788625776822333364e+02,6.664685020570562983e+02,-3.839519063136588306e-01,-3.217991774977022601e-01,8.654630107635505887e-01
2.206163721495016944e+03,2.988153419659464362e+03,2.005556059207207682e+03,5.058235108631221610e-01,8.625147095530114605e-01,-1.452417511562693712e-02
2.475185708659879310e+03,1.714484361683120142e+03,1.930889400235639869e+03,2.657552644021512478e-01,-4.848558097094953778e-01,8.332400513858490010e-01
1.421569948019036929e+03,7.334638467448025949e+02,2.788816268687884872e+02,-3.671855340407871315e-01,8.982232278717273699e-01,2.415984613007229331e-01
5.260434452862142507e+02,2.429699821367693403e+03,2.057236906248585001e+03,3.328533945045767384e-01,-7.596142362612922083e-01,5.587439752122205228e-01
1.992013031436679285e+03,1.488721151460252713e+03,2.718915311195722097e+03,2.987911112120467672e-01,-8.795652368334757609e-01,-3.702551363786084626e-01
2.954116220324552614e+03,8.466770337220040119e+02,1.008898452529005908e+03,-2.743593127443481605e-01,9.424208217072075344e-01,-1.912327438572194727e-01
2.447716379826284083e+03,1.971722472272678942e+03,2.641594600722387440e+03,5.908232303758153003e-01,5.881709132595510647e-01,5.522525574804628690e-01
5.415359258969957637e+02,7.909234587087674981e+02,9.693241575999779798e+02,-7.263802984283519448e-01,3.049002852174457767e-01,6.159606141056899187e-01
1.790478520381177987e+03,8.365063041266937489e+02,1.222492973912166462e+03,-3.544615303126787825e-02,6.325969465369815081e-01,-7.736696151894368878e-01
1.003116344734402674e+03,2.342586471054121375e+03,1.705229160859403009e+03,4.249726394413745889e-01,-8.419282139354287153e-01,3.324983282750912927e-01
1.571924306018832112e+03,2.902360458529851712e+03,2.059936485839361922e+03,-9.377482611550487512e-02,-9.952547423025709383e-01,2.596690030115392581e-02
1.835350360644874002e+02,3.829262233249709766e+02,1.954284339585785574e+03,-5.495075618749757362e-01,-3.647195017869479111e-02,-8.346923003672566121e-01
8.436595393784278940e+02,3.850568470433932475e+02,2.656752666847549335e+03,-4.650121075875025128e-03,9.523122179855367797e-01,-3.050898488141603471e-01
2.418354131464377133e+03,1.305758502130476472e+03,6.483818238407135368e+02,-3.286231910875012097e-01,5.493364302931100784e-01,7.682683675853709815e-01
2.422433492990231116e+03,2.771560635769429155e+03,3.060751719949790299e+02,9.930816322840152477e-01,4.302068615155837938e-02,-1.092615768839400037e-01
1.953468007200490774e+03,7.279116722768081900e+02,2.573322625336450528e+03,-3.750891158647157719e-01,7.905131226506194597e-01,4.841458024985785258e-01
1.547820251313384688e+03,8.187036646936942361e+02,1.372039119314949176e+03,-2.160042011908459569e-01,-7.695279850455063464e-01,6.009732650457153547e-01
2.271645766541429566e+03,8.318645501535339690e+02,1.544206741413984901e+03,-4.863836860923594907e-01,-8.462026460583790821e-02,-8.696380400610630446e-01
2.921194969905935068e+03,1.825965155050782641e+03,6.140997633648014187e+01,1.119444146852369149e-01,-8.345503437112304912e-01,5.394387563312882383e-01
1.976775489063489886e+03,7.495827050301368217e+02,8.752409571287910239e+02,-2.127706312533347507e-02,4.607966445375029640e-01,8.872506629852348059e-01
1.298712104677341586e+03,2.231179275017591834e+01,4.582780712007866555e+02,9.035216322689771928e-01,1.976995048568200991e-02,4.280862168766903508e-01
1.928606108828130800e+03,5.906785447405744662e+02,6.855196236405342916e+02,-1.412012079259796771e-01,-2.657439440969653344e-01,-9.536468817418914945e-01
5.953471671632458992e+02,8.502531143728175493e+02,1.084020338456286368e+02,-7.986060039291941193e-01,4.481560418669550683e-01,4.017270374599997140e-01
1.164650996161413786e+03,2.795896551430434556e+03,1.309477546914162531e+03,8.379589955110816613e-01,3.651823533790993781e-01,-4.055447825118227434e-01
2.030844733948396652e+03,2.801419847442644368e+03,2.909990008180213408e+03,3.797303986746137228e-01,-7.330040321105042445e-01,5.643668250634173988e-01
3.607516576659448333e+02,1.048227586051589526e+02,2.171821369519633663e+03,1.605096866765686470e-01,-2.628481644141902884e-01,9.513923916802574654e-01
9.536115594817380270e+02,1.810392244852612748e+03,2.808387443451007130e+03,-2.027295770186967327e-01,9.513059639580916382e-01,2.322018120936752972e-01
7.417058514450225175e+02,1.287364612695748747e+03,6.377083238676914334e+02,-3.223650566683523011e-01,-8.972257732873998304e-01,-3.017725666591275502e-01
2.119570139392578312e+03,5.432996932882854253e+02,1.864955620683465668e+03,-2.280657114282123865e-01,9.735986847974803515e-01,9.572472583394775469e-03
2.224956012689757245e+03,2.287138435359710456e+03,1.902487457326490414e+02,6.012097268932633520e-01,-1.194727774752492033e-01,-7.901095618528339859e-01
4.818100805459350795e+02,4.313104094072339194e+02,6.885443064197096419e+02,-1.681562838091966161e-01,-9.340825509469277144e-01,-3.149813521971752683e-01
1.983503784017085309e+03,1.507153260224072255e+02,9.492251995300860301e+01,-7.417894744374892158e-01,7.271216577585633278e-02,-6.666793206346945944e-01
2.504107964210489627e+03,4.050292464286810059e+02,2.573228609969613899e+03,-6.240214010554202828e-02,-3.052579873289473777e-01,-9.502228865282758008e-01
1.742016205260504194e+03,2.014936918126671344e+03,2.498391762970162745e+03,-1.938710803372792613e-01,-6.769712513419056110e-01,-7.100168512545534938e-01
4.488412668156295240e+02,4.495977710580043549e+02,6.689951431575401557e+02,-1.700543223832809002e-04,-1.827747116238757630e-01,9.831548076840881389e-01
2.108395781167980658e+03,2.580687329784689155e+03,1.639106898145375681e+03,9.111626504415184513e-01,-2.971303264296127900e-01,2.854753816990514559e-01
2.510785348739265828e+03,9.945024929550244224e+02,1.177587019840198536e+03,-3.021200359214352288e-02,9.697583804917748740e-01,-2.421898393924040438e-01
2.470779836631739272e+03,1.611010782297493279e+03,2.271587482809568428e+03,-8.594710480652029139e-01,-3.625956729273978607e-01,-3.603247084395257982e-01
2.709043285588577419e+03,2.334163827702519484e+03,1.259624906461439423e+03,-3.089339988876202078e-02,9.972859535232826422e-01,-6.683056747080715065e-02
4.712778275827521952e+02,7.055713574179330863e+02,8.984924698139068369e+02,-2.180519693650505807e-04,-6.674652324531368253e-01,7.446409308650838721e-01
1.819690928105118701e+03,8.179119457799193924e+02,4.994332976652636944e+02,4.499977995115118229e-02,-3.786092316455729190e-01,-9.244620433079429045e-01
4.750729794484900026e+02,7.715986538557331187e+02,8.583892185002258657e+02,-1.785939066123278136e-03,5.386787260101472130e-01,-8.425093712035117699e-01
2.180820470869153269e+03,1.931223985288988615e+03,2.775572385609026242e+03,-6.859037673632253918e-02,3.341097637209383131e-01,9.400351195596408083e-01
1.417950948288279960e+03,1.685976249133692875e+02,9.678158119640111181e+02,1.083073044375583221e-03,-8.930125085055025114e-01,4.500305396364675525e-01
2.350068351843141954e+03,6.495152068936127989e+02,2.002940906941263620e+03,6.933396747776899849e-01,4.891573091249205585e-01,5.291551968079251100e-01
1.932134187120370143e+03,1.743602046277504201e+02,2.911947174702918801e+03,1.140605163057240856e-01,9.722594136183815294e-01,-2.042102623535666794e-01
2.264464746107828432e+03,2.207411886356711875e+03,1.041764296577041335e+02,9.220386588764540713e-04,2.881247243999375263e-01,9.575924462077651800e-01
3.000000000000000000e+03,7.465398620255688229e+02,2.921761616732989751e+03,1.242779207836510434e-02,7.996907743988160844e-01,-6.002834458199550749e-01
2.788845884133183063e+03,4.318920783218758856e+02,4.729268095919803727e+02,-1.168288984926693225e-01,-1.587303121336901546e-01,-9.803854836169958453e-01
1.412774418436540827e+03,1.481621060831224213e+03,1.614428601346684673e+03,2.099466268009974376e-03,-9.911536007304502238e-01,-1.327031725334877343e-01
8.448647345902794541e+02,2.475618514151053660e+03,1.494365931451381812e+03,1.829245798082890784e-01,7.255627759973019841e-02,9.804459111459600251e-01
1.098279039763370974e+03,2.910541256530206283e+03,1.810211540383678766e+03,3.019330540085228276e-01,-8.476162784164416042e-01,-4.363290907795948081e-01
4.257235744905258343e+02,4.502139695315458994e+02,7.168678305980002960e+02,-1.369509545149644484e-03,-9.761008922120628650e-01,-2.173135353962578065e-01
1.939927630977071885e+03,6.630287383041596740e+02,1.473632524479985250e+03,6.808476053706653541e-01,1.749269679528832611e-01,-7.112292838064543377e-01
5.835784624065656772e+02,2.382946575920793293e+03,2.403168478683232024e+03,-8.905075080172415447e-01,2.287276804359565374e-01,-3.932938168434756410e-01
4.216486280605108163e+02,1.502311029940359049e+03,2.734590111335120127e+03,3.666979152098093775e-01,-4.723218418337927216e-01,8.015264915818522962e-01
9.514121015127612964e+02,6.536778283594419463e+02,1.796494996139079149e+03,-6.549004457312479488e-01,5.932589324489542237e-01,4.681337899047022244e-01
1.830946481897466128e+03,2.117223163409537392e+03,2.554782544508327192e+03,-6.314416631406248870e-01,-2.028620138315609944e-01,-7.484172829340630662e-01
2.575237776754225251e+03,1.905000546848302065e+03,7.491345854379528646e+02,-6.829428983705274625e-01,5.229296401132473848e-01,5.100329293842633671e-01
2.606365192515284889e+03,2.108970619629721739e+02,2.726266070275773018e+03,2.091074731858350022e-01,-9.450297725638586721e-01,2.513817686820920549e-01
1.601230163270083153e+02,2.410159821544171791e+03,1.487805772986635702e+03,-8.128345883266789862e-01,4.475831794144672915e-01,3.727857689411375741e-01
2.964586151041627886e+02,1.053023302490168817e+03,1.503993912010287886e+03,6.352095085123618534e-02,-8.698175134285117682e-01,-4.892673932891866140e-01
1.377425429575072940e+03,1.817569686727776343e+03,2.731779452024788498e+03,-7.356634793690866592e-02,-2.384184853484905831e-01,-9.683721486574039528e-01
1.357867318781365384e+03,1.484974154911485584e+03,1.652628845854892006e+03,-8.940693603854266494e-03,9.701794387002389275e-01,-2.422228740667801417e-01
1.486381915101600271e+03,2.724524023057154409e+03,2.662851112850315531e+03,3.957804418387575983e-03,-3.999562806285115180e-01,-9.165256730555849662e-01
3.566467919153667481e+02,7.914534437370089108e+02,1.328202770008339257e+03,2.447226312106132520e-02,9.969603485308236035e-01,-7.396736979934011302e-02
1.331469182967063261e+03,1.195286858165015786e+01,1.921843832441578343e+03,-1.253099558254717194e-01,-4.447539653497327716e-01,8.868434615402579491e-01
9.939197129066584466e+02,1.770712593814400861e+03,1.489663424147593560e+03,-6.384458220714289700e-01,1.675467695048367955e-01,7.512090336970331794e-01
3.687183762188475384e+02,2.635657545617679716e+03,8.517948394575020075e+02,6.608068760329502411e-02,-6.179052120889798605e-01,7.834707981789420517e-01
1.167575040685708018e+03,2.986525784470654798e+03,2.441732303659317495e+03,1.193141875411923014e-01,8.811730344957057204e-01,-4.574912107669558692e-01
2.732358966130827866e+03,1.564802680989174178e+03,2.395114728562721211e+03,8.333470015962908539e-02,-4.737847059247191628e-01,8.766888730793450657e-01
6.255729303757472053e+02,2.440538497795031162e+03,7.515015392652920809e+02,4.048882695795599784e-01,3.802825399644835791e-01,8.315351339270220521e-01
2.552948275877826745e+03,3.000000000000000000e+03,1.671171927021224292e+03,4.105511093303889194e-04,-8.396773958512605551e-01,5.430853545661420423e-01
2.022682207605528674e+03,2.535436167720367393e+03,1.925191024359908624e+03,-6.561338637796026996e-01,-4.288587802183144171e-01,-6.209416232072942909e-01
2.968935066913914511e+02,2.718770726118552375e+03,3.362220348747094931e+02,-7.743327842761995976e-03,-9.766163773057203734e-01,-2.148499300725286165e-01
1.322939262664657690e+03,1.330591012151504174e+03,1.242935029191775129e+03,2.272233407146954098e-01,4.141724370986825665e-01,8.813800234757941388e-01
1.969260833917210903e+03,1.973850898076935891e+03,2.914766601685189016e+03,9.173564979632037319e-01,-3.037583197393581846e-01,2.572701670108845651e-01
1.919855895223826565e+03,7.645128345228991975e+02,2.579224767006224738e+03,-1.528249968982858531e-01,7.990456562386921702e-01,-5.815243413384488802e-01
7.193733804799491054e+02,2.070119273129834255e+03,1.373673672123095685e+03,-1.107852404694912307e-01,6.769337218844357906e-01,-7.276588257348373112e-01
2.381183062849618182e+03,4.736197497752110621e+02,3.663299973624403378e+02,-4.264657521600956902e-01,2.031352210818156145e-01,-8.813983459200305237e-01
1.018814307337428886e+02,2.010964370867903426e+03,2.970927199235550688e+03,7.007295595846205899e-03,-8.040736120426685840e-01,-5.944884559224750120e-01
2.748583493057429678e+03,3.532248580351010787e+02,1.897537006537367688e+03,-5.726265727867593247e-01,-5.273818649521597735e-01,-6.276680465485495741e-01
1.734122720397593866e+03,2.586625997519295652e+03,2.301061593752063345e+03,-2.131480339539079671e-01,9.379095280130436696e-02,9.725076723575023507e-01
4.403017082003732980e+02,2.561669107740262461e+03,1.582400083306924671e+03,4.465065649440533857e-01,-6.785229444079786676e-01,-5.832996668726881939e-01
1.111270633020062860e+03,1.842050751770843590e+03,1.836234070754105119e+02,1.545746763578524814e-02,-9.860988905725978082e-01,1.654389455532778164e-01
1.447357786081758150e+03,1.507849692910253225e+03,1.655215509621364163e+03,-1.596204220595834888e-01,-6.192306614500060064e-02,9.852344161369528397e-01
7.004642901904500896e+00,4.971363206220581219e+02,1.836790334957727282e+03,-8.141461038224743207e-01,-5.736483530793977659e-01,8.996493005599283388e-02
2.012736283298484068e+03,8.829805869836567354e+02,2.021224069768659774e+03,8.424072255571983178e-03,8.377659528934886524e-01,5.459645072521636111e-01
2.630453170336775202e+03,2.855505156375931165e+03,2.020973871831321844e+01,9.094412579152064136e-02,8.949464266545276159e-01,-4.368066613529473230e-01
1.769533896445060009e+03,2.918151830542283278e+03,2.180032087362577840e+03,-9.905615415384533273e-02,2.855392742699728800e-02,9.946720824235207870e-01
1.213425729887131411e+03,6.686278267132988731e+02,8.130434786101932332e+02,6.719896042253146184e-01,3.674881015976443344e-01,-6.429482615244127564e-01
2.755603924007597016e+03,2.759154447130249082e+03,1.217351178728342120e+03,2.385842838933911192e-01,-5.553050090042758180e-01,-7.966893286933363072e-01
2.374375830284167023e+03,9.994427645401582367e+02,2.878888460776824559e+03,-9.496229624047108908e-01,-1.855160621037411917e-01,-2.525866583476290561e-01
1.895958012119120212e+03,1.513063178219892961e+03,2.673045073696462168e+03,2.254438643742988913e-01,-8.468716109059574171e-01,-4.816466948475111032e-01
2.171047049109028649e+03,2.329059374477264555e+03,2.950745680487375466e+03,-9.978457741189635799e-01,3.077680914406876259e-02,5.793616393787037744e-02
2.042753369746768158e+03,1.804259743652441330e+03,5.529692152672694192e+02,9.837036593913480731e-01,1.161998285520696450e-01,-1.372031717728867672e-01
2.673047891435916881e+03,7.642944582482173246e+02,1.164579566918045884e+03,-5.004593411881659293e-01,1.383433883473931536e-01,-8.546353343491417398e-01
5.503187899676031520e+02,1.808941810260810144e+02,2.306650139650683286e+03,-8.700762078756040241e-01,2.654082247796158422e-01,4.153623318358823369e-01
2.440717944880165760e+03,2.582973700355274104e+03,5.582344227657961255e+02,-7.270171770362911234e-02,3.888469803480764514e-02,-9.965954246843017339e-01
1.154254778893541015e+03,1.830662858309934109e+03,2.026244601978871458e+02,-8.183595445019473114e-02,-9.910096367254924710e-01,-1.058431692478695590e-01
1.779376713477989824e+02,4.141769831344821000e+02,2.664084685069407897e+03,-1.130571437126374340e-01,2.066074019861550634e-02,-9.933736538030316643e-01
1.210777122273835005e+02,2.905839977532058128e+03,2.569456769849972716e+03,-6.383652004612693220e-01,9.844684900399064409e-02,-7.634121355868197512e-01
2.784725806174227728e+03,1.954518192172832414e+03,2.792646648718751749e+03,6.666619385858885138e-02,5.312211642080176821e-01,-8.446062356470542820e-01
2.832588973346135845e+03,2.547909514709316227e+03,4.170762840243588698e+02,2.389529583384178979e-01,6.987003179072273085e-01,-6.743288140496874750e-01
2.327574696788266010e+03,1.477504433858757238e+03,1.909947606691325461e+02,-2.057193667944250959e-01,-7.655983984805285747e-01,-6.095396905614519634e-01
9.039425360284691351e+02,1.744617886379701304e+03,1.888112721115983504e+03,5.984150340033509430e-01,-5.586386218306712559e-01,-5.743016082842677950e-01
4.522279139753774757e+02,1.441063207526878841e+03,2.227168308881933172e+03,-8.002471318587396631e-02,-7.407729798571570656e-01,6.669718416792921323e-01
2.937711491864147774e+03,2.019080320241738775e+02,2.790358362554211908e+03,-2.895835721346014593e-02,-9.084814733320392133e-01,4.169206473178621586e-01
1.198013559927007464e+03,2.638740651504359903e+03,1.278561236282397203e+03,5.331022982697148915e-01,5.112893974585180912e-01,6.740809236479352595e-01
2.881085682113904113e+03,3.383212976482381009e+02,8.976813713702147197e+02,-1.125609664052324987e-01,8.612306080045895040e-01,-4.955924421114240586e-01
2.052827031180475842e+03,2.512598042002488455e+03,2.236178919271552786e+03,8.287347111883468509e-01,-5.300906229190023300e-01,-1.794511353124064457e-01
1.561794731368338489e+03,6.935604374883308765e+01,1.621219892612633885e+03,-6.624593284416860905e-01,5.500965306280944933e-01,5.084697091779648570e-01
1.234025827194948306e+03,2.023928001021295586e+03,1.750433183988384144e+03,-1.089087809278433960e-01,-6.402509488079978148e-03,-9.940311289436896125e-01
1.766215400812995142e+02,2.203610599608256962e+03,5.089913976350651410e+02,4.252920148880305617e-02,-4.297779512404954483e-01,9.019324695609129972e-01
5.110440381722438019e+02,7.848396055780610823e+02,7.945638157680288032e+02,1.971459031608411572e-01,-8.372640461786639010e-01,-5.100219699615189395e-01
2.045573414425789224e+03,1.903171181216459672e+03,2.536405195220600945e+03,-2.564913896213857347e-01,6.558409083757826830e-01,-7.099893449559075975e-01
4.350712101118207329e+02,1.751972202057822187e+03,7.894106445026369556e+02,4.417285932731176423e-01,-8.410082901721837034e-01,-3.123794259336115098e-01
2.873848992115539659e+03,1.421281123943793546e+03,4.420806970740188717e+02,4.286781265517708994e-01,-3.823196921487365674e-01,8.185760299516222638e-01
2.357430374034513534e+03,2.175879963402775957e+03,2.135398718035415641e+03,1.213411244284561402e-01,-4.804920891701543462e-01,8.685641506344470297e-01
1.213707721066089107e+03,1.016195415398478190e+03,2.820081491375213773e+03,-4.523213389075459445e-01,3.309984429221221047e-01,-8.281578576286139359e-01
2.731306658207366311e+01,3.074442427142756173e+02,2.145892440058773900e+03,7.573178942779318357e-01,6.525758480296106612e-01,2.478647967892988468e-02
8.836488883266980565e+02,2.300298122754701581e+03,2.101862030612959188e+03,1.934930860435878433e-02,5.421068013776119132e-01,-8.400867932283353490e-01
2.665675233253824445e+03,8.476840243114672830e+02,3.170645526303758288e+02,7.446439189913786096e-03,1.140228983315556225e-03,9.999716248080525727e-01
8.269020057556931533e+02,2.281407964417433050e+03,6.869403002859455682e+02,-3.418726923504991633e-01,2.671492961367978938e-02,9.393664752165457044e-01
2.972441391665373430e+03,9.549165726882305307e+02,2.711601220886980173e+03,-9.545526633133389893e-01,-8.268011477884769367e-02,-2.863445679274674305e-01
4.161025722593179665e+01,9.611024664043278563e+02,8.909350001758911048e+02,-1.292900012823039735e-01,-9.883345724300027779e-01,8.049141884713820194e-02
2.318201858786079356e+03,1.791896651863789884e+03,1.945289576432279318e+03,5.074697956027262036e-01,7.345819166091455132e-01,4.504040567554445929e-01
2.284472953403605061e+03,1.998394063451543616e+03,2.143734857099093006e+03,1.553717238345442286e-01,6.890913394936223346e-01,7.078225436276860405e-01
2.228694884571076727e+03,1.950850931547809523e+03,2.760254520703745129e+03,1.255023151397866368e-02,8.652136260693614744e-01,-5.012463196402072718e-01
2.492478829153980769e+03,2.014900316949513353e+03,2.843062495593572294e+03,2.409542407545781171e-03,9.831788549333710936e-01,1.826294973910062291e-01
3.383959993455410142e+01,2.499554511619716095e+02,2.345578034193137228e+03,-7.360103857247167758e-01,3.566611983593604984e-01,5.753968210637059322e-01
5.619739659413374966e+02,2.559941808201964704e+03,1.186774636913888799e+03,-1.783853143203687971e-02,4.427513484280219958e-01,-8.964669710934789482e-01
2.958577454493711684e+03,7.237556024508614883e+02,2.885744105445262903e+03,1.373800332813771286e-01,-7.921696144006510343e-01,5.946377287693168645e-01
4.860788325723622734e+02,2.746661485577539679e+03,1.910871952120145124e+03,7.372108600015956671e-03,9.744671445154798883e-01,2.244090824245676963e-01
9.234559456672170654e+02,9.566645951993413277e+00,1.347679769484780081e+03,2.217097636921311621e-01,9.506860159135024357e-01,2.168890956919946600e-01
2.064905262405465237e+03,1.380764959872419695e+03,4.316068279352513173e+02,-7.613172585221360533e-01,-7.916538444916131068e-02,6.435284560773948392e-01
1.983738280685918880e+03,2.103892048015375622e+03,1.212101965046481382e+03,-7.906044659052348100e-01,2.621774060781677518e-01,-5.533602680287247333e-01
2.230885614750432524e+03,3.623206023668604416e+02,2.885598749114262773e+03,-7.391844100189119693e-02,-4.013299762196351206e-01,-9.129459536398620845e-01
3.379319031668440516e+02,2.252738624551936482e+03,9.910789375203200962e+02,9.863455082198085977e-01,-1.259057468582683026e-01,-1.061615811989882197e-01
1.477936346746904519e+03,1.561011509215320075e+03,1.462742649704828636e+03,-1.511487453280823678e-01,-5.746842388610708952e-01,8.042960166446294634e-01
2.000774666436069992e+03,8.444602678185083278e+02,1.936350101794332204e+03,-2.403051674064418941e-01,-2.397289406001053280e-01,9.406292901863694267e-01
2.476527489962169511e+03,2.652215845741937756e+03,2.546267612266185097e+03,-7.333987650174830786e-02,-8.149450794537295151e-01,5.748789263739475519e-01
2.974295006310515532e+02,1.732574833462246261e+03,1.324738045805057482e+03,-8.680425819680320787e-01,3.041010472463211503e-02,-4.955575662028672834e-01
1.758130731774073183e+03,2.867778813145455842e+03,3.101158151498052575e+02,-7.560638424924515100e-01,2.908053169562948015e-01,-5.863443814905182627e-01
8.277000892001457260e+02,2.588418335335177289e+03,1.613627316977121609e+03,-7.946602912604999895e-06,2.502086519519820529e-01,-9.681919388350760380e-01
1.036729026178442155e+03,2.536466891819319244e+03,2.680681157508625802e+03,7.267308822293290227e-01,6.559632324278730220e-01,2.038981670269681690e-01
1.298259872118629119e+03,2.492093400353368452e+03,1.109535232986177334e+03,3.052774895405619207e-02,9.623782652180258301e-01,2.699928354229816918e-01
2.209354917559750447e+03,0.000000000000000000e+00,1.699173455328794944e+03,-1.902357509783788106e-02,-6.015164811186201055e-01,-7.986338501047708371e-01
3.315631676812333239e+02,1.277751099252214857e+02,2.143489183101711205e+03,1.725968760373021715e-01,2.623044530398987995e-01,-9.494244005172838285e-01
2.365584691306519744e+03,1.507004690780425562e+03,2.383670972122392300e+02,-2.081124146246196224e-02,9.512450540572339186e-01,3.077332275859098742e-01
2.244497063794895439e+03,2.720379438661727818e+03,2.938574885800386710e+03,-5.017290969783034793e-01,8.051214025263783158e-01,-3.163027670433722349e-01
1.594696887172676441e+02,6.374023697742985632e+02,1.316351848933893507e+03,5.663466473795044642e-01,8.056832837066464359e-01,1.735682037634507235e-01
2.750307529345775492e+03,2.371815475622917802e+03,8.253218359603089311e+02,-5.117742081078308081e-01,-8.562593351532900021e-01,7.005077357494760015e-02
1.611979685522268255e+03,1.301967802595819649e+03,1.364390600471954485e+03,-4.405320767083643618e-01,6.473186580131337076e-01,6.220209356437220727e-01
2.803166918969085600e+03,4.884275964703306840e+02,2.494679034946175378e+01,2.925392027081188950e-02,-7.957836968210162398e-01,-6.048739670564985405e-01
1.939033479184668295e+03,1.473289245834057510e+03,2.848002190116626934e+03,5.373732449650328027e-04,-8.887162585668638703e-01,-4.584573295181472163e-01
4.468837497908397722e+02,2.331680857241567082e+03,2.526818365941971024e+03,-2.807687217309217664e-01,5.139103345340633178e-01,-8.105955174787679018e-01
3.914569764536149705e+02,1.327335378989207584e+03,2.765213371821914734e+03,5.372600480004535717e-01,8.410325376549424581e-01,6.337121924216249091e-02
1.980641567021967603e+03,2.149067659038751685e+02,1.801188259234716043e+03,3.794336469878856200e-02,-9.895853265375595953e-01,1.388566979907209509e-01
2.084554697201629097e+03,2.688055958030168767e+03,1.592299477194230803e+03,-4.489482491449497958e-01,2.201263377454520664e-01,-8.660195523315044053e-01
2.143845227459119997e+03,1.158215109429715540e+03,2.411213154759097506e+03,-2.293552909471263668e-01,-8.478825957288957937e-01,-4.780075881977073338e-01
1.452380727299899490e+03,1.161033000794391228e+03,2.531506561222252913e+03,8.591424136855319027e-01,-4.356905217521176987e-01,2.684177383519312787e-01
1.790556009087386428e+03,2.229597531952269946e+03,1.337751820409880338e+03,7.981387899897121052e-01,3.294501227972572721e-01,-5.044175735465907806e-01
1.234791012943759142e+03,2.462079678003869049e+03,2.782755172032229439e+03,-8.952534222744764625e-01,4.261211892099179277e-01,1.301615996066554093e-01
2.283765066452113388e+03,1.969779780795564648e+03,2.146868018618750739e+03,-1.042982918306293097e-02,6.975245431847607591e-01,7.164849826186889814e-01
1.160740261009514370e+03,7.587057178189493243e+02,1.823949678591915472e+03,4.853066809304216744e-01,-7.759759959219441061e-01,4.029127439002704314e-01
1.408569521425139556e+03,1.382219783813918639e+03,1.587676096818679298e+03,-4.015904715753499700e-03,1.585829283169968018e-01,-9.873374941506679603e-01
2.698664405755343068e+03,3.349386585472644811e+02,2.949382151876145144e+03,8.774909381286195575e-01,-3.381590119469040090e-01,-3.400854835791271569e-01
1.882785457584535379e+03,1.159252782383536214e+03,3.382197832335247654e+02,9.528026619047589296e-01,-4.465604673609441938e-02,-3.002880699546845999e-01
1.894811540164074813e+03,4.540464612763175296e+02,1.257358931113909421e+03,2.659493760989745659e-01,9.353459577845528727e-01,-2.332356503810335824e-01
1.988718888935524092e+03,1.195938940375059701e+03,1.111943245996474388e+03,-6.109596692236735072e-01,7.897735028348288333e-01,-5.464519010950775330e-02
5.549854337520290528e+02,7.614207427536314299e+02,9.543736544040993977e+02,1.890477452265209579e-01,-7.399409383811735852e-01,-6.455604988940671918e-01
2.083658934069095721e+03,2.496179846793846536e+03,2.986245376462667991e+03,1.729740640182228159e-02,-9.278121491781264885e-01,3.726465021561807256e-01
2.035683774094076171e+03,4.777798402700826159e+02,1.182873138297239848e+02,5.987771391623369910e-02,9.976038605078180188e-01,3.465828726385057623e-02
2.063316587205676115e+03,1.098611654967628965e+03,9.274762096853245339e+02,9.924516395472907648e-01,9.563171912908000061e-02,7.677445835895668758e-02
9.806207380927033057e+01,2.052848029756762571e+03,2.980483605463411550e+03,-6.756399471984019314e-03,-5.794696268168436637e-01,8.149658291382055886e-01
8.649430139943013955e+02,2.706523307179697895e+02,2.219871840945299482e+03,2.047884517386442671e-01,5.407544098445248304e-01,-8.158715329438750441e-01
1.959204736373821788e+03,1.575400055067622134e+03,7.918545495821183522e+02,-1.628733869303751122e-02,9.997387267019115509e-01,-1.603748517502072424e-02
4.547540958743289252e+02,1.500522212254340275e+03,2.162694290586201078e+03,-1.406430328605473741e-02,9.471456603702457233e-01,-3.204953875095380988e-01
2.788531897300052151e+03,2.728042298600710637e+03,1.210440083357647836e+03,4.817059159014569492e-01,-5.011030237746800786e-01,-7.189264010657911985e-01
2.711004994214647013e+03,8.207509970093362881e+02,2.510853837842800658e+03,-3.925924307719608208e-01,-5.384634670326737815e-01,-7.456059803755035187e-01
5.206645427262994872e+02,1.974820540224056060e+02,1.194856209679475342e+03,7.642289683963107150e-01,-6.209835887472485716e-01,1.741650549636719614e-01
6.242444069474297521e+02,1.406165519182884736e+03,1.277237809594012560e+03,-5.776048426181754070e-02,-7.693897374907471276e-01,-6.361628394536728015e-01
2.567853594924556546e+03,3.471173543040472396e+02,1.685803685258218593e+03,3.254548707981066598e-07,-1.610581570994169126e-02,9.998702929381448890e-01
2.298834521783186574e+03,2.636948797590322556e+03,1.901789178254774697e+03,7.581736808272085959e-01,6.259868240910255732e-01,-1.825189463188783279e-01
2.498311563082274915e+02,2.618034438900067926e+03,8.100560553925384966e+01,9.078168636165915295e-01,2.065944890136236500e-01,-3.649482966702743969e-01
2.403471841788638358e+03,4.373034378048926101e+02,3.169500394666180227e+02,5.374643202588659519e-03,-9.769378762205840339e-01,-2.134560826401058764e-01
1.934820252876972290e+03,1.099373146387277302e+03,1.024304846136798687e+03,-2.400957511043418438e-02,-2.809497363287688509e-01,-9.594221104184601501e-01
6.185175283492848166e+02,4.823069634776996395e+02,1.771662721013320152e+03,3.279459352419635820e-01,9.444787300315907741e-01,-2.028280247370850900e-02
1.124673099557850037e+03,2.937918651085068632e+03,2.575443962393130732e+03,5.522413064962432977e-02,9.284923647556619919e-01,-3.672223086693289784e-01
9.402350370878925787e+02,1.849074353257609573e+02,2.757693924345167488e+03,-1.253047486457853077e-01,-9.387592733216220120e-01,-3.209824710470597919e-01
2.375172948626799553e+03,7.961939827623460815e+02,5.046129285762630161e+02,2.525269327884339162e-03,8.322607687438084989e-01,-5.543786033251882905e-01
6.618856049497832146e+02,8.433639740858192226e+02,6.348788041682046241e+02,5.394728088421884005e-01,-1.988267253010012336e-01,-8.181913112628365070e-01
3.911646871031573482e+02,3.537262558743213958e+02,7.108003466167367606e+02,6.868887430399114868e-02,-2.948240608302761245e-01,9.530795411204650014e-01
2.146800550894468870e+03,8.117077902856560740e+02,1.688565239287457189e+03,4.559442462231653170e-01,-6.443622465329823523e-01,6.139317059567437340e-01
2.917285086747201149e+03,8.761078806514015014e+02,2.522780919882376566e+03,4.875002113559984140e-01,-8.662310346717972953e-01,-1.094867046690355533e-01
1.144354978915344645e+03,1.436119936767867785e+03,1.708423315054544219e+03,5.625220447540235646e-01,3.060380501139085222e-03,-8.267766223333486986e-01
5.770120088666542415e+02,8.436877636298989955e+02,8.773150869633908542e+02,1.499259420889052785e-01,4.988109593141991094e-01,-8.536450308862594261e-01
2.333512329478184711e+03,2.954673902348293723e+03,2.599833140734945573e+03,3.803470232865737571e-02,-8.256984062773427002e-01,-5.628281294407971869e-01
2.095193592598232044e+03,1.422787377346106950e+03,2.205980313901720365e+03,-2.300205526017212038e-02,-9.728545342034216059e-01,2.302714935324206014e-01
4.226857970160511968e+02,2.786817926318600257e+03,1.749857751017915689e+03,-8.499971157106897546e-02,9.000731027975550358e-01,-4.273680599357151944e-01
1.683922510367987343e+03,2.072947000970018053e+03,8.537363724350008169e+02,-4.081460206580913019e-01,4.046111756761507916e-01,8.183560486358784081e-01
2.525787678659932681e+03,2.889019257566058513e+03,1.958822432586583091e+03,6.369953541005789477e-01,-5.998194613518804674e-01,4.842040196423591514e-01
2.119090526805829995e+03,1.453190616185368526e+03,2.782581054320176463e+03,8.242918486947606272e-04,5.245216990917895838e-01,-8.513966805930185400e-01
1.267141778262616526e+03,2.178797819585688558e+03,6.900567489324369035e+02,-4.180412761011298994e-01,-1.086843609073461503e-01,9.019030996564434410e-01
8.668874416102346459e+02,1.688623351485065314e+03,2.306757700438866777e+03,-1.452374035528842811e-01,4.655170519973329812e-02,9.883010853743984248e-01
4.653837902038506513e+02,7.179559914866936197e+02,2.905073216869734551e+03,1.807189429180444395e-01,8.204276225908595510e-01,5.424381805888065511e-01
2.465945799081413952e+03,8.822654492622395992e+02,1.697284261621128053e+03,5.229718397391437401e-01,6.503419895845050647e-01,5.509589380553898685e-01
7.396472324518661026e+02,2.020352791706005974e+03,2.217358128016711021e+02,4.934741753999960512e-01,-3.500089896121142963e-01,7.962266922202501096e-01
2.894865370115071983e+03,1.114046440298377405e+01,6.912967855538681761e+02,7.124811798910736238e-01,-6.905328912009096598e-01,1.246390567628634649e-01
8.058996609809344136e+02,4.720367966263599442e+02,1.387480605460646984e+03,6.758417307058521561e-02,9.199645633672478562e-01,-3.861315600917313851e-01
1.282526560959568997e+03,2.662713238210951658e+03,1.500210285440745110e+02,-5.674383982447368524e-01,1.257568419663012971e-01,8.137560327863075926e-01
3.784809124705516297e+02,2.798772935395560580e+03,1.820271994227606456e+03,-8.683540680492142227e-01,-4.147891880702271883e-01,2.718660367946358347e-01
9.667011343775338901e+02,9.148309844162263289e+02,1.354992902600587968e+03,2.402692429742257774e-02,9.665147882701945470e-01,2.554836021427342452e-01
2.573584861013025147e+03,1.065529164912157512e+03,2.312013305381274222e+03,-7.563572040386542517e-01,2.536232590970846634e-01,6.029917265964788164e-01
4.193573234918340518e+02,1.462049803579062655e+03,2.240693250359338151e+01,-4.621405851217448291e-01,-6.810045021017111511e-01,5.680307629878260656e-01
9.791690217547078134e+01,6.621783450326347520e+02,1.493547413266166359e+03,9.899834896018777641e-01,1.139832484498658483e-01,8.330971965206090957e-02
1.569863893473876033e+03,0.000000000000000000e+00,2.371311661811633712e+03,3.758457201137314213e-02,-4.668270801128315828e-01,-8.835495895647565989e-01
2.966157131902755850e+02,4.372777326935670885e+02,1.529746471663870352e+03,2.686966129769843281e-01,-8.410780159187791760e-01,-4.694570281855694471e-01
2.328717075944483895e+03,1.268254234721815692e+03,2.110832577260935352e+02,-5.303759269087802901e-06,-2.816943045665161738e-01,9.595042046529327351e-01
8.854312977984852751e+02,8.951951219031102482e+02,1.155138505358419479e+03,-3.705643257375408339e-01,4.205866521999950258e-01,8.281237519126487534e-01
9.111538822782254101e+02,2.639156731094891711e+03,6.452340923982608274e+02,-5.562935314684560595e-01,2.414526928745956424e-01,-7.951340163456472876e-01
5.412935237114752454e+02,1.158956048136492200e+03,2.969889291726637111e+03,1.118118899790388615e-01,-6.852146483170763469e-01,7.197075704694377851e-01
3.472432888589329991e+02,2.761575988473121924e+03,1.799051667743361577e+03,-3.122000573069087445e-02,5.329106936967731301e-01,8.455953546382569685e-01
2.052491083789038839e+03,8.970484842368333602e+02,2.001583223710314314e+03,-1.570150556191568904e-03,-4.973370087398488182e-01,8.675560122349049719e-01
1.300234355273996982e+02,1.726979904258983652e+03,2.361791817118537892e+03,-1.128979411086769302e-01,-1.461220821967203765e-01,-9.828033333215331346e-01
2.938844849225768030e+03,5.273187930960922642e+01,2.807369953986865767e+03,7.163228958191902862e-01,2.039709729824409623e-01,-6.672910542677803480e-01
1.757017919185109122e+03,6.421661241183667244e+02,2.232963264184441414e+03,5.704353015325653864e-01,-3.719588885686431201e-02,-8.204998675305188449e-01
6.736345867041128486e+02,1.273920777157527027e+03,2.207137331803843153e+03,-3.061090151459362474e-01,9.517644572662194991e-01,-2.101639196255100650e-02
1.061209984759259441e+03,1.714942502914303759e+03,2.676970399044772421e+03,1.321929562535467326e-02,-5.781209623310932244e-01,8.158439821047528406e-01
1.016849743623222480e+03,1.621060147692692908e+03,8.830574077461784555e+02,1.186682814730906504e-01,9.349921411811453753e-01,3.342267716711520009e-01
1.249978910036554907e+03,1.678130235106984856e+03,2.654790581269328413e+03,2.212574419334293468e-02,9.410587001117471928e-01,-3.375188504185792637e-01
7.670594880345321371e+02,5.180039416259695599e+02,1.923018736350138170e+03,1.142038624153259851e-01,-3.864645367191485437e-01,9.152063372091974180e-01
1.394790485047702305e+03,5.670810705308086881e+02,1.283430085694967147e+03,7.119724659571999847e-01,-3.040357945424412844e-01,6.329750732499426213e-01
2.156714882806864352e+03,1.171826694645048292e+03,5.690815314160057596e+02,3.486852153386399422e-01,8.749908618909124636e-01,3.358714221419327739e-01
8.507503294171705193e+02,2.523023677994270656e+03,1.516051137322776640e+03,-1.203627749845118458e-02,9.903376078142634986e-01,-1.381540827218015743e-01
1.774550814336288113e+03,1.260718641258467187e+03,1.614767614230591164e+02,-2.763944076689680562e-01,-8.673430591235838927e-01,-4.139107986021429153e-01
1.028273814717309506e+03,5.562718575551934919e+02,2.643923877120644647e+03,9.431277533494464294e-02,9.913554396305304106e-01,9.121125327270813987e-02
2.791881211017047463e+03,2.147868327648228842e+03,2.918478128692058363e+03,8.260017293429128271e-01,1.343159686437956635e-01,-5.474306930468881838e-01
2.058555741555302120e+03,1.666010601966907188e+03,2.552313779378695472e+03,7.956958148864406999e-01,-4.265166152845729086e-01,4.300601667887818391e-01
2.817090846196308576e+03,2.208733188988740494e+03,7.040204325020064289e+02,-6.659968289925434215e-01,-1.960304984576410892e-02,7.456969519909688593e-01
2.189290804676634707e+03,2.252536404167844921e+03,8.798337849277450218e+00,1.798542664457891960e-01,-4.385366731774104077e-01,8.805328097917398678e-01
2.284570744887760156e+03,2.348286583203084319e+03,2.678687532056176224e+03,-4.025597667064644281e-01,8.941930181648072296e-01,-1.958685285964787415e-01
2.845501896996315281e+03,4.737457950580623134e+01,7.129052730551818513e+02,2.773528680268498234e-02,1.506111189105016623e-01,9.882039489530992649e-01
2.607023315125697081e+03,2.954350217683053870e+03,1.745164619489950610e+03,3.272096277248094328e-04,-7.513635553279793822e-01,6.598884001547217215e-01
2.496001553842512806e+02,7.737712310915352418e+02,3.217216079701463514e+02,1.982338814579832909e-01,9.269044846736976817e-01,-3.186713111246275432e-01
2.253382529207153766e+03,2.310504139747082263e+03,1.960507807384951093e+03,-4.570384706573638600e-01,7.098335831301340049e-01,-5.359590661606659090e-01
3.316912781565895898e+02,2.367477235493547596e+03,1.519121976202580981e+02,1.874376321248709676e-01,8.393261547811649015e-01,-5.102927982675098395e-01
1.985467290141097010e+03,1.680417744624104444e+03,2.989524720616289869e+03,-2.936026663575453388e-01,-4.196752732068229630e-01,-8.588772551223593510e-01
4.196279826482003159e+02,5.734159060246212221e+02,2.017282774734688928e+03,3.922648890697773560e-01,-9.164320553028851846e-01,7.924988843149760598e-02
2.290222108569390457e+03,2.926852922035879146e+03,6.811439308195401736e+02,9.439457785327544370e-02,5.142458691690888761e-01,-8.524323138610070405e-01
2.177170688673320456e+03,1.549971869129023617e+03,1.353425417699611444e+03,2.670850514890825145e-01,9.448835380298244990e-01,-1.893691496292766729e-01
2.193797020678560330e+03,5.478797966801713670e+01,1.762228988635438782e+03,-2.219583461853794158e-03,4.250277643771807612e-01,-9.051775919441398255e-01
1.503587988219764156e+03,1.177707998230916019e+03,2.684912173326233642e+03,-3.996828017547319201e-01,-6.139675416916130501e-01,6.806596181136685964e-01
1.017277442172081464e+03,2.046242967306474611e+03,6.181114207699183680e+02,6.668199691268608120e-01,5.235757933096720773e-01,5.303013458721371753e-01
4.730611115179376043e+02,2.388380912218042340e+02,3.845847539607553358e+02,-5.641588862261336101e-02,9.195823588544963512e-01,3.888258386405427647e-01
4.452393057042336721e+01,1.052844237711321512e+03,2.671283691676705985e+03,-4.256381504710352592e-01,-6.205716609310101273e-01,-6.585764788640144918e-01
9.988130652413763073e+02,6.041058403496949722e+02,7.399426885076682083e+02,-7.426576101903965554e-01,-6.631459082369569602e-01,-9.325866402040451641e-02
2.253166877163006575e+03,1.922705313952852066e+03,1.005866067551792867e+03,6.610168987546166663e-01,-4.171183860223853790e-01,-6.237538870443286587e-01
1.038021610432501120e+03,2.675792083028989509e+03,5.735408184938680733e+02,4.284705297748320763e-01,-2.774648929727777102e-01,-8.598989698110353075e-01
3.522197883610865574e+02,1.748341239496114895e+03,8.066153157382727557e+01,-4.423333500828161013e-01,2.425281891436279202e-01,8.634357444970792717e-01
1.599123677828014024e+03,2.872270228962955571e+03,2.121048744496608379e+03,3.880558711411431598e-03,-9.519903716087304568e-01,3.061033708216208682e-01
1.878410062417977770e+03,3.671767093838445248e+02,1.227755082219056931e+03,-4.949205925127028172e-01,6.246420649984510964e-01,-6.040495821878746341e-01
2.229755159612325315e+03,2.578416716193100456e+03,5.926748172729569433e+02,-1.688510831843819532e-02,-9.514637472278969499e-01,-3.072973003918571533e-01
1.981747126709922213e+03,1.399272726063717300e+03,2.880888355357312776e+03,4.557486607664474332e-01,1.834975512828398436e-01,8.709889820673917260e-01
1.080105221317095584e+03,5.447244183126584858e+02,5.137676367115424370e+01,-1.546043190687330648e-01,2.468531409161578150e-01,9.566404922148763479e-01
2.873294554080788657e+03,2.975180185088761846e+03,2.705310616833361564e+03,-9.687399914133097978e-01,-8.007851076426671100e-02,-2.347983414556365500e-01
1.984080385311547616e+03,1.997935155198479151e+03,1.714869488619634467e+03,-9.781593060869705480e-01,-1.936713117517439575e-01,-7.547049039071529464e-02
1.933399423253578959e+02,9.572593029621710912e+02,2.926885379718414242e+03,7.960118812221569362e-01,3.733364321950623510e-01,-4.764294211622792652e-01
1.830404874651891078e+03,2.544734188072620327e+03,8.639633613824925078e+02,1.876956467367058845e-01,-9.551898615732427045e-01,2.288726120438600020e-01
9.635088012822644714e+02,1.428358433392849292e+03,2.441291850589041132e+03,-5.030054313493605989e-01,-6.923504517586671625e-01,-5.173358560767009617e-01
1.455784873588791925e+03,1.159816486402237615e+03,2.678513422249748601e+03,-8.292959841370596552e-02,-4.347496920289829481e-01,8.967248111810255384e-01
2.710226411649769489e+03,1.729937629727544390e+03,2.542222092580015669e+03,-3.187762634592542499e-01,3.360634251232109126e-01,-8.862522598839520649e-01
8.634811346570364776e+02,7.220822633501979908e+02,2.448541819715004806e+02,8.205869209453864332e-01,-2.510331843219166248e-01,-5.134388430403068471e-01
1.596559403699298628e+03,9.165257756434617704e+02,1.771343614692882511e+02,5.248235975741539772e-01,8.497906041117692100e-01,-4.915404960608049656e-02
2.653546982962773200e+03,9.762072436104382405e+02,1.291531786156369662e+03,-2.960543179800455005e-01,-4.082850889382990678e-01,-8.635132465434537385e-01
2.792322907317191493e+03,2.301597273646403210e+03,2.504876384439645335e+03,-1.582019355619312395e-01,3.802851309678932368e-01,-9.112383698841872715e-01
2.450080329720182363e+03,1.552883698567182137e+03,1.054776366190837962e+03,-9.739463143245182808e-01,-1.304108335203196245e-01,-1.855305670616631541e-01
2.665536420988298119e+02,6.282408930620856609e+02,6.454003401967266882e+02,-5.144906700979852143e-01,1.322767118391072194e-01,8.472320944624087691e-01
1.032256173610136557e+03,2.001824879558131727e+02,1.604957081493051646e+03,-9.481241120276860945e-01,7.105283090767157417e-02,3.098582956961418167e-01
1.410845830938742665e+03,1.846677124421190229e+03,2.813414188586752516e+03,-1.170199623531331806e-01,-4.954793585813448975e-01,8.607011871902410238e-01
1.671555225570486982e+03,1.905820370389054233e+03,3.115808639386797836e+02,5.396219483034048192e-01,6.699638474718468961e-01,-5.098593884493620720e-01
8.581114248344006228e+02,7.940094041093320811e+02,2.935749035360370272e+02,-6.781373087691447976e-01,3.228103432815138674e-01,6.602448581593139965e-01
2.220643375129589458e+03,2.085675853088983786e+03,2.188680023372296546e+03,-1.499066885106422886e-01,-5.201856819093416684e-01,8.407941728367808176e-01
2.987728058742477970e+03,1.184145326526498593e+03,9.541561545918063985e+02,-1.204449778531543024e-02,-9.363390454007398667e-01,-3.508904702768811945e-01
2.572555104019775172e+03,1.988961372939409557e+03,1.379002325348621071e+03,-4.157440060941663407e-01,2.553035737213737652e-02,9.091232712065095978e-01
1.312007790285114424e+03,1.108581903431095043e+03,2.375695207391694112e+03,3.638153449451269617e-01,-5.171306834825672993e-01,-7.747349553126612332e-01
1.589136824183694614e+02,1.104722551184021995e+03,1.062768600180840082e+02,-5.500136881853511239e-01,7.533014370925930070e-01,-3.605854790240192731e-01
2.698335665645603967e+03,2.318260538664528667e+03,2.449514615575007610e+03,3.219319164297543279e-01,9.317218405414854354e-01,-1.680900147000184974e-01
4.422946185391347171e+02,2.330811548149089276e+02,3.572604680838043691e+02,-1.640323590899286574e-02,6.399947129021854586e-01,-7.682042054746661686e-01
4.027996853158348927e+02,2.757610379535989523e+03,1.816197347356378259e+03,-9.213321883700985315e-02,5.309028547364297301e-01,8.424094187623029084e-01
5.472313405682440361e+02,7.479879775977161671e+02,9.187852002093355850e+02,-1.104451980744312715e-02,5.044825863791503329e-01,-8.633512255289998993e-01
2.540927569390113376e+02,1.683192846898553398e+03,2.026723648562991457e+03,4.790548061412402969e-01,8.694246833194343438e-01,-1.208603026137202718e-01
6.105450622665272249e+02,1.717553918255937333e+02,2.934426188941048395e+02,-6.962341390159185739e-01,3.530127601636813550e-02,7.169461929464293615e-01
2.693949512635851534e+03,1.348361971677126405e+02,6.605974919549286142e+02,-7.759099517790062073e-02,8.529351365546591346e-01,5.162182583925020163e-01
1.575883480094766583e+03,9.150226580931565650e+02,1.380905188096057600e+03,-7.036473240106926319e-01,-6.039334392479396296e-01,-3.743592450718249975e-01
2.222442674791562240e+03,0.000000000000000000e+00,1.725567469173908876e+03,4.351938245330450039e-01,-8.995662728186409884e-01,-3.724051416776719137e-02
3.000000000000000000e+03,1.767094599159793233e+03,9.009690466381285034e+01,-1.832435894836829671e-01,6.504738219211163575e-01,-7.370926630407274027e-01
2.547103845035677296e+03,2.939192465834162704e+03,2.691384655771169491e+03,-9.578106628830239666e-01,-1.519561596298546480e-01,-2.439427384000767418e-01
6.642271417496900767e+02,1.314842317253835972e+03,1.728871817363753280e+03,3.711542543180521361e-04,-9.790825378039115234e-01,2.034631328078181089e-01
6.417181013433839780e+02,2.388791347767352818e+03,7.471307958414214454e+02,-9.220460316324249339e-01,3.867093929804671926e-01,1.693992123877485767e-02
2.631334202250334329e+03,3.225257442978576137e+02,7.490088326942235142e+01,9.931293122960156705e-02,7.600238461493294961e-01,6.422621699703048304e-01
1.512019842681331511e+03,2.376001836433729750e+03,7.860449892606786761e+02,3.122470365617786014e-01,4.470651117519623963e-01,-8.382330069930392646e-01
1.155908762255765623e+03,1.765753638594071390e+03,2.783000988344852544e+02,7.611193398189102233e-01,3.463188329517111197e-01,5.484164626418424060e-01
8.081976198162855098e+02,2.148521142796033701e+02,1.059614912724578062e+03,-8.412541731741086659e-01,-2.298117141654098250e-01,-4.893648865105697521e-01
1.788353059065933621e+03,1.767022245779758578e+03,1.864010214231837153e+03,-1.742138482741971695e-01,-4.542388046169838489e-01,8.736799433715005669e-01
4.328605643238322500e+02,1.513741922052879090e+03,2.232036519853540540e+03,1.120239032451754956e-02,-5.250750146844666011e-01,-8.509822180310963047e-01
4.436280738566489958e+02,7.567229998413129124e+02,8.830058574153628115e+02,-2.645803526891825075e-01,8.235906650980131527e-01,5.016927878037316102e-01
2.941175332107051872e+03,3.889012554853513848e+02,2.514758002395968106e+03,-4.865132242732380513e-03,9.982905142978114599e-01,5.824413748414363629e-02
9.116113299827388801e+02,2.100738322473014250e+03,4.048529817607147265e+02,-4.218028657931811032e-01,-2.677547379758103419e-01,8.662503926118387820e-01
2.020872875778474054e+03,8.696962472433605740e+01,1.694179461282999455e+03,8.994355295543072781e-01,1.705142700246784770e-01,4.024184537186556998e-01
2.321620005330401455e+03,2.353696844938849154e+03,2.006951429983633034e+03,2.753321327919586170e-01,-6.521344977145928645e-01,7.063376059242260085e-01
2.276716405190692512e+03,5.571296676753066777e+02,1.281766443313358081e+02,4.391008905711317745e-01,8.403011248349516737e-01,-3.179377730008718927e-01
5.965628472282379136e+01,4.860007911008693213e+02,2.125282842068534592e+03,4.018502139130184642e-02,6.015963644464031868e-01,-7.977888055999853290e-01
