x,y,z,nx,ny,nz
1.749427002871255468e+02,1.481359858528982613e+03,2.521466507855504460e+03,6.744743377034884135e-01,4.685822023081951393e-01,-5.705392952807391005e-01
2.446308991161689846e+03,1.079741786788874379e+03,1.038844603932873724e+03,-5.615332069381334668e-01,-5.859442285558753571e-01,5.842515028032324587e-01
8.133530491854887714e+02,2.288193294583221814e+03,2.019982589332590578e+03,-9.640908058901768163e-01,2.654112312787385020e-01,-9.262629709404057721e-03
1.681809310174796337e+03,1.494262728882711599e+03,1.523470504129205892e+03,4.852813505393437921e-01,-8.605486051017982030e-01,1.547840724236833332e-01
3.168791808782607688e+00,1.924103957675876245e+03,2.490100963908431822e+03,-4.170355598604542913e-02,9.754111306791624081e-01,-2.164115051593072103e-01
2.260708593721211855e+03,1.201855918122857702e+03,2.993967810692017792e+03,-2.817177921470865112e-02,3.986794967855370464e-01,9.166575203960902751e-01
9.260142854346116792e+01,1.899065260561710602e+03,2.442294739536187080e+03,-3.814361155233564893e-01,-3.393029526460205059e-01,-8.598720812424049953e-01
1.763137122357458566e+03,9.908311907515633266e+02,5.659205838142917173e+02,-8.227832545666844410e-01,-4.310224439958570408e-01,-3.704691198689746834e-01
1.829347893531086811e+03,1.023092691433755704e+03,2.572653979770108435e+03,1.848957270248321461e-01,-3.169539711020772366e-01,-9.302439198030709733e-01
9.295293484535595780e+02,1.535267579155097373e+01,2.228362271996249092e+03,-9.936719889555407637e-01,-1.082165971599587939e-01,-3.008565213285030460e-02
2.302363768691098358e+03,1.788114612734085313e+03,1.536357781753312338e+03,2.809253791062698777e-02,4.210559126039574163e-01,9.065995410185185843e-01
2.857420131191543533e+03,2.526785848277403147e+03,2.339900040363035714e+03,-4.680395715608727802e-01,-1.519573634672355122e-01,-8.705446106554224350e-01
2.353169633043301019e+03,1.872203008024228666e+03,7.680836550905950162e+02,-3.176757442387110331e-01,3.679124326700572434e-01,8.739122172216049478e-01
4.504903109382007642e+01,1.778817870530552000e+03,2.059180545499620166e+03,9.719409836811380154e-01,1.250391803734983154e-01,-1.992383688260510877e-01
2.048069692219099579e+03,1.503201878970335656e+03,1.250802808413808407e+03,2.531073072146753922e-01,-6.433586915880334933e-01,7.225138649137949898e-01
2.905428140112578149e+03,1.045543843495082541e+02,2.865501845626825343e+03,-1.776736934615916197e-01,4.564643299996239967e-01,-8.718212971072172301e-01
2.238467536813097468e+03,3.608545053001265046e+02,9.563955266419229702e+02,7.138166052581399468e-01,6.908303107114241448e-02,6.969170602559308092e-01
1.163187688336643077e+02,1.979782262903175479e+03,2.528231625987573352e+03,-9.668323994931843010e-03,-2.919429492562147788e-01,-9.563868662265873066e-01
1.572367180357545976e+03,1.321566483980554949e+03,1.942840412937025121e+03,-1.462958807899672475e-01,6.370205571826342839e-01,-7.568370531300736559e-01
2.653716698841377820e+03,8.090467714216791819e+02,1.057692808834700827e+03,5.685692461885075710e-01,7.060317338785717656e-01,-4.221945085444027690e-01
0.000000000000000000e+00,1.919596459449317535e+03,2.486066429576596420e+03,1.879545354113961175e-01,4.414959474123729688e-01,8.773564959791073647e-01
3.586839908659315768e+01,1.928470184049519958e+03,2.572962440180428985e+03,-3.151231925803371636e-02,-2.155878659757106408e-01,-9.759758428255378426e-01
1.146584859992572092e+03,1.001959555321485254e+03,1.595438940378046254e+03,-4.029766539767441480e-01,-7.919102536375214330e-01,-4.587896757049618746e-01
1.665800877708069720e+03,1.247801414193792198e+03,1.412536173609588843e+02,4.484463788520137162e-01,8.897060376313549179e-01,-8.555122381842483748e-02
2.265839974922939291e+03,3.747868047134451785e+02,9.925520711470215929e+02,-1.179491268904476198e-01,9.700286575665346689e-01,-2.124438913347423408e-01
8.607782762949986477e+01,1.894502579953060376e+03,2.473768823004926617e+03,2.029945085241615429e-03,9.343831955947152768e-01,-3.562638391882609334e-01
2.293185026989562630e+03,2.266709249760635601e+02,2.235654655132485914e+03,-6.511687787682398643e-01,-6.290750084278995402e-01,4.245513577047155263e-01
0.000000000000000000e+00,4.084754247415582995e+02,2.659735903588428300e+03,-8.214410464424644343e-02,9.658544543849916231e-01,2.457183733807163650e-01
1.331087150960481438e+02,1.929064886786558418e+03,2.516057656720447085e+03,3.611781808850549891e-01,-9.051730582433811234e-01,2.240804683208403592e-01
9.345783876435514514e+01,1.922090609557527387e+03,2.497485696616442510e+03,-1.351101826151896584e-02,3.670204918501044355e-01,9.301147299917599254e-01
0.000000000000000000e+00,1.946450274974140939e+03,2.589978286026136175e+03,-1.430022380837941975e-01,-2.134781536257870371e-01,-9.664250813319937849e-01
8.593538738741588645e+01,1.913305825899538831e+03,2.442554207904106079e+03,1.774372887530998319e-03,8.739431608896109926e-01,-4.860248997069303578e-01
1.917731669093023470e+02,1.968376592797432750e+03,2.487250366656771348e+03,3.835637618786006189e-03,-8.967277654699780109e-01,4.425659301384117783e-01
1.666621170006133980e+03,1.193799758283600113e+03,8.626769380861659329e+02,1.836916066350707255e-01,9.810499961797684021e-01,-6.163033869372136486e-02
0.000000000000000000e+00,4.258049035874533956e+02,2.669208486939684008e+03,-3.199961133269257907e-02,9.747177038601348986e-01,2.211366605883858527e-01
1.334959484311798690e+02,1.972384621526079854e+03,2.485937781346258816e+03,5.099249719557357591e-02,1.100988410743337226e-01,9.926117118107402604e-01
6.576811798647037222e+01,2.039190378809574213e+03,2.491923399053137473e+03,-3.889461840996178061e-04,-9.621336332575595174e-01,2.725779163385655401e-01
7.092882036908166583e+02,2.336887294282751100e+03,2.873992826269315174e+03,8.526446543472271378e-01,-1.513811988949834986e-01,5.000808195024231129e-01
1.641611411432501768e+02,1.988870152361350847e+03,2.424210385666290222e+03,1.756179806923784809e-02,-1.102252606577338451e-01,-9.937514654889874066e-01
2.118409542590924048e+03,2.810602157480480855e+03,2.009826673593920532e+03,-1.642040891756984811e-01,-2.739535178256379266e-01,-9.476214893980281495e-01
2.739584425543595898e+03,2.133666500653449930e+03,4.895553629086798537e+02,3.364777841316278773e-01,-2.270576356088816472e-01,-9.139078350126854655e-01
1.591921539231842644e+02,1.914706274937446778e+03,2.594477955855520122e+03,2.792063726285789471e-01,-9.002764947545784935e-01,3.339850812177104222e-01
2.082061990335883905e+01,1.974994016017667263e+03,2.503881786156599901e+03,-3.380314293794681735e-01,-4.230468653870809170e-01,-8.406938220528556993e-01
2.431236470543666655e+03,2.713095147391310320e+02,2.776540450374297961e+03,7.789516598415761051e-01,-2.753265489986148618e-01,5.634089128213777276e-01
7.979940480901123578e+01,1.928625090715102488e+03,2.469548522361999858e+03,4.105503383352570863e-05,-9.984450715604161752e-01,-5.574439336112217008e-02
1.163764891717458340e+03,2.133727888397314018e+03,3.064412263259849851e+02,9.986573107304731745e-02,2.330706518561483920e-01,9.673184103492479258e-01
6.661154052055559305e+02,3.408856610849598496e+02,2.284433796112740765e+03,1.234024858397124585e-01,-6.897455963142293811e-01,7.134583651858794617e-01
1.054670811474800985e+03,2.470151869022156006e+03,2.534227358455802914e+02,2.736759459469941327e-03,4.177700529642214278e-01,-9.085486739817150159e-01
2.995542625997906271e+03,1.337338817647466612e+03,1.118420842509588283e+03,-4.762383741192933173e-01,7.969615320716656459e-01,-3.715498989559756216e-01
1.701360028780168022e+03,1.154458408822905312e+03,8.572261981643259787e+02,9.440539230391863101e-02,9.935752196736860054e-01,-6.241718316561435664e-02
2.252875582320500143e+03,2.708361757130928254e+03,2.881212760168292789e+03,-3.539563661651961429e-02,-9.197506552505102517e-01,3.909039281905060115e-01
1.522594562310570154e+01,1.954015483081373304e+03,2.518896259395795369e+03,-2.943459675240934505e-04,-9.548736928899721477e-01,2.970120266708382029e-01
5.987408993143342286e+02,1.057468533715608601e+02,1.086332270521621240e+03,-4.037231803125050367e-01,-8.648459176164717821e-01,-2.984110126327099710e-01
2.720091271200045867e+03,1.329116403463834104e+03,4.919763254049414058e+02,4.777627713560229916e-02,-5.859183115493047517e-02,-9.971381171457514014e-01
6.530159903911732044e+02,2.601814578090032683e+03,1.535805082473387301e+03,-7.611591283980808642e-01,-6.485615468393705063e-01,-2.168229138509448085e-03
1.461352918490963475e+03,3.058693357652232407e+02,9.591842274181530001e+02,-2.947742409781347050e-01,8.695603350017915290e-01,3.961981456889176467e-01
3.374863706602936304e+02,5.475157481615444510e+01,2.862317655775725143e+03,3.755781219340501020e-02,-9.839695235086284297e-01,-1.743369942079069368e-01
1.226980886460986540e+02,1.892266347051609500e+03,2.491663000114081569e+03,-1.166888199042647317e-01,-7.291015436741681288e-01,-6.743846516056657414e-01
1.054881010252511402e+02,1.971116955195051332e+03,2.542273113490599371e+03,-3.500432611309272635e-01,8.442827186518936378e-01,-4.057787652435657089e-01
1.210283184134547980e+02,1.960745365695479450e+03,2.602239629438167412e+03,1.702372455478002797e-02,2.922787620572078193e-01,9.561816344464000306e-01
8.447748223931921530e+02,3.000000000000000000e+03,1.426387673796850322e+03,5.821446924947062951e-02,9.857124087264776957e-01,-1.580573403947054534e-01
8.466917821007049270e+02,1.317307776375368121e+03,3.076216769634496586e+02,-1.816482985242537374e-01,9.441923969879200129e-01,2.747810275718642892e-01
4.827657723266816703e+01,1.887102655848944096e+03,2.552898957403669556e+03,-1.635160421825816116e-03,-2.145611406186715975e-01,-9.767091906943485835e-01
2.920261265998007730e+03,1.845312152272097137e+03,1.040518285767096813e+03,5.017591364207483196e-01,-5.998864287378035121e-01,-6.231966315975312476e-01
2.428906338299193521e+03,3.020019600555855277e+02,2.747224939026478296e+03,-4.356327959628591984e-02,9.124501195055122471e-01,4.068624092800812719e-01
2.252962373731929347e+03,2.491833381081102289e+03,1.996266863917064484e+03,6.721653470400914543e-01,1.623499288040224642e-01,7.223823411849172871e-01
8.747714778984325221e+02,2.962311373204931442e+03,1.433747757917643867e+03,2.784040044678329218e-01,1.710922995673465341e-02,-9.603116601117381856e-01
2.778582472420891463e+03,2.674388148811372957e+03,1.391914452185193568e+03,-1.079683010507490881e-01,9.707253354218807750e-01,-2.145580787066569961e-01
9.731715804650007158e+02,2.614935955201973684e+03,2.228592018690657824e+03,4.727463934583278626e-01,8.730289529524933867e-01,1.197133859633785491e-01
1.719709251283342610e+03,7.340545022003119584e+02,2.201865047775411313e+03,7.002195059970864888e-01,6.859673891638122800e-01,1.978418166742792472e-01
7.654990383286873623e+01,1.957977613006073398e+03,2.480166975364679729e+03,-5.615461547710086029e-03,-9.992869185014873201e-01,3.733793116132945455e-02
1.397340242240576913e+02,1.948199583540053709e+03,2.614891232466550264e+03,-1.449345142502491968e-01,-9.469903616798595047e-01,-2.867110766337659378e-01
2.057048577303110960e+03,2.535744577019957262e+02,2.943569746411786127e+03,4.007116814458954179e-01,-3.578293571549183705e-01,8.434383792020025972e-01
1.307286789357004864e+03,2.417812395907802966e+03,1.626979806892782335e+03,-3.500771242783102394e-02,-7.448881484292287913e-01,-6.662702953008227125e-01
1.863674778551327336e+03,2.037966450682151162e+03,1.179689388663610771e+03,3.871591985318808549e-01,5.263398583622281857e-01,7.570165840266520618e-01
9.231529388985493370e+02,3.324296135086489699e+02,8.072598836431137670e+02,6.220645963528751571e-02,-6.678514155835013621e-01,-7.416905305332922582e-01
2.877575593920771553e+03,1.824301868773914748e+03,1.060116560355628508e+03,1.623514692700042117e-01,-8.757984243025809246e-01,4.545537596533409941e-01
8.958352680250533240e+02,2.101656690957182491e+03,2.400771599464948849e+03,-9.337291065318222005e-02,-9.894489375321079416e-01,-1.107804115028276915e-01
1.094230090699549464e+03,9.425690931817933915e+02,2.342299373141354408e+03,-4.954266310937748830e-01,8.685566041927147429e-01,1.272314883558967047e-02
1.109148330982438893e+03,2.152363038256155960e+03,2.746652094091481899e+02,-4.867495050529724310e-02,4.339093061455340933e-02,9.978717233861824631e-01
4.152261583074707119e+01,2.968719437279703925e+03,4.678757630329724861e+02,1.144098746558571827e-01,-1.082065217213448866e-01,9.875230271938975068e-01
1.092512329320590254e+02,1.953041862726212003e+03,2.657659159881351115e+03,-1.034914586096843080e-02,-3.566514916993790973e-01,9.341801799698793429e-01
1.990950845380086776e+03,4.282557082610915700e+01,2.012793245700230273e+03,-9.697428142214977731e-01,-2.259439592212925119e-01,9.245648466806732912e-02
2.867306143660510770e+03,1.514702707739523646e+02,8.231584300978467184e+01,-6.404368356092284831e-01,7.587197310144611073e-01,1.191009209207969516e-01
2.870677872696788654e+03,6.645197155401490363e+01,2.903362928544373062e+03,-1.441992028190979165e-02,-8.459477332648041026e-01,-5.330708193881963375e-01
6.195423435777674968e+02,1.123236103739305008e+03,2.888567507195939470e+03,6.601650114571834260e-01,2.296993476061542916e-01,7.151366074793290561e-01
6.414431641305174026e+02,3.364029913059673618e+02,2.301431608483813307e+03,-2.152330520075850832e-06,-6.785882867840546950e-01,7.345188472972283833e-01
2.251334365649427127e+03,3.577280361987629931e+02,1.001207689685189166e+03,6.540437587193342894e-01,7.461928408935983303e-02,7.527673771639393774e-01
8.095913080292309587e+02,6.872047333439363683e+02,1.826249815034488392e+03,1.292675366717374874e-01,-2.648197002424941271e-01,9.555942812335664893e-01
1.322873137135048864e+02,1.905211286779099510e+03,2.558080852826316914e+03,2.797555022406143788e-02,-4.699526449186164911e-01,-8.822481964411477140e-01
2.872961379566665073e+03,1.099983866241260102e+03,1.587861726757094402e+03,2.916644872511146014e-01,-5.400256143561584787e-01,-7.894961448390980241e-01
2.214457668001953607e+03,1.073001548936866584e+03,2.173742043836732137e+03,-5.358668803580740603e-01,7.975210942108220680e-01,2.771403810780355137e-01
1.924300245974514382e+03,1.341720043744707311e+02,2.706499036351192899e+03,-4.867299320317444167e-01,6.742276824375421640e-01,-5.554376702198676741e-01
8.807134555890718275e+01,4.474039253873488633e+02,2.633267824016666964e+03,7.028754804325055248e-03,9.794528184968308571e-01,2.015509189870264284e-01
2.373590056496680518e+03,2.588763001369624817e+03,1.744002659562223243e+03,-8.519048572557993415e-01,2.410922317361394174e-01,4.649006882985482481e-01
1.163362774562377581e+03,2.994202407181584931e+03,1.761430332929821134e+03,6.313408233999648345e-02,8.550201743404335364e-01,-5.147373982118855773e-01
9.000337938683464927e+02,3.222880076691316162e+02,8.001890258042504911e+02,7.498738417794051370e-02,6.266093430905087525e-01,-7.757174894030887113e-01
6.115366786200374918e+02,8.817387691246584609e+02,1.302945198569258537e+03,-6.636377233093075645e-02,9.043579678739253058e-01,-4.215833436759010566e-01
1.603967637165222584e+02,1.921977167749838827e+03,2.472716293288003726e+03,6.317594194914602501e-02,7.326501753272728346e-01,6.776669690576297977e-01
3.094478790452950534e+02,1.265370942395901238e+03,7.007659888181689212e+02,-6.972557591260459819e-01,-7.059523274006042071e-01,-1.243612391512387699e-01
1.286997034134946261e+03,9.804295526479653518e+02,2.269155024328555101e+03,1.301854470615371011e-02,9.933646838347173214e-01,1.142677662496556223e-01
5.294024624315916583e+01,1.955768830679204484e+03,2.540353444273160221e+03,-7.764514331855955076e-01,2.445769354128294604e-01,-5.807799020008382884e-01
2.540951829092807657e+03,1.940787896507055621e+03,1.698198385989553117e+03,-3.648632946053810833e-01,-9.310604234183080807e-01,-1.124363743531864301e-03
2.719380108140077255e+02,7.768971350131242843e+02,2.552587233452562941e+03,-9.951959369306935532e-03,9.339760545472307607e-01,3.571969877212013422e-01
6.008350110219922158e+01,1.930552642712534862e+03,2.596289242115728030e+03,-4.280628914249769990e-01,8.473209408791021469e-01,-3.143396000071285168e-01
1.188370538777082857e+03,3.573559795520654347e+02,7.098543850505111550e+02,-8.728249078850652820e-01,-3.984686035603461352e-01,2.817790839506988387e-01
3.845905053779160312e+02,2.769995872910702928e+03,2.345383822840720768e+03,3.765652642230040148e-01,-2.505686164706252828e-01,-8.918598377663700116e-01
1.027504152670030862e+03,8.362405304315004742e+02,4.863646687996606488e+02,8.859941647772467954e-01,-4.636963772110254678e-01,9.870176966009225339e-05
2.069075169822493990e+03,2.356442363778096933e+03,1.536922510432849776e+03,4.440704949278184710e-01,-8.384085611813685279e-01,3.160260749880454689e-01
5.742927817196930391e+02,1.348825112218714139e+03,2.714047606636371484e+02,-9.642353230166093858e-02,6.794601129103780002e-01,7.273489240950914425e-01
8.317656543253483505e+02,1.182405120758836347e+03,6.361395867724093023e+02,-5.266360872862708709e-01,-7.449515269599917833e-01,-4.095139241195395741e-01
6.001030958892507670e+02,2.458842047406544680e+03,1.964224669981071429e+03,2.911093353547192786e-01,-2.138979133085341655e-01,-9.324714674195604402e-01
9.030936019596725828e+02,2.930789026217272749e+03,1.457547811765540700e+03,-4.086361319589548180e-01,-2.807183827668344525e-02,9.122655773147375635e-01
1.579435392926479153e+03,1.064337280411707752e+03,1.957002778873161560e+03,8.404773866655895764e-01,5.134288893709586521e-01,-1.731719898340520203e-01
1.995529384210829676e+03,1.498782948930523389e+03,1.285370330038153725e+03,8.053888184272428585e-02,5.032971985148938510e-01,8.603519154849270656e-01
1.771995242133962847e+03,3.479919323456420557e+02,4.940439679724141229e+02,-1.804176761377807026e-01,-9.816476520370738257e-01,-6.178470188600981849e-02
1.546295161403190605e+03,8.835273352526303370e+02,2.990249467974615982e+03,-7.708290897974414690e-01,-3.242721698902036320e-01,-5.483339075387796413e-01
9.613607471904700787e+02,2.594191107072289924e+03,2.273840780297123274e+03,-5.622832015581389342e-01,-8.192781488368248155e-01,-1.123428506138010735e-01
2.606218477423683453e+02,1.259691981295622782e+03,7.212606015741873762e+02,-6.141036537753710722e-02,-2.349917142471081022e-01,9.700554939071284188e-01
2.948545942042866955e+03,1.985398947604298201e+03,1.094777818987893625e+03,6.749627948444432146e-01,6.035836753416825573e-01,4.243960089784122314e-01
1.016470680537921538e+02,2.002026610525061187e+03,2.464271063134292490e+03,-4.145875409328987904e-01,9.088165466033580886e-01,4.657956121689399431e-02
6.784630011568313535e+01,1.870650189053642862e+03,2.479397190039798261e+03,-3.713772246075808942e-02,-8.757618323089081391e-01,4.813127908557714996e-01
2.309758940635475938e+03,1.754232355223054356e+03,1.591032488737968151e+03,1.669539487113378328e-03,9.303777756015166878e-01,-3.665984278535232566e-01
6.023187562688874550e+02,3.570208488650662275e+02,2.268257636372425168e+03,2.863439646596570576e-01,-8.356730394612124635e-02,9.544755835610283512e-01
1.438332872811157358e+03,1.155122907852053913e+03,3.489483349798667859e+02,3.003416909242824159e-02,-6.869733864266832635e-01,-7.260616468512729460e-01
1.401539091543957511e+03,1.144563904558438253e+03,3.942170036799628292e+02,9.301224285753520449e-02,6.843040411170641102e-01,7.232404178345306356e-01
1.537860066777204793e+02,1.933081810331146016e+03,2.522122928101057823e+03,-7.737680676362364805e-03,-9.782981008583797600e-01,2.070578521926621507e-01
1.334849010828455448e+03,3.462316571530657825e+02,3.949694290204643039e+02,3.519986541823358905e-01,3.592679711584750302e-01,-8.643051963013397287e-01
2.262025445809559642e+03,1.219916723921858647e+03,1.184559396080998113e+03,-2.774977007687937647e-01,-8.563710761411713612e-01,-4.354579268044678764e-01
2.514080955109970546e+03,2.526795591005457936e+03,2.543825048093527528e+02,-8.697725984742867844e-01,6.001067172083842521e-02,-4.897901042517098791e-01
1.585004524417974380e+03,1.471702567704875037e+03,1.486383447806775621e+03,1.114185256144452352e-02,-9.989094649166444517e-01,4.534026931373663638e-02
2.312417819819754641e+03,1.858418416475296226e+03,7.858763793622784988e+02,-1.104801532588634561e-01,9.920737532971275474e-01,-5.986487914335260341e-02
1.774796211908308351e+03,2.393129225733402109e+03,8.265839362273347888e+02,-3.618898215090542991e-01,-6.888611511199407289e-01,-6.280971832175774594e-01
2.922586965492284435e+03,3.946800488911971456e+02,1.821953670802211718e+03,-8.206899540855974173e-01,2.490270813524572135e-01,-5.142504370596653329e-01
1.080634840329518909e+02,1.963442550842981063e+03,2.479050169821293366e+03,-1.349864270144569139e-03,-9.878241072672883094e-01,1.555689910233950257e-01
2.642513278195805469e+03,4.263460993826186041e+02,1.645766529239335568e+03,8.730661135383567251e-01,3.258966354770591045e-01,3.626940092912512292e-01
2.843748851762351478e+03,2.175698440833535585e+02,1.507840838425110178e+03,4.999949104237844111e-01,-3.508624861558452129e-02,-8.653173086841596806e-01
1.345490559677579995e+03,9.861378785226651189e+02,1.722077145041578206e+01,6.859697212044419956e-01,7.202078801618491122e-01,1.036636433060105222e-01
8.916890309378190977e+02,3.703534839743757630e+02,8.417199378102087621e+02,3.692674818139340953e-01,6.728806915752342244e-01,6.409938391123821688e-01
2.848218849852201856e+03,1.451703530742503006e+02,6.879449039416665528e+02,-7.335353377438247335e-01,-4.598893482752238748e-01,5.004275128568000941e-01
1.290977319694510754e+02,1.219559032333937694e+03,2.253637934691024043e+02,-2.052042576929360151e-01,2.950161007203878083e-01,9.331970386474814916e-01
4.533965431588570141e+02,6.294130244073559197e+02,4.358063136328781297e+02,9.370114012492158917e-01,1.695454025708713341e-01,-3.053915362220476215e-01
1.468691992527987225e+02,2.228907494288293492e+03,2.288543233486029749e+03,2.563179152436966327e-02,-8.693495355585650897e-01,4.935325686186864957e-01
1.007040096979024213e+01,2.050001618213955226e+03,2.537318760336951073e+03,-1.928518044507389687e-02,3.714282558966811587e-01,9.282613492636384578e-01
1.263547597504938125e+02,1.711337762091086233e+03,1.037053867025956379e+03,9.136986599686283128e-01,-2.173883973555311155e-01,-3.433613890156066994e-01
2.538686286359250971e+03,2.169687202081616306e+03,1.754600685470954659e+03,3.804146059158070026e-01,9.185870739861009548e-01,-1.071564982237420693e-01
1.007594737194998174e+03,2.429357525540372535e+03,2.779049613072129432e+03,6.668196866570640369e-01,-6.828373026345830876e-01,2.984706411312538776e-01
4.573491222695286069e+02,2.633322910783009320e+03,1.885875558388470154e+03,1.816270982402998502e-01,-8.069804532441002820e-01,5.619556435046765275e-01
2.605586341885511501e+03,1.841571705718389694e+03,9.613822711204816187e+02,-8.815157918195014319e-02,9.933336587460016576e-01,7.428015542532406812e-02
2.836661008285411754e+03,2.679559126714390004e+03,1.378946335049474328e+03,1.549954012469490459e-02,-3.529380874594529316e-01,-9.355182898673796155e-01
5.178113495154813108e+02,1.423498314969639750e+03,2.362089740967822763e+03,-6.933046181598678803e-01,-2.991960154255683957e-01,6.555993065826587474e-01
4.796542150202873813e+02,5.837049041487936165e+02,4.325797575780015336e+02,9.154200566494962166e-01,2.701679695673462889e-01,-2.983544672092083294e-01
6.852511799578387581e+02,3.342264517031275659e+02,2.230568530354291397e+03,-6.873312174988031978e-06,-7.546705255432681891e-01,6.561039535233764708e-01
1.317658222416805529e+03,1.179788584080382634e+03,2.476143947202359413e+03,8.530843855323234637e-01,5.015184805023468195e-01,1.439661240554712673e-01
1.517384831762365593e+03,1.264861832961334130e+03,2.781636788676355536e+03,4.916458095681957019e-01,5.381583564420742982e-02,8.691307460721597877e-01
6.634945003305325884e+01,1.972596330478747859e+03,2.563078887078473144e+03,1.408826782415545098e-01,-6.073077501153448798e-01,-7.818755448415843912e-01
1.672678245200621404e+03,1.914078477251687218e+03,9.505979249301549316e+02,-8.811756646925689163e-01,2.724764756530253518e-01,-3.863754885720827037e-01
9.313869990674673716e+01,1.911889499164591598e+03,2.547073894977283999e+03,1.160470612875560831e-01,-5.644993683243505478e-01,-8.172353043817499607e-01
2.993685754985477615e+03,1.005774760954093949e+03,2.120521882375281621e+03,-3.070458258857199363e-01,6.719247541630236631e-01,6.739732825187629839e-01
9.675715431512492160e+02,3.053768751759162114e+02,8.324577857852173111e+02,-2.783767386774964846e-03,-7.124986230417476030e-01,7.016679861606556212e-01
6.136388283052795032e+02,9.210764912261298605e+02,1.269565358361354356e+03,-1.653707091225192771e-02,-1.838312207218605610e-01,-9.828187053437443810e-01
1.708514899981669942e+03,2.929805254847662582e+03,3.171292501957285026e+02,-7.018837175153572194e-02,-8.576354806454437041e-01,-5.094457525673632414e-01
2.966706815813162393e+03,2.332854412874904028e+03,2.645826303912171170e+03,3.020479217541228167e-01,9.069615150465536457e-01,2.935776953184208171e-01
2.603408703671789226e+03,4.606385415871627060e+02,1.638724208560227225e+03,-9.297986905294153281e-01,-2.460045529561527000e-01,-2.737812174248412944e-01
1.525543639197808488e+03,2.439350850091999746e+03,1.448589733230198590e+03,2.287420583758976445e-01,-9.713205630468731977e-01,-6.491097389704436615e-02
2.878759652340221692e+03,1.120136670458569824e+03,2.322154941154485641e+03,6.987871472014656193e-01,2.344625803960962429e-01,6.758134515530460629e-01
3.989287529602200948e+02,5.992604740103781751e+02,4.416886912972420873e+02,3.595229159593465451e-01,9.063083743753377886e-03,9.330922427140535547e-01
2.132623655120306012e+03,1.797583339725169253e+03,1.540483665143107373e+03,5.081982178030318431e-02,1.299845554707463602e-01,9.902127857452107662e-01
1.733230715748213925e+03,7.156810836837300940e+02,2.254041664171124921e+03,9.153579117825226819e-01,3.868721276063681880e-01,1.115788968329651243e-01
2.983407413434507362e+03,2.524246185590093773e+03,2.963235624255872608e+03,7.521690806895623416e-01,-2.121846043398582793e-01,-6.238744807537461856e-01
2.312070452923934681e+03,2.662844633726936650e+02,2.248645571763225234e+03,-8.131193346496128072e-02,4.764740948456969161e-01,8.754203598370120520e-01
1.897674708789568285e+02,1.935127043299981324e+03,2.599985232266511503e+03,9.565631979362482218e-02,9.527072601468739022e-01,2.884419264721698739e-01
1.199154469633508029e+02,1.881995656482046115e+03,2.572204222380761166e+03,1.666060888291475903e-02,-3.979054705431743222e-01,-9.172751280959631215e-01
2.911772647003929251e+03,9.304116692593512425e+02,2.234363367684123205e+03,-9.007705005686977850e-02,1.464015351424888256e-01,-9.851155848736607989e-01
2.212501093121327813e+03,1.492704495368149310e+03,1.636556816234302232e+03,-2.662533205152733395e-01,-2.483076692847774047e-01,-9.313712850893314243e-01
5.844198964855440437e+01,1.375501090747979561e+03,8.206321601751432127e+01,-3.478158296238993419e-01,-7.827768401183128333e-01,5.160276806891543888e-01
8.932823440794265935e+02,1.471060215050572197e+03,1.848640558704653358e+03,-6.263533823518591115e-01,7.764021386496825494e-01,-6.986529550917941478e-02
2.274436299161591251e+03,2.371315938017584131e+02,2.291890706450279595e+03,-8.088716292293859911e-02,4.769302575733043725e-01,8.752112866533083846e-01
6.735921933046893173e+02,3.118644940778640375e+02,2.225943781850140113e+03,-4.578473641330815247e-01,6.179280978962321536e-01,-6.391718524674988577e-01
1.831926312928980224e+03,2.871223432755573981e+02,2.191560071281940623e+02,3.205760408579109710e-01,-4.328297305840207027e-02,9.462333677645766716e-01
1.088502519710659726e+02,1.915513224796180111e+03,2.468224822031638723e+03,-1.777771554657334718e-01,-1.084861880449394522e-01,-9.780726097780217954e-01
2.930148214144754547e+03,2.729214871733641985e+02,1.772607761612015793e+03,4.622803573487063722e-01,4.693200136053798932e-01,7.523533717868209347e-01
1.935543182719824813e+02,1.924990458802787316e+03,2.529402864768679592e+03,8.355031244270911817e-01,4.937625856066431562e-01,2.411079387486257108e-01
3.587088633790625636e+02,9.855854295728476018e+02,2.909456205342854446e+03,-6.087111102564526227e-02,-6.359965835814642698e-01,7.692873673180972149e-01
1.459319135490360622e+03,1.211860105146935211e+03,3.622419893503761728e+02,-3.284594002519640368e-03,-6.469037372596226909e-01,7.625645980254863732e-01
5.531792271903332647e+01,1.923044129194638117e+03,2.450431205211777069e+03,-3.684163456065362580e-02,-9.315322256210900598e-01,3.617877922101820354e-01
1.331786923593019765e+03,3.125544286449550668e+02,1.118703470365309840e+03,-2.476322271250460949e-01,3.702684291835363073e-01,-8.953097622828907198e-01
1.641004890294735787e+02,1.960058102884516074e+03,2.584478651694581913e+03,-3.298337694235300467e-03,-3.112467180659823640e-01,9.503234194007900149e-01
1.188403982168393895e+03,2.110178667854658670e+03,3.463432296894787896e+02,4.680152543301867828e-03,9.820329602286520521e-01,-1.886514277622148572e-01
2.033155887386368704e+03,1.484625727411070102e+03,1.329102388945023904e+03,6.134780015864924226e-03,8.989851760224661925e-01,-4.379360886773461803e-01
2.299012289065762616e+03,7.539907320795448413e+02,1.905520543583326116e+03,-5.678626023605917172e-01,5.472543716806371750e-01,6.148534114052612853e-01
1.145930709873482556e+03,9.154075421188869086e+02,6.152083552822649608e+02,-2.485292114221588078e-01,9.538483973398267368e-01,-1.685421785848395804e-01
6.636830544075382932e+02,7.570203784986364326e+02,1.187296158372122591e+03,-3.902175883842523563e-01,-8.703260177225541350e-01,-3.004377749065165748e-01
6.309230696916138186e+02,2.991892022893129251e+03,2.081970011324697225e+03,-6.954774559610852336e-01,-4.674537492268639460e-01,5.457088056680460264e-01
2.609528003851210997e+03,8.299624701927431261e+02,1.092376579715670232e+03,6.667304563007234175e-02,-4.268885047369484487e-01,-9.018430625723429239e-01
1.933731121201902397e+03,2.585731435815341683e+03,6.465937301440566216e+02,1.722005328362519738e-01,-9.682773128941088991e-01,-1.810691078717596991e-01
1.940621864786430024e+03,1.503175597044488541e+03,1.283821025515128440e+03,-1.389599688516311889e-02,7.633733134727005432e-01,-6.458080872428570984e-01
2.798877184729671626e+03,1.334192193353261473e+03,1.823724436917003914e+03,-5.675643754084666037e-01,8.109744387861437254e-01,1.420955291439414403e-01
2.233612747570876309e+03,2.499751861615979124e+03,4.498798103070676007e+02,7.255024500070667015e-01,-6.873312261457474870e-01,3.495683908374958709e-02
2.971644646960921818e+03,2.668772822235174772e+03,1.536859594000654170e+03,4.720786226261985963e-01,1.193420346458843456e-01,-8.734410414137474543e-01
2.787337060626043694e+03,1.515321863023868218e+03,2.263978664243993535e+03,9.818688700259249336e-01,1.575353365213109369e-01,1.054331059066875437e-01
1.097305075642783777e+03,1.988915855386745989e+03,2.145667214220261940e+03,7.131245405145761884e-01,-7.009128880532234929e-01,1.321033976716412539e-02
2.400425086341909719e+03,2.168319368913459584e+03,2.036086492601097461e+03,3.323376475683476050e-01,-6.354364609484970394e-01,6.969735949847641887e-01
5.739892645132419347e+01,1.930631160456034195e+03,2.428338615454835690e+03,1.771039299831901268e-02,-9.134423080729500155e-01,4.065826998314205354e-01
2.219659605921124239e+03,1.749919059578366387e+03,7.528414157540032647e+02,-5.554463408459614504e-01,-7.993510700635817479e-01,2.291663789237834703e-01
1.807552215922996538e+03,1.589193513923868750e+03,1.576794784247041662e+03,-6.158150239165122164e-01,5.272004318827853142e-01,-5.855181986422883789e-01
1.425613082268217795e+02,1.924409907692125671e+03,2.531547517841535864e+03,1.084336834216001379e-03,9.718058647380208859e-01,-2.357799513835249772e-01
1.842665512586702334e+03,1.711751883087121541e+03,2.674976286188873473e+02,7.216051535438448017e-01,3.402829008444497455e-02,6.914680598935089018e-01
2.928635123770965038e+03,2.701104973340484776e+03,1.543411019597511086e+03,1.081420520800657065e-02,-9.878003848066116976e-01,-1.553494536251381897e-01
5.680599874122625579e+02,2.407449983198456266e+03,2.283535337733255346e+03,8.480827675180938607e-01,-1.541652202644897274e-01,5.069405332972025668e-01
6.387305377377723516e+02,3.137545552056923839e+02,2.297061742366549879e+03,1.870042223191321459e-05,-8.097982823267250163e-01,5.867083957052088294e-01
2.828493018728568131e+03,1.492607657045984524e+03,1.679740920437960312e+03,-1.707052033907081323e-01,-1.814863149301336742e-01,9.684639647547126362e-01
2.719396882973947868e+03,2.077775275032591253e+03,4.764917435538606014e+02,4.845031886902469859e-02,-9.930769527040234079e-01,1.070080960001666970e-01
2.732627472824482538e+03,1.338935869755157455e+03,2.330179851263536420e+03,3.649283345987364702e-01,1.016717081111105508e-01,9.254675436646937481e-01
2.660814428774996486e+03,1.876647285172504667e+02,2.124711289088695139e+03,-5.772826041417667906e-03,-3.121421205564912094e-01,9.500178793338536209e-01
2.673276394761415304e+03,1.623259671390449512e+03,3.042897731859931696e+02,4.817040034414058480e-01,-7.999246530857877513e-01,-3.578851805455267598e-01
3.142387442487024032e+02,1.308689101985900606e+03,7.345098401176715015e+02,-8.850665696366682988e-01,-4.584060217899929013e-01,-8.075324450604605409e-02
1.177346631754159716e+03,5.586236168177548507e+02,1.407346679710150738e+03,-4.917592033536789531e-01,-8.035105171444826277e-01,3.354753862135957387e-01
1.708006087089148878e+03,6.960097647808879628e+02,2.209636293730711259e+03,-8.550920347678029332e-01,-5.078908903323170465e-01,-1.042326992555838022e-01
8.791194937716282993e+02,2.207342306141576501e+03,6.063677123190449265e+02,5.579842134937986753e-01,3.337762032400645729e-01,7.597677695469544634e-01
2.371907059686744560e+03,1.871193559247451049e+03,7.976161460600484361e+02,-1.027126743894375173e-02,3.225971070957234232e-02,-9.994267417525570796e-01
6.419676811458788279e+01,1.978923384693256594e+03,2.534760319410299417e+03,4.180302610941191710e-01,-7.440034705278041338e-01,5.212576490107030391e-01
1.593665549898219979e+03,2.295118944044926593e+03,2.266562891015184960e+03,-7.024387514876893057e-01,4.914867934465627086e-01,5.148014493725052709e-01
1.808769272502933745e+03,1.533603099070911185e+03,1.865137357745989448e+03,6.816650708986247142e-01,-7.952350737232390110e-02,7.273298721295426983e-01
2.931622740274444254e+02,3.922639324309373876e+01,5.133301891684228622e+02,-2.893462046882384064e-01,-2.946680895934484790e-01,9.107411766291559907e-01
1.126812008061191364e+03,2.102571717642436397e+03,2.607446919833480479e+02,1.059807253269442334e-02,9.656397011837214439e-01,-2.596683430000759629e-01
2.250727809400600563e+03,1.121455601650119888e+03,2.165983315727854006e+03,7.173052743803738363e-01,-6.581527737815078272e-01,-2.287095750286902707e-01
3.640956262345304140e+02,1.701443318492038657e+02,2.717016963447119451e+03,1.645881377140738511e-01,-9.813251655927542894e-01,9.955734175924102480e-02
1.677660657015913102e+03,1.240533016735154661e+03,8.510755629011879364e+01,-1.614571414490407752e-01,-4.096232100633637740e-01,-8.978532270101220458e-01
2.152346221616283401e+03,2.798929933230199822e+03,2.038206359527637460e+03,3.613153891253132605e-02,-8.768351993655247867e-01,4.794314810788218306e-01
2.610300984531553325e+01,4.733166918969988615e+02,2.707395450311706099e+03,5.462438534983394406e-03,5.161505944109211208e-02,-9.986521153054972455e-01
1.754518964770466710e+03,2.372988993789594588e+03,2.444030333939395405e+03,4.556154030780001363e-01,-4.394004590170376701e-01,7.741717129252967400e-01
5.293938544284120553e+02,6.863746239283730119e+02,2.150351776049123202e+02,9.058194884622381426e-01,3.935097602256121263e-01,-1.569749117827130558e-01
1.037419609072454932e+03,2.443730973921007262e+03,2.020122766693860967e+02,-4.318115842402694970e-01,-6.628644025867488354e-01,-6.116776434521873362e-01
6.221478250339401717e-01,1.905229581936488103e+03,2.446067129397328699e+03,-2.664954149642968506e-01,-4.332512918236857691e-01,-8.609724222854729936e-01
1.385821369484281377e+03,1.196420575822864748e+03,3.943471627619827018e+02,1.162420703545150383e-02,8.062152795964455665e-01,-5.915080732805106933e-01
8.948064949773826129e+02,1.337420294447409560e+03,2.849950231176040916e+02,3.116252773246666954e-02,1.133069417016327740e-01,-9.930712128682143147e-01
2.323697295485984796e+03,2.574908919885006071e+03,1.729967538578204767e+03,-2.459332673643130351e-02,8.943190893990193846e-01,-4.467533263631554008e-01
1.792757821775801176e+03,9.104472188638162606e+02,2.721712557672246930e+03,7.039053118864476710e-01,-4.635112187402237738e-01,-5.382143271968847786e-01
2.265390168919998814e+03,1.480058809369449818e+03,2.883332929117221738e+03,5.186846907762523440e-01,-4.313243041060664251e-01,-7.381907180680079561e-01
7.078176368103436289e+02,3.711818883030413190e+02,2.280959722787195005e+03,-1.092428683730707790e-03,-4.688037162922081280e-01,-8.833016937548494596e-01
1.781799667712662767e+03,1.012681150516514094e+03,5.154786706222432713e+02,5.145507345559939723e-03,-6.491183943045814031e-01,7.606699901597268054e-01
1.949318243100531845e+03,5.886404056252909811e+01,1.976917333893165505e+03,-9.907512835552449992e-01,-9.741306320885208259e-02,9.445945823422308152e-02
6.921832542670950943e+02,2.742649205965122292e+03,9.404635434048669822e+02,9.792688177664941040e-01,-1.759252056220830807e-01,-1.004136672821029919e-01
1.616997178710386834e+03,1.453375849575189250e+03,1.447797538086415443e+03,1.669919259406939249e-03,-1.048837032865032187e-01,9.944830919400167168e-01
1.553367926293237588e+03,2.290481427136553521e+03,2.229472023392367191e+03,-5.806498213439383882e-01,3.340515151882160194e-01,7.424657367001588071e-01
3.187623445158031359e+02,7.595919469055882018e+02,2.582785624424348498e+03,1.538322076030946423e-02,-9.339117874913928086e-01,-3.571724089339363695e-01
1.060617243848764701e+02,1.965954110875348988e+03,2.491835658364685969e+03,-2.772080340398469078e-03,-9.999811110969192285e-01,5.485710524394328720e-03
7.549917257468022171e+02,1.041744893044847004e+03,1.539400476602976369e+03,3.422602627086035465e-01,6.465347456023482486e-01,-6.817996298763622232e-01
8.510520363865646232e+01,1.890873537531515240e+03,2.567689431165658789e+03,-1.041202609688760411e-01,8.406468343314069669e-01,-5.314808286141253779e-01
4.390933712198485068e+02,3.243895080682968057e+01,1.215550155223834054e+03,-7.278035566440308468e-01,-2.512440639888833260e-01,-6.381053230044777536e-01
9.010968646277401604e+02,8.735788556468060406e+00,1.068204934881041027e+03,-5.324412228401140812e-01,-1.282143297111589253e-01,8.367003226228864055e-01
2.910080228090861965e+03,1.105217050668736192e+03,1.625631378124032381e+03,9.503770280173019780e-02,5.872935263365929304e-01,-8.037749367635815823e-01
1.016441965135131568e+03,1.684944216266284684e+03,2.235913813894507257e+03,5.872409764338654137e-01,3.138382870901666455e-01,-7.460921961482446241e-01
2.471230279926916410e+03,2.282384494625614934e+03,2.174588784413894587e+02,-7.825951122354312117e-01,-1.483945794305365218e-01,6.045857582682933051e-01
1.080202812118151314e+02,1.898036494097684454e+03,2.503400596500819574e+03,-1.346022487230397469e-01,7.140894476892594156e-01,-6.869923546427205707e-01
1.874355904825825746e+03,1.669735788339868805e+03,2.450037955527748181e+02,5.156400769074544199e-02,9.986696178831172555e-01,3.839636145233416334e-04
7.019434100560081333e+02,2.638605636471847902e+03,2.311153104727067785e+03,6.149949698967664968e-01,-7.777779477965172106e-01,1.297792391837517822e-01
2.747723543801366304e+03,1.301981858241013924e+03,1.817476976465192138e+03,-1.006275589739187432e-01,3.136358149253806182e-01,-9.441963090221455746e-01
1.027011198791780657e+02,1.887282384578013307e+03,2.522814477811190045e+03,4.265515565993708604e-03,-9.910156372354641530e-01,1.336780166360322930e-01
1.016047824522009648e+02,1.939235597299833898e+03,2.503846297555545334e+03,1.110910685867698899e-03,-3.855279922517029223e-01,-9.226954714681431247e-01
1.890883685613301623e+03,2.799508159366380369e+03,8.264505655811361748e+02,-9.461501711648446777e-01,2.554606128858525338e-01,-1.988459928404890942e-01
5.501933376780912113e+02,8.697764042605277268e+01,1.071080886766076901e+03,1.956511827424712302e-01,1.338056497213687968e-01,9.715022711214392759e-01
2.498599794520823707e+03,8.789226479715109690e+02,2.719070482273975358e+03,-5.381706459444217661e-01,3.314427484231290411e-01,-7.749310036135386159e-01
2.242957286667800417e+03,1.547963405969915584e+03,2.210227083968815805e+03,-1.340497595450248006e-02,-9.822443550434565296e-01,1.871265176422720888e-01
2.012111698214101580e+03,9.462528388154937602e+02,2.260012073036128186e+03,2.321446581158081446e-01,-9.392807266160732027e-01,-2.527064983649531804e-01
7.149888503211010971e+01,1.241488928930980364e+03,1.262622647472099288e+03,-2.844290866304246546e-01,9.586928809276945573e-01,2.838086880249779832e-03
3.337437737328403387e+02,2.460970740970251882e+03,1.977957654520722826e+03,5.147440938199503158e-02,-2.273920575418184042e-01,-9.724418940716577087e-01
2.313666643902151009e+03,2.102089126405554907e+03,2.684102230167028665e+03,-3.308709585995352476e-01,8.479158404954956207e-02,-9.398589234719181285e-01
3.887472715173180404e+02,2.188925216637451285e+03,2.267439434113310654e+03,4.194051481283509464e-01,-8.306575189518378144e-01,3.662067830232167975e-01
2.837252222684798653e+03,1.061132058518231133e+03,2.017560540748318090e+03,-6.583241704175820663e-01,2.424269250103685824e-01,7.126278640875751691e-01
7.182424481870625641e+02,2.745659996980941742e+03,2.058317148531465591e+03,4.926462568729856883e-01,8.625606256231743707e-01,1.152771994524248722e-01
6.461150159947428051e+01,1.919581686885730960e+03,2.444779946856124752e+03,-1.944479363237602496e-02,-9.998075466579009474e-01,2.601854435475385151e-03
2.022200924344380155e+03,2.331359569264507627e+03,2.901227826102416202e+03,-1.567460553970876358e-01,-2.743808427111921744e-01,9.487601526574296340e-01
2.242407065908803816e+03,4.778769571618583996e+02,1.351141649577780981e+03,3.271009218793802797e-01,3.051727293194878565e-01,-8.943570831526712617e-01
1.240687159808009937e+03,1.872557741479331526e+03,2.306626405300923125e+03,-8.469190970555864340e-01,-5.199910160608746112e-01,1.110737874501879219e-01
3.306292563241586180e+01,1.915303421599499188e+03,2.529193500134218993e+03,3.567988319133484909e-01,4.199211814652566432e-01,8.344823514623260774e-01
8.707083023288967070e+02,1.830825582407299521e+02,1.529848443619679074e+03,-8.612327355668968343e-01,-1.612547257613181767e-02,5.079548644536795443e-01
9.897180453052930034e+02,2.971502235921416741e+03,9.094686749820272098e+02,2.058492566187508366e-01,7.910514499332013116e-01,5.760761122526150135e-01
2.774444195483121348e+03,4.693109598966405116e+01,2.601234695507769175e+03,8.353113254919418695e-01,3.169508204672306095e-01,4.492183955606052770e-01
7.770572495412611715e+02,1.029351065655145476e+03,1.583978966786234878e+03,-1.295146324463529175e-01,-6.822964801759797693e-01,7.195119687133459951e-01
5.944089382142477263e+01,1.991045974615140494e+03,2.604007682505631692e+03,-4.534443457452645709e-02,-2.561042716037051359e-01,-9.655850476884219047e-01
6.451647554489352387e+02,8.863804959163012427e+02,1.279141686021051555e+03,3.859788964198186401e-01,8.759800745174950443e-02,-9.183391969250915832e-01
1.911994753082552961e+03,1.856423071893110773e+03,2.129761850606544158e+03,7.132383891877823734e-01,-6.869444725642253058e-01,1.392777505643871816e-01
1.811096392367684757e+03,1.536673204144088231e+03,1.565916233478007371e+03,5.269069845475519986e-02,-7.855297606955820022e-01,-6.165765851521542995e-01
2.175601028601315079e+02,9.821871303890114859e+02,2.260578840351409326e+03,-9.616308119210984495e-01,-2.531131986657624844e-01,-1.058295338039214606e-01
1.622354983780500788e+03,1.067282603966957140e+03,1.918029593653692245e+03,-7.521468971528973146e-02,-3.642606123764593473e-01,-9.282547908425572425e-01
7.810242524877567121e+02,2.322110739340370856e+03,2.033604339494130727e+03,1.986839792934867385e-02,-2.825029158244987595e-03,-9.997986127085675134e-01
1.292413780311343316e+03,6.480226371691630902e+02,4.317225713229964299e+02,5.797387427898909734e-02,-4.685207286894494394e-01,8.815482724669088110e-01
1.090201964377090235e+03,2.431938472959396677e+03,2.297508995634381677e+02,7.244442017782732890e-01,-5.293538911954134285e-01,-4.415484756922105625e-01
1.658746728918038116e+03,1.730406718047959203e+02,2.299763122554591519e+03,-9.302970653838402715e-01,1.577519770770312857e-01,-3.311520555069868976e-01
5.038413749828320078e+02,2.239108122311753959e+03,1.368590584663651498e+03,6.388737591243854874e-01,7.688755982661648058e-01,-2.589660775321567243e-02
1.400670686988736634e+03,1.007707716183176444e+03,0.000000000000000000e+00,1.049879415981481851e-01,2.510171137440035949e-01,-9.622722799325634790e-01
3.292123324107163285e+02,2.309114170654042482e+03,1.633677821110898321e+03,8.123342229697403383e-01,1.717522648003169949e-01,5.573277937875609211e-01
1.924012946710516417e+03,2.779952532178495403e+03,7.863450005682127539e+02,1.139308490470229557e-01,2.451339041756004505e-02,-9.931862138217891767e-01
1.291142023653898377e+03,2.425781773803860688e+03,1.249832591052537964e+03,-5.641454985107017261e-01,5.939354263099452247e-01,5.735682748236128337e-01
2.229358245475698368e+03,8.988213320965687103e+01,2.107039901186425936e+02,4.044367340675804057e-01,-7.981836521892893277e-01,-4.464681237384331425e-01
1.145723425606773162e+03,3.331203583971550870e+02,7.256859793145683852e+02,-5.820669247058719575e-01,-5.835208050107998368e-01,5.663051874060460733e-01
3.957127118000926203e+02,2.805745265388568896e+03,1.866347532250173117e+03,-5.443788046153230642e-01,-6.640123188988387160e-01,-5.125810740128617926e-01
1.768063341732410436e+03,8.614112734833330478e+02,2.695278399925911799e+03,9.062113398255679242e-02,-8.111018166660857176e-01,5.778422389170688733e-01
2.571023270531735307e+03,1.854134115229415329e+03,8.518669897284642047e+02,-8.446392721660737068e-01,3.357570007299717774e-01,4.169553170012095245e-01
2.552316197946176544e+03,2.822826756454110637e+03,5.890732103999424680e+02,-6.219287824526921193e-01,-2.051905808737826409e-01,-7.557125214508435551e-01
2.684272169305218995e+03,2.611399587021327989e+03,1.697428398358939887e+02,-9.092498783892536407e-01,-2.087118283296556520e-01,3.601444590222371289e-01
8.654871349368534084e+02,4.485709337287347154e+01,1.096333754937793628e+03,-5.949263063702774357e-01,-1.217485722279951360e-01,7.945061202716210413e-01
1.904600656019520557e+03,2.478771622618734909e+03,2.417753792187485033e+03,6.877662342073237456e-02,-6.758320419961849623e-01,-7.338397829786210691e-01
5.114790688655223221e+02,2.611287600845692396e+03,1.695438408431430162e+03,3.669548118119281832e-01,5.926665497375685487e-02,9.283488728362274678e-01
2.992666359484312125e+03,2.700523450354417946e+03,1.571937592921712394e+03,-4.562400702618085724e-01,-1.204656974879481507e-01,8.816649102784130942e-01
1.271944778032426029e+03,2.965853349667599105e+03,2.444064593122132464e+03,9.603148750534590272e-01,8.826981647989812219e-03,2.787784517247443028e-01
3.305126743598445387e+02,2.297449062458701974e+02,2.928264081130836075e+03,-7.621299614837272474e-01,-3.598166177061041804e-01,5.382285048484070078e-01
9.627055875783062220e+02,9.081546072704570634e+02,8.130167747520883950e+02,9.313063651464818793e-02,8.440498509238985037e-01,5.281160229511325799e-01
2.498127528146181248e+03,2.486402591225274136e+03,2.313267840263241055e+02,9.466778437420583225e-01,-2.400954929461726062e-01,-2.148376466888928527e-01
2.665342518059427675e+03,2.165477843448512886e+03,2.594064807926532922e+03,3.011072390931240905e-01,-3.929115965820472733e-01,-8.688814118376930740e-01
2.084458761751207021e+03,2.148931201296659310e+03,1.908963215061304936e+03,3.887223004531945580e-01,2.480516010267597993e-01,8.873361123939662587e-01
1.267550269039377326e+02,2.031279076080319555e+03,2.532621944403611451e+03,-1.432335255748402592e-01,-4.978912118464592224e-02,-9.884357341593141832e-01
2.437355619964138896e+03,9.319639631753462936e+02,1.185215647254040050e+03,-1.290465975632988926e-01,-9.864680182089748950e-01,1.011327083993778381e-01
2.469186015976371436e+03,2.809855226661205052e+03,7.645122265762518055e+02,3.854103909085113688e-01,-7.930288098285476206e-01,-4.717670371715956268e-01
