x,y,z,nx,ny,nz
1.593585080875335052e+03,1.561711414153703799e+03,1.501030966027019076e+03,2.808837062765714076e-04,9.832740375846628078e-01,-1.821320622962870617e-01
1.551901965016401846e+03,1.417467246824909125e+03,1.559668257778560928e+03,-2.845384491810379890e-01,1.340175134417055935e-01,9.492508504228754918e-01
1.529145410963473523e+03,1.580250518304694651e+03,1.553112759100941275e+03,-1.690228061197767417e-01,-9.814933398179820356e-01,9.001174870170859654e-02
1.619407876614370707e+03,1.582988199940419236e+03,1.399760678622099249e+03,2.236760922658176942e-01,-1.967479584016068594e-02,-9.744649342882182319e-01
1.559707069264343772e+03,1.484903216836204592e+03,1.687900527199924454e+03,-2.170048148104780916e-01,-9.732412763460402960e-01,7.556671466592046471e-02
1.532391024662956397e+03,1.512010742543406877e+03,1.559789253740890672e+03,-1.493385643671659747e-02,7.980400001621245146e-03,9.998566362972952648e-01
1.670446232968091635e+03,1.440687636780082812e+03,1.486042588224999918e+03,-3.801949800775745320e-02,7.032744467672473743e-01,-7.099010989535515792e-01
1.392882413654259835e+03,1.448660120529878441e+03,1.543236128884186428e+03,1.171179421244488729e-04,-1.408295144096544660e-01,9.900338550547291838e-01
1.414236418465627366e+03,1.612478409221258062e+03,1.598762666486715034e+03,8.575973736424548355e-02,-9.942107408966439630e-01,-6.473229590368390074e-02
1.644433600049161669e+03,1.540901348203809448e+03,1.492474917074765926e+03,3.916044182421219433e-01,4.324302355559350164e-01,-8.121884454917391860e-01
1.577199886046070560e+03,1.512585230781246992e+03,1.534440496247898409e+03,-6.076695935378050029e-02,-2.787581844754620161e-02,-9.977626548417091179e-01
1.459186167973311740e+03,1.597530477749096008e+03,1.518355279682114542e+03,-1.770761622067001384e-01,-9.438523168356591775e-01,2.789029164101818337e-01
1.515644273441252381e+03,1.604328031953053369e+03,1.592706407944714101e+03,-8.058709506485814891e-06,-9.525705962236503677e-01,3.043176944332625089e-01
1.615677206440813052e+03,1.564790011966372276e+03,1.608000844149975592e+03,8.466885409018146125e-02,-9.934191570731659704e-01,7.713341368755916028e-02
1.475122610256662028e+03,1.526694467417551778e+03,1.487132674215962425e+03,8.175622658807221721e-02,-6.664507943823774205e-01,7.410528038413848329e-01
1.522697331659901920e+03,1.615107360550026215e+03,1.597227885699095850e+03,-5.395600573866387098e-03,5.994763940079932824e-02,9.981869404198390194e-01
1.457525523669261474e+03,1.574149114101302303e+03,1.584469148097045718e+03,-1.868968082780674694e-02,1.211582473280146260e-02,9.997519205390899000e-01
1.603262656347503480e+03,1.543222691864037870e+03,1.596334899781113791e+03,-1.563401451049602486e-01,7.491196883469775081e-01,-6.437215636899911164e-01
1.531891526676993180e+03,1.603551337291263735e+03,1.478130042115968990e+03,-1.777994360855230434e-03,8.769093518284252209e-01,-4.806525017222983420e-01
1.601714824468706638e+03,1.510274696920005681e+03,1.545287124737266595e+03,-6.290271646097085334e-01,5.332090217351854733e-01,-5.656968846681738050e-01
1.497834566172925634e+03,1.617510155613897950e+03,1.534264197875504351e+03,5.601977248784173469e-02,7.035089353646891697e-01,-7.084750969176348834e-01
1.479367426499654812e+03,1.619928166711508538e+03,1.605205994775811860e+03,-1.455067880085658405e-01,9.779948460202003702e-01,-1.495120590499472712e-01
1.455572118839579844e+03,1.576149143507839199e+03,1.512273856069461317e+03,4.594317312851555618e-02,-9.981795938075841423e-01,3.907330737229376683e-02
1.649490541713817265e+03,1.461822584336843420e+03,1.551714239770735730e+03,2.009426050987514131e-02,8.055882879719082901e-01,-5.921348925515631523e-01
1.710070630122461580e+03,1.505333963743621325e+03,1.579904480698771749e+03,2.280371037014048557e-02,-6.486068745853760253e-01,-7.607819089817692282e-01
1.589899056979515535e+03,1.431650678971013576e+03,1.472528525622218012e+03,1.109248240492432674e-01,5.492723987572323968e-02,9.923097710540188521e-01
1.545448031364609506e+03,1.531420747109997137e+03,1.532915304046098072e+03,1.434759716397908669e-01,3.582240541366901732e-01,-9.225454853826403623e-01
1.683594201112768587e+03,1.489217128798850808e+03,1.602887495021857603e+03,2.897468160217440126e-05,9.992952278962894397e-01,3.753727033457278373e-02
1.455212157661124820e+03,1.594830997115583386e+03,1.538981863160515559e+03,5.146710790738912022e-01,8.524113929229835129e-01,-9.224151765889043730e-02
1.592656977135930674e+03,1.582688371806917303e+03,1.533253982012891129e+03,3.533136579768332564e-02,-8.403478867366209748e-01,5.408947437793841795e-01
1.491811297083414729e+03,1.577941287197972770e+03,1.478088844242877485e+03,1.218827260463565404e-02,9.999191630116314178e-01,3.621250203125164161e-03
1.482538885069670187e+03,1.525858703879452150e+03,1.567857522653885553e+03,-7.011933439542614166e-02,-1.394519418584364012e-01,-9.877431016493376514e-01
1.353621399196339098e+03,1.645674475459113182e+03,1.649373945513567151e+03,-1.453850879978462244e-04,9.572073996495021886e-01,2.894027866476314714e-01
1.545310105689361990e+03,1.639123678552361753e+03,1.360534412886785049e+03,3.395289718977899107e-01,-9.405814291049212628e-01,-5.162602538812142983e-03
1.594155045182843651e+03,1.505027685426265407e+03,1.605284842903109393e+03,-1.679058487081689643e-01,7.895481855806530946e-01,5.902722156902594497e-01
1.430635365870989745e+03,1.478410604427329417e+03,1.466486968603625883e+03,8.070198255071077756e-03,3.003324181370636281e-01,9.538004563408783998e-01
1.576511489555519120e+03,1.413586521561468544e+03,1.475606676410195860e+03,4.751027858269166876e-02,-9.700612393193577265e-01,2.381679352876597267e-01
1.500974427043961896e+03,1.503336906852663560e+03,1.493133287449777981e+03,-2.342356897534386955e-03,9.211641417689947486e-01,3.891672356239100350e-01
1.558889793113411315e+03,1.503678584745709259e+03,1.594809580994637145e+03,1.292802816883562578e-01,1.526473527879895070e-02,9.914905933106210600e-01
1.476786223131279712e+03,1.646602522253866027e+03,1.576803477745155533e+03,1.201976289927169416e-06,4.429919021869602180e-01,8.965256129053614798e-01
1.430368101892431923e+03,1.516510063094428233e+03,1.471064589923859330e+03,1.291087891563436063e-01,-9.607522353596773534e-01,2.455322032116479258e-01
1.612092612109653828e+03,1.447834940329272513e+03,1.521219117928709693e+03,-2.317003129346089166e-03,-9.462468763821161311e-01,3.234369806215529053e-01
1.539817672675259701e+03,1.485858839509490736e+03,1.585302194422349885e+03,9.930048442859348290e-01,-9.683327990950152050e-03,-1.176758785124891876e-01
1.488152737978070490e+03,1.514516316261942166e+03,1.540729742430693022e+03,-7.489845921143126195e-02,4.691155169237755107e-01,8.799550287310667906e-01
1.407597134918029269e+03,1.541598302483312182e+03,1.569887302102470358e+03,-9.112409886580552162e-03,4.062976382243299600e-01,9.136953502997542387e-01
1.336075557917488140e+03,1.684576706519827212e+03,1.671465164834510688e+03,-4.148063074238002014e-05,5.504795504036260612e-01,-8.348486466820073115e-01
1.690818456340552984e+03,1.455779783025524694e+03,1.585663782299116065e+03,-8.998763003971301053e-04,-6.277367560711040184e-01,-7.784251764299323639e-01
1.447534905207553948e+03,1.501991381547333276e+03,1.428805445969747552e+03,-3.780213148610236788e-04,-7.867036785884374828e-01,6.173306886874376787e-01
1.630507770863265705e+03,1.588999137406238333e+03,1.635388436429503827e+03,1.899416231288001897e-03,2.055902759074143826e-01,9.786363117472668405e-01
1.584323626062709081e+03,1.458887940558312948e+03,1.662056106780838945e+03,-5.263869351490224960e-03,-1.543889380885913598e-01,-9.879961272572517217e-01
1.600861147832898496e+03,1.508479749258769743e+03,1.467733780982701091e+03,-5.083386232321044848e-03,-9.998241750199756694e-01,1.804932768936496484e-02
1.527138162595869744e+03,1.609189385148166821e+03,1.453611532986568818e+03,9.723421350538173408e-05,9.975167190234887071e-01,-7.043000648957969956e-02
1.468542399744778095e+03,1.587671566187298367e+03,1.568444209524182725e+03,8.749845454955055261e-07,4.059451590902044549e-01,9.138974383433093873e-01
1.457828234984728624e+03,1.692567792302522321e+03,1.533523531163825965e+03,-9.371102689758055437e-02,8.881346793445283883e-01,4.499278106356537910e-01
1.515416271374204598e+03,1.555635824831940454e+03,1.584675439460424286e+03,-4.458218473179590899e-03,-9.904355847633136145e-01,1.379038676854220657e-01
1.560071086310293367e+03,1.404821151270481550e+03,1.498037251551013469e+03,-5.546766236038809250e-01,1.163195283952421083e-01,8.238953881053753259e-01
1.532979758741054866e+03,1.492915304444894446e+03,1.575091741155971476e+03,-8.027856972456770546e-02,5.973441531315110131e-01,-7.979569624751547963e-01
1.546167352573607559e+03,1.567885925527728887e+03,1.517479083168619809e+03,-6.663836664243678876e-02,6.090235452580197162e-01,-7.903478028137871370e-01
1.488214015795754221e+03,1.590370091791758341e+03,1.512059604201772800e+03,2.457057470769235807e-01,6.830150565704270482e-01,-6.878365491535523013e-01
1.603083969188386163e+03,1.609883427699120148e+03,1.640057601727304245e+03,-2.599230503881387686e-03,-3.725236223642283129e-01,-9.280190702681824222e-01
1.541145324137732814e+03,1.501482865775418304e+03,1.454294094676866735e+03,-4.329895416715060300e-03,-2.061645727483130686e-01,-9.785077521150181701e-01
1.512458042127897443e+03,1.631586132367941218e+03,1.473903217787306858e+03,-8.061635140941733049e-04,-7.118265550718267942e-01,-7.023548288400700557e-01
1.477474378789634102e+03,1.642951001062384876e+03,1.483415687810588906e+03,5.339908562359343101e-03,-6.392985061603144725e-01,-7.689401182132039603e-01
1.585182033353436282e+03,1.630077787133574020e+03,1.492672035671128924e+03,1.407303536293435242e-01,-8.681836891409898671e-01,4.758697820590221395e-01
1.479632853817466639e+03,1.519094780713806131e+03,1.514079115549822063e+03,-1.810230500451221261e-02,4.245004643995182736e-01,9.052467411032845135e-01
1.575215861870133494e+03,1.596281964885858997e+03,1.549481510077061330e+03,5.072014124260701418e-02,2.132136539949363863e-01,9.756881699715630463e-01
1.539540180128464499e+03,1.595109746509115439e+03,1.666205872392761421e+03,-5.679384244382474321e-03,-7.341865437675390016e-01,6.789240484364066353e-01
1.472612517755275576e+03,1.621595036002047664e+03,1.559428867028145078e+03,-2.752618075978979317e-05,-2.113905859317648794e-01,-9.774016673925487453e-01
1.493411755388033725e+03,1.532820147785886093e+03,1.459325629417951177e+03,-9.604494787946903783e-03,4.244038908392051557e-01,9.054220513773740819e-01
1.534850806137971176e+03,1.584176395289505535e+03,1.510285788750352594e+03,-1.228223652427838826e-02,5.545899138563131769e-01,8.320331568602352679e-01
1.523809356513397688e+03,1.641551943796382830e+03,1.461208308316809962e+03,-6.141320307034253516e-04,9.913594122385153140e-01,-1.311721716217063571e-01
1.510236455969203689e+03,1.588167609176627820e+03,1.426302651439755891e+03,-1.062836002507737930e-02,4.477971682238258144e-01,8.940719960349390316e-01
1.530101536462133481e+03,1.415139954441609916e+03,1.631469557458675808e+03,-2.423526037521544704e-02,-7.239674689059405477e-01,-6.894082651959371200e-01
1.453805933663521046e+03,1.495981004983637149e+03,1.565103817730596575e+03,-4.009660438712027153e-01,1.096502655310178237e-01,9.095070373181584067e-01
1.480299006334255182e+03,1.495548001822844981e+03,1.509054416602228457e+03,-5.610912613785171699e-01,-8.242948240898470003e-01,7.559523386664457334e-02
1.583418555541595197e+03,1.542724674704388462e+03,1.495705762677613393e+03,1.948630193507569497e-02,-8.600739986329740683e-01,-5.097970193247329806e-01
1.601194321365406722e+03,1.404926974979053512e+03,1.560562757251719631e+03,-8.384965188759676558e-01,3.913223915903889516e-01,-3.791970116876745012e-01
1.653211607763455504e+03,1.404760448595822709e+03,1.570184369010412411e+03,9.513887228394463449e-04,-4.777692279376269391e-01,-8.784848659455563036e-01
1.558443225048068598e+03,1.509856517987539291e+03,1.484466349574136984e+03,3.164005507927041827e-01,2.649267636383697416e-02,9.482556773134314110e-01
1.597362168970457560e+03,1.479946301348631323e+03,1.564730677810689940e+03,-2.634543671961545909e-03,-4.789669070440890075e-01,-8.778290044970373796e-01
1.606236412301307837e+03,1.446308479098684529e+03,1.456753153536037871e+03,-1.595401591258739302e-02,-9.979607061914248511e-01,-6.180532561336157110e-02
1.598915179944324336e+03,1.601671379214425770e+03,1.528083332121882677e+03,-5.234113314385497109e-03,8.921078209432734551e-01,-4.517922529987167257e-01
1.607189532512767528e+03,1.515201073792598436e+03,1.482594053536204456e+03,1.315361838665693173e-01,6.920701009694077976e-01,7.097444664652298174e-01
1.478277900753412951e+03,1.560796341136870069e+03,1.562661536330382205e+03,-5.252370757247289135e-02,-9.972856899133368813e-01,5.159954299139723338e-02
1.612578317512710328e+03,1.593416219535599339e+03,1.512089122448512171e+03,-1.363857099460033312e-03,4.890444994619027042e-01,8.722577700656322097e-01
1.508895873314744449e+03,1.541599537512531242e+03,1.443527463580997164e+03,2.480238818511304558e-05,6.916592580917981792e-01,7.222239750110382994e-01
1.539691754692780250e+03,1.471655048432541207e+03,1.677004592988658715e+03,-2.854669236308833829e-03,-8.423237240387727587e-01,-5.389643724635281297e-01
1.433100021370141349e+03,1.558189834719409419e+03,1.570638538950047632e+03,-8.645060423935317928e-01,-1.071825746319034489e-01,-4.910612979663022681e-01
1.501696539202751183e+03,1.531122634429204481e+03,1.413903985243310217e+03,1.120107010629269018e-04,-4.252103152828826116e-02,-9.990955656649533889e-01
1.493336592197983236e+03,1.553897686036756795e+03,1.543704771538331443e+03,-1.166669740088444908e-03,-1.486799874311447722e-01,-9.888846748833719502e-01
1.617410795522277795e+03,1.551903725233695695e+03,1.360347510525826010e+03,2.735925339663177955e-03,-2.057105162048959018e-02,9.997846500860887442e-01
1.627892442841737875e+03,1.535167496854100136e+03,1.659145448403629416e+03,-1.699515293489213263e-01,2.383367423541198349e-01,9.561966716716747694e-01
1.583037721362595221e+03,1.566170719165073479e+03,1.523372637009793152e+03,1.456030666209065538e-04,8.150640654270931984e-01,-5.793708208472412302e-01
1.482786519449667821e+03,1.541216264619081358e+03,1.532901929815729318e+03,-5.768979806712118012e-05,-9.474904557337558986e-01,3.197840411360873825e-01
1.448113495345857245e+03,1.444316568707361284e+03,1.387814088238491649e+03,4.012011074650734255e-02,9.972885502869701657e-01,6.169217276285153539e-02
1.543737194708844754e+03,1.574402673047020244e+03,1.641279244519340637e+03,3.346710555567112308e-04,3.454199519697002951e-02,9.994031911911714916e-01
1.484096055185870455e+03,1.536956942153621185e+03,1.491363557788141179e+03,-2.538846359868555252e-02,-9.848014845684197605e-01,1.718181070432762414e-01
1.362756646967363622e+03,1.493937696025099513e+03,1.574669264205711670e+03,1.725471504010876456e-01,3.041362024450639523e-01,-9.368717368192721606e-01
1.565449928110790779e+03,1.603668692589399825e+03,1.411947885554033746e+03,-8.710938173370391668e-02,4.754399305811518039e-01,8.754249413987251760e-01
1.592605396423470211e+03,1.442745964558582955e+03,1.608219585808335751e+03,3.251467735670138378e-04,-8.120084337309499967e-01,5.836456097919223707e-01
1.619919802675955452e+03,1.440559875071748820e+03,1.561435605959900613e+03,8.138118556092054090e-03,6.353709217466899650e-01,-7.721642071639481797e-01
1.441498340631601195e+03,1.504370502569819791e+03,1.479077572926978519e+03,-1.587972286765578223e-01,-9.565675127100220498e-01,2.444627452034499882e-01
1.469138751093182009e+03,1.449016813089787320e+03,1.389248194771543240e+03,-8.913275335281674316e-02,1.986256116873518496e-01,9.760139438868541406e-01
1.481720843797455245e+03,1.642132069964894526e+03,1.573325317428636254e+03,-6.342673876842945969e-09,9.109307718372942064e-01,-4.125592429214396950e-01
1.632994805092492697e+03,1.502527487219387240e+03,1.533649690824898471e+03,9.926964063599988430e-05,-7.643820051219649692e-01,-6.447636314117466405e-01
1.482542181488295455e+03,1.484428149727919163e+03,1.500757050630475305e+03,6.655256537032253755e-04,9.855500664010409251e-01,-1.693830679038145215e-01
1.610405006611946192e+03,1.596546581734929532e+03,1.632097524455923804e+03,-2.620838448283738156e-03,-9.998639477081191496e-01,1.628549291129521848e-02
1.479565864654676488e+03,1.576760527615005003e+03,1.623809008792672785e+03,2.100751507083796054e-03,-1.447407363508733114e-01,9.894673850530458781e-01
1.451061597956300147e+03,1.427950664373692462e+03,1.533169452156103034e+03,2.177692449420530379e-05,9.465828808391958393e-01,3.224606165533001056e-01
1.471416523505285568e+03,1.440313281255412676e+03,1.342374180664082132e+03,1.620898389470016576e-01,-1.967822290885909986e-01,-9.669558616736652068e-01
1.545889059796982338e+03,1.498358458936302895e+03,1.451495489784363144e+03,-6.071326366820120057e-01,-7.058978015649358673e-01,3.648263357014383534e-01
1.439974022964714777e+03,1.638768597055892315e+03,1.477975748886756946e+03,-3.982864337174014946e-02,8.195321625309159863e-01,5.716473683526995808e-01
1.533674255991125165e+03,1.575815623339695776e+03,1.390062330966498621e+03,-1.864563378213521250e-01,-4.399691110383565085e-01,-8.784424940873295506e-01
1.473822189981877955e+03,1.499604537174308689e+03,1.367539036934907699e+03,3.288157342226216848e-06,-9.999132254963005728e-01,1.317351383543147181e-02
1.497066520069706712e+03,1.538770970248113599e+03,1.541484728788241000e+03,1.147116378157779504e-03,9.798478209826416707e-02,9.951872520290695467e-01
1.696957346352889317e+03,1.500369530980790614e+03,1.637556606906010074e+03,-3.704891877544762013e-01,-7.350262698975540410e-01,-5.678680694646570659e-01
1.527846067266369118e+03,1.553252589790607772e+03,1.480573235731655586e+03,1.218014456282124486e-01,-9.616475121221461642e-01,2.457610023420406797e-01
1.586303047689960522e+03,1.632650163707426600e+03,1.548322714942746416e+03,1.643018276809401568e-03,2.965794996712858844e-01,9.550067543560474270e-01
1.481527624844256707e+03,1.610184674184582718e+03,1.613127087976708935e+03,-2.304843759889870503e-01,-3.950155021918090315e-01,-8.892916874980447695e-01
1.599925483424415688e+03,1.487749012680196302e+03,1.567360373820831228e+03,4.151631757713473980e-02,-9.736144992628595896e-01,-2.243907355484303923e-01
1.549105363854976986e+03,1.525439816792354804e+03,1.509036865793323386e+03,2.771553381414222292e-02,2.228931860420828998e-02,9.993673175872609393e-01
1.517934613474151774e+03,1.545187297489950424e+03,1.461347239406382869e+03,7.290655799401164483e-01,6.080381329909635424e-01,-3.142499148376098339e-01
1.560289482019741399e+03,1.561648024437456115e+03,1.527607639534244527e+03,-1.650795617045258679e-01,9.853815297340174917e-01,-4.209488290147842676e-02
1.524608922642461948e+03,1.630740307605029784e+03,1.491415505450441515e+03,1.324311643710417326e-02,3.968218649165720091e-01,9.178001020871414672e-01
1.514573772923802835e+03,1.490443420804835569e+03,1.461314413158300795e+03,1.942729719527357679e-01,-4.163371420975096604e-01,-8.882124725980431457e-01
1.542970609049329141e+03,1.500583961974670274e+03,1.524818128731819797e+03,7.316169562359674423e-03,-2.692638376174027459e-01,-9.630386593561464093e-01
1.545884267752116330e+03,1.549906331593511368e+03,1.528424020011394305e+03,-6.611634598555029456e-04,7.383968019292661555e-01,6.743661659391813057e-01
1.564849033807041678e+03,1.572120964630487833e+03,1.355504094920446732e+03,2.817771933942013474e-02,-8.173643962392920237e-01,5.754315423169001908e-01
1.555326640596524157e+03,1.537902108933334375e+03,1.626515763298056299e+03,-1.127676221617813764e-04,9.718168690208887073e-01,-2.357370576933126016e-01
1.501608089217293582e+03,1.548692842074675582e+03,1.481117886497747577e+03,-6.339166428266208853e-02,6.673444103984464970e-01,-7.420464505739678973e-01
1.454372314217654321e+03,1.538102992813048559e+03,1.483835813934272892e+03,5.860204305958295308e-04,5.209132242445264210e-02,-9.986421534804781341e-01
1.572523600694307561e+03,1.453382916960308648e+03,1.552404177091605789e+03,-9.916122517527020674e-01,7.105672329838208512e-02,1.079633467804375080e-01
1.383533728671038261e+03,1.464310881941760499e+03,1.516264264251472241e+03,1.180699415017852447e-03,-3.028886940021359164e-01,9.530252069040838769e-01
1.609213296687487855e+03,1.675537600504281727e+03,1.461823489043653353e+03,-3.366935238441517986e-01,8.257116818026950522e-01,-4.525899794913408880e-01
1.583938948985516845e+03,1.569618242463298657e+03,1.383202826119511201e+03,-6.238258735307235930e-02,-9.736531352601464073e-01,2.193353254567614041e-01
1.542379856830041717e+03,1.419455733804170677e+03,1.523133630892131805e+03,-6.532367245222597818e-01,3.171207581728893166e-01,-6.875436033236590472e-01
1.546654262656401443e+03,1.467360657460607399e+03,1.613660135257494403e+03,7.353776135090940302e-01,6.100716550513808345e-01,-2.950124425385118321e-01
1.506985367289633587e+03,1.632208179410044295e+03,1.374243582364970052e+03,7.710250967404469469e-02,-2.189387805792190889e-01,9.726875209235741337e-01
1.623891317857661988e+03,1.552458902793960306e+03,1.582353314165425445e+03,-8.485017512756955205e-02,9.796700104208992954e-01,-1.817886642855819357e-01
1.578037648790909770e+03,1.508959314802829340e+03,1.677056369159542555e+03,-1.549384007060652067e-02,-9.996881376886753712e-01,1.958489939761058271e-02
1.510348548647925782e+03,1.568069920340815543e+03,1.522910654277068033e+03,2.187114757220714675e-02,1.919133214757328190e-02,-9.995765831962433179e-01
1.542393461161062532e+03,1.641807917566389051e+03,1.553202467273022648e+03,-8.872814272408019454e-02,-7.018363338935154072e-01,7.067906883339968305e-01
1.600079299917476646e+03,1.678633177324233884e+03,1.509820267294997166e+03,2.734607222067305665e-01,-2.852752144575784743e-01,-9.186061644831020612e-01
1.455398320091070445e+03,1.590390006166223429e+03,1.546370177026571127e+03,-1.078784145939975115e-03,2.951236022343400323e-01,9.554584740474039162e-01
1.585905087977815128e+03,1.557878477013005295e+03,1.411393771007131136e+03,3.881511567111406696e-03,-8.847697846316991965e-01,4.660121909035546683e-01
1.539861414111209115e+03,1.419546607921016857e+03,1.646336055049237302e+03,1.305662469086357454e-04,-4.998765080550554574e-01,8.660966803118109736e-01
1.649751778260105539e+03,1.609394751639129709e+03,1.618750955997473284e+03,2.339677674327053994e-02,9.584131144608992736e-01,-2.844237909658482444e-01
1.542806093542746794e+03,1.494542315598712321e+03,1.457101849949378220e+03,-2.523390247243954424e-07,-9.802704429143127562e-01,1.976609692086765124e-01
1.634420262668473242e+03,1.568051713739964498e+03,1.688036553002350956e+03,-1.501699925906252063e-03,-3.032446875902418057e-02,-9.995389794759459434e-01
1.409641482339592812e+03,1.631995370346842947e+03,1.495450479281359321e+03,-1.398236732667893778e-01,-9.807968306583132456e-01,1.359666038584117220e-01
1.636373847052546580e+03,1.558129222649146868e+03,1.626847944747424435e+03,1.519877769302588060e-05,-9.788029037919522279e-01,-2.048044806576250765e-01
1.368708336446840576e+03,1.577690235439221397e+03,1.629136455744563364e+03,-3.180864756822268202e-04,-9.264555423013444424e-02,-9.956991011858880025e-01
1.443834065960876842e+03,1.542000386939008195e+03,1.421770022134100600e+03,-2.487751651844716597e-02,-1.675420085283334803e-01,-9.855510055548450943e-01
1.644759295016321403e+03,1.511274276934552745e+03,1.509514388282447499e+03,4.129389221496865790e-03,9.108736369142705902e-01,-4.126647134408596984e-01
1.622433744765909523e+03,1.499158150370997873e+03,1.548624788078881465e+03,9.557644707915571303e-01,2.751103727561146628e-01,-1.040603631289381409e-01
1.604629511140161412e+03,1.636581075346844500e+03,1.405823017315856077e+03,1.028861852660959732e-02,-9.996429898252875423e-01,-2.465841077551609098e-02
1.505497579290968361e+03,1.534534621692484052e+03,1.530728348933672351e+03,-1.576092215229247806e-01,9.690783209684461497e-01,-1.898592666158672726e-01
1.525882265137417789e+03,1.515049999696077293e+03,1.489834117037034275e+03,3.122876923180590084e-02,1.370621127147438612e-01,9.900700688488858203e-01
1.637277759093197801e+03,1.491682645853582699e+03,1.532857413821558112e+03,-3.798427372912589056e-02,-8.188341224492170500e-01,-5.727720967907667937e-01
1.565513933541050392e+03,1.483738724913680699e+03,1.719108517631131917e+03,1.594514151117895216e-04,-4.910760100954470464e-01,8.711167125500363095e-01
1.522563549150000881e+03,1.703518191496399595e+03,1.491674358033875933e+03,-1.916663568442511859e-02,-9.911774895684901665e-01,1.311481004408612538e-01
1.638933971679586421e+03,1.509233970718435103e+03,1.518086347624641121e+03,-2.808792443687910256e-03,-6.990457979647793918e-01,-7.150713831728922054e-01
1.526164191984032414e+03,1.475208840970034998e+03,1.583026206211062799e+03,1.811387066953496590e-03,-9.997462852486336260e-01,2.245181525960635027e-02
1.564137523741307177e+03,1.521764941753358471e+03,1.334447349617005784e+03,-7.896880822293064206e-01,-3.205849442353146672e-02,6.126703728109405001e-01
1.441415641983109708e+03,1.542307990633085637e+03,1.481797302145294907e+03,3.848277980317966985e-04,8.961662495266592421e-01,-4.437182722368863130e-01
1.517290263837260682e+03,1.607181487846103437e+03,1.508800494412079161e+03,4.113551893698808720e-02,3.274484093267338580e-01,9.439732031743148788e-01
1.554309323184583718e+03,1.488764002714622620e+03,1.452568860372718063e+03,1.318529602475846177e-02,8.210652199085562986e-01,5.706820941866440622e-01
1.642899469121197853e+03,1.470817440729520285e+03,1.582712340011758897e+03,7.195677684577842514e-01,-1.125120983037284778e-01,6.852468564918609006e-01
1.544704105365243095e+03,1.356429324491463376e+03,1.620090984442537319e+03,2.900533821660334910e-01,-6.930480061165517069e-01,-6.599647692959957901e-01
1.665784902021637890e+03,1.430892124532123034e+03,1.423067006097561034e+03,-2.461195295153650875e-01,-6.092777117323765479e-01,-7.537943003083098503e-01
1.492259531443254446e+03,1.595549061273991128e+03,1.444479330645798200e+03,1.426701203354860115e-01,-8.641669210754310271e-01,-4.825564933585163585e-01
1.560192935965193556e+03,1.563917144601689643e+03,1.582170211235685429e+03,-1.590384113954253567e-02,-9.661534635244778402e-01,-2.574772859043370499e-01
1.513134267347998957e+03,1.583706050731514551e+03,1.399972036943625881e+03,-4.493440464497450507e-03,-5.509513799727070449e-01,8.345252458128284978e-01
1.637442074570098612e+03,1.498639106059626556e+03,1.479313960317973851e+03,-3.210951218810911140e-02,8.190029401517867624e-01,5.728901842847112791e-01
1.347711006629603617e+03,1.593182604772593777e+03,1.662018297245653457e+03,-1.524528190700325803e-01,-9.460183727566464640e-01,-2.860198880575731684e-01
1.504402497584661205e+03,1.595239065459563790e+03,1.552026747896019970e+03,1.722911051306177249e-02,-9.071353329714103575e-01,4.204862012311192943e-01
1.536058123828356656e+03,1.519768848913736065e+03,1.589736876590751763e+03,1.871312085596728569e-01,8.402721722421683248e-01,5.088463297877110492e-01
1.616442291240952727e+03,1.629162675337169048e+03,1.621595285510926942e+03,-2.122415711619226382e-04,9.495365426333450820e-01,-3.136563552001281896e-01
1.648927622274828082e+03,1.420484971722604996e+03,1.618395900847397343e+03,3.521114201711215141e-01,6.365735562783964019e-01,-6.861425910349475688e-01
1.564930381530733257e+03,1.471537661030795562e+03,1.501213701589753782e+03,3.573413356764143511e-01,-9.338217087793392324e-01,1.685781805072305434e-02
1.570085703649648622e+03,1.491215659771379933e+03,1.369060413540656555e+03,6.186684142212599546e-01,-3.922026129020228513e-01,6.807543636861812519e-01
1.611356189148906651e+03,1.563207932582046624e+03,1.617861448576921703e+03,1.640021139038205995e-04,3.567449109734369128e-02,9.993634492957265136e-01
1.477629740285089611e+03,1.612678993079240172e+03,1.283202929790702456e+03,4.808985222214867163e-03,-5.188367935346823584e-02,-9.986415560539623204e-01
1.526412660573832227e+03,1.551238458003675532e+03,1.659174849272286792e+03,1.147664820217209432e-06,-2.456152783275361851e-01,-9.693673891001129972e-01
1.401148919987099589e+03,1.547817617985004063e+03,1.625481927783222318e+03,3.803973886975682284e-01,-3.757690560743457975e-01,-8.450416813205525735e-01
1.571820364466228739e+03,1.439037249671241625e+03,1.398496828543247830e+03,-2.461950158016406043e-01,1.932812843056735397e-01,9.497527885358270083e-01
1.562825826050497653e+03,1.557535750327208461e+03,1.583854978102228188e+03,1.426833425286188617e-01,-7.308419727905254293e-01,-6.674664595112730359e-01
1.433699138654615354e+03,1.576882739304753386e+03,1.490248256622875942e+03,9.348385796296457828e-01,-1.833100847767320796e-01,3.040957790814824979e-01
1.534568193114110045e+03,1.499500078003655290e+03,1.536954816348789791e+03,1.232425839575546495e-01,8.102286428147498221e-01,-5.730103069422344264e-01
1.670656827013919610e+03,1.584555443903187097e+03,1.575934350190941359e+03,-1.420266200167668025e-01,-3.462565131485330072e-01,-9.273267311518809120e-01
1.489938436093251767e+03,1.587456080972703830e+03,1.465626970644620769e+03,3.093039188192867424e-06,-9.994898803303680079e-01,-3.193711176076576702e-02
1.474042038221555686e+03,1.607391905312897507e+03,1.472425088992875317e+03,1.305234971230778973e-01,-7.057372621095825416e-01,-6.963465613965739154e-01
1.487196317046556715e+03,1.606897770311305976e+03,1.562617339424637976e+03,-1.467456229679526755e-02,-5.467684528398581573e-02,9.983962639208886491e-01
1.660622490571556909e+03,1.549692513901995426e+03,1.523292014464327167e+03,1.398253078936661295e-05,-7.460018809613222501e-01,6.659438365257672743e-01
1.518973199486506246e+03,1.573892384085700314e+03,1.359216212614140886e+03,-9.325547892443876441e-02,1.221256202436904609e-01,9.881238528295264167e-01
1.543426706572251078e+03,1.520927068207608954e+03,1.583314037261252906e+03,9.290075124376519222e-02,7.261017943682261944e-01,-6.812823457521750559e-01
1.657806345853447283e+03,1.537598137015089605e+03,1.544608254562290767e+03,3.286981455810095306e-04,-6.283552928349385169e-01,7.779264219216672771e-01
1.464991832335032313e+03,1.443263119494267585e+03,1.402310558591252857e+03,-1.311127847644310901e-03,-9.980912920850013581e-01,-6.174183029243398430e-02
1.634625496435341120e+03,1.434036159944313795e+03,1.556776520563901613e+03,-9.940936667616321332e-01,7.955374860626264130e-03,1.082335147504699113e-01
1.542977525678726352e+03,1.452302497298994467e+03,1.651593216710942897e+03,-4.389771463513120024e-03,-8.093372569593246801e-01,5.873277912750717311e-01
1.676717282739980192e+03,1.470342092232458526e+03,1.554329282296873089e+03,9.916217620231184693e-01,-7.092230433861196337e-02,-1.079643822261180802e-01
1.564974240330711154e+03,1.559140782828400916e+03,1.536940809582827796e+03,1.907712934023693407e-02,-9.403214568815834173e-01,3.397522933906881315e-01
1.599503483659361109e+03,1.464765206612163638e+03,1.750037613576982267e+03,6.623170104915264700e-01,2.266158410107913801e-01,7.141298468881824846e-01
1.413889397673806570e+03,1.568757632150387508e+03,1.621950405608674373e+03,-2.951644021864209349e-04,-1.075940969966141109e-01,-9.941948617697936585e-01
1.396605178233912739e+03,1.623338787387575394e+03,1.575423668548921569e+03,-1.949343549756226424e-01,-5.368224539974711940e-01,-8.208667675904359751e-01
1.452546227652120933e+03,1.452787040728620013e+03,1.523891540262696935e+03,-5.402452198879425377e-02,9.985318308996973258e-01,3.941282022476352322e-03
1.524009712871707507e+03,1.538249872915561355e+03,1.533124766561958268e+03,1.669576827685122500e-01,-6.593036462242121143e-01,7.331056091996758228e-01
1.528494324685448646e+03,1.510204998041553154e+03,1.475529930412447129e+03,2.166925319926179833e-03,-1.542619723152754141e-01,-9.880276050455569781e-01
1.539276030584338741e+03,1.562212925886577750e+03,1.328892030848977811e+03,-1.312953933815776998e-02,-9.228839546574540975e-01,3.848542859740371469e-01
1.438458226250891357e+03,1.536777878999562517e+03,1.385483483842070200e+03,1.774269479115266101e-03,-3.118533888560226508e-01,9.501285785759893132e-01
1.424335670781383897e+03,1.521764966856539559e+03,1.640048827030997472e+03,2.465128378775346130e-01,-3.971946632086154616e-01,-8.840066856535411244e-01
1.566046663341113572e+03,1.448763837737659514e+03,1.579526430093246063e+03,-3.420111102894859423e-01,-9.390848697800656675e-01,-3.388226363025478166e-02
1.472773388734851096e+03,1.536070308329600948e+03,1.511688702021501513e+03,7.769153143172917962e-04,-7.516649104859124408e-01,-6.595447359708055401e-01
1.554231250478849688e+03,1.599808015509584493e+03,1.526584926874935036e+03,2.968124804445330667e-01,-1.833087459396929436e-02,9.547598286946220592e-01
1.475554492258295113e+03,1.558176830736021884e+03,1.523163237820335553e+03,-1.663902065861341817e-02,-1.577982478096866476e-03,9.998603167257020807e-01
1.561489860707610660e+03,1.506641313187220248e+03,1.635013798445203975e+03,-2.814520854887272994e-01,6.493110911845607625e-01,7.065265957051872769e-01
1.476562594642252861e+03,1.502601695406345243e+03,1.561503496284317407e+03,-4.896895063234317155e-03,9.552469174133866314e-01,2.957690774759290098e-01
1.552205115322494066e+03,1.538058488762310617e+03,1.379347912754927847e+03,3.564639547969150613e-03,2.750403594275017127e-01,9.614260730970862756e-01
1.608490707307104685e+03,1.530972071976616917e+03,1.523137898771284654e+03,2.877013167793174842e-01,7.847803139073517009e-01,5.489515563571391032e-01
1.538617425013334696e+03,1.549528924763283385e+03,1.521329507909576250e+03,3.957297368880703381e-01,6.470955617477058830e-01,-6.516634939206887855e-01
1.474257181767073234e+03,1.593781101286274406e+03,1.516748107919311906e+03,2.844875597253274102e-01,-6.824139127279699180e-01,-6.733335578127910281e-01
1.655776208896710159e+03,1.528200893866027172e+03,1.576895106825450966e+03,-3.139272511648810802e-06,-7.095270796561262139e-02,-9.974796806063226384e-01
1.466738646735039083e+03,1.586293258578741643e+03,1.502702891558080182e+03,3.663611248701937294e-03,5.272653474839197330e-01,8.496927864206449410e-01
1.432107732850770844e+03,1.609425906828899315e+03,1.590787192131154143e+03,-8.694741143125898075e-01,-1.053392873275559305e-01,-4.826162026762673696e-01
1.482756269851394791e+03,1.581477773001081687e+03,1.534458624349548927e+03,-3.372077857472908125e-04,-1.901884438461489135e-01,-9.817475450024255590e-01
1.397351800957691466e+03,1.472469087339618454e+03,1.391005947995457063e+03,8.241271928063020197e-03,2.652832475659216982e-01,-9.641353017071232490e-01
1.589649552596673630e+03,1.536920405864126678e+03,1.498625158283718520e+03,-8.748182801561300371e-04,7.365771172713142523e-01,-6.763530032499723843e-01
1.577131075477962895e+03,1.589104657900598340e+03,1.411597107556008496e+03,-2.555745557172365429e-02,1.354651148706444708e-01,9.904524315270181178e-01
1.587893811055078913e+03,1.465673823419226437e+03,1.509329894789714899e+03,-7.760023821513151177e-01,-4.307465359429948348e-01,-4.607360683391246159e-01
1.437967065412870852e+03,1.479687899731523657e+03,1.465234275249020357e+03,-3.485990149920550896e-02,-1.342995772730055243e-02,9.993019681272066190e-01
1.499915932093818355e+03,1.501751401053357540e+03,1.498143061238130940e+03,-1.677628470097547453e-01,9.261477108463950225e-01,-3.377958626998915914e-01
1.600666988681992052e+03,1.519505777309712130e+03,1.527168885493879770e+03,-2.766896284728955716e-04,6.796735809950469331e-01,7.335146533916135914e-01
1.495511532237427218e+03,1.621928629848877335e+03,1.495063770883174811e+03,-1.535031155592268847e-04,9.752102049904513015e-01,2.212804386277189284e-01
1.666867184145094143e+03,1.517574064462759679e+03,1.530395719127783877e+03,9.857349365284046039e-01,1.296468784770246907e-01,-1.073234448222100956e-01
1.535461363582821832e+03,1.620853487230768451e+03,1.561747908420642716e+03,9.154040895621423646e-01,2.533110515938949980e-01,3.128399973681439405e-01
1.617474285649823287e+03,1.579811493742676703e+03,1.457768517702694453e+03,-5.192432247087843539e-03,9.976345771172323573e-01,6.854406748567344609e-02
1.544607355320542183e+03,1.456073959053862154e+03,1.599311563549347511e+03,1.442098190302035510e-01,-6.282126400363571284e-01,-7.645602703474896344e-01
1.559887624317762629e+03,1.602970685950572943e+03,1.401533628646197940e+03,6.925415383055386759e-04,9.094765736377918852e-01,4.157545939496999909e-01
1.435310227784944345e+03,1.610648986670027853e+03,1.601592257773379060e+03,-8.397484078346787451e-01,-1.157877774730124432e-01,-5.304863826027792495e-01
1.572904538728127363e+03,1.592672117634522010e+03,1.561767130554766709e+03,2.916379959528909863e-04,-4.393616402731083670e-01,-8.983102270395250111e-01
1.463688298178550440e+03,1.493029619202337017e+03,1.555920574949637512e+03,1.951438952739169980e-02,-9.998017880359981735e-01,-3.946294641078713916e-03
1.407225864264849861e+03,1.501389292541940677e+03,1.588895137566245239e+03,1.849805841325692368e-01,3.034386711743864429e-01,-9.347230372307596680e-01
1.508477714059084292e+03,1.422812646042154938e+03,1.369118359020541675e+03,-1.435326677122883032e-06,-6.283448356282224367e-02,9.980239614725355812e-01
1.427594443481448252e+03,1.574524082735209731e+03,1.511753060045461780e+03,-2.396339399590945163e-01,-9.688585527282328469e-01,-6.235927858013865649e-02
1.592291281994455858e+03,1.497929665050542781e+03,1.479198058139338173e+03,-1.402244118183264268e-05,-5.303250346791487102e-01,8.477944075045146244e-01
1.461007161511310642e+03,1.568493333176840679e+03,1.529489227085983202e+03,7.751620357696695218e-02,-1.393754010239899588e-01,-9.872009601760000086e-01
1.579765634110380915e+03,1.395154664362931953e+03,1.506124653605468211e+03,4.303136375194199226e-01,1.917860458965430503e-01,-8.820704540818575801e-01
1.452090694952146123e+03,1.428819257130649021e+03,1.334589355523758513e+03,4.802217535871460170e-03,1.806694647115326680e-01,-9.835321465145847597e-01
1.585340508463390961e+03,1.504660727156527628e+03,1.507746869607806047e+03,5.203748494685922488e-01,-2.263300961078073825e-01,8.233982655048349697e-01
1.572216771232714791e+03,1.400180805755097936e+03,1.599949037734557805e+03,-4.845149057047454799e-01,-4.131791985932646849e-01,-7.710565841750844918e-01
1.571490713721063685e+03,1.493977562990126216e+03,1.551573807424523238e+03,8.506756885673989743e-02,3.174183773823877389e-04,9.963751341610134205e-01
1.755638365526014923e+03,1.513401161417559024e+03,1.629170852684664624e+03,-1.950689330109022391e-03,-7.027068931557373110e-01,7.114767860742531314e-01
1.586694608248410077e+03,1.513806016130226226e+03,1.524779107259555076e+03,-4.474658095722110668e-05,-3.364479725177391689e-01,-9.417020546788916757e-01
1.532574475840699506e+03,1.572070718482210850e+03,1.461468890959278042e+03,-2.559016418757241027e-07,5.761674084685467490e-01,8.173317058689044678e-01
1.480616501314240168e+03,1.492839329202092131e+03,1.494245538102342152e+03,1.057290133593202959e-02,1.680955462400891276e-01,9.857140057296470692e-01
1.612306490942623896e+03,1.532924682376891724e+03,1.537469783369824654e+03,-6.120750853562912930e-01,6.101733021609897500e-01,5.030433691204390101e-01
1.478714317518709095e+03,1.596427343847431757e+03,1.567893846274930183e+03,2.407916911071215915e-01,-6.162729221913895161e-01,7.498180091645292311e-01
1.407619738175597831e+03,1.551552414362339960e+03,1.454846077629956426e+03,-3.023605793150637155e-01,-1.366393051526732785e-03,9.531926421486308643e-01
1.613691539319697085e+03,1.551556819460281986e+03,1.607858121089622500e+03,1.914248888422749872e-01,-6.231085411919563555e-01,-7.583483749737680579e-01
1.455313596467834486e+03,1.445854248354606398e+03,1.304433600301022125e+03,4.486451460568795929e-02,-9.960969451521133333e-01,-7.601349345888433473e-02
1.391583053157154382e+03,1.633798809510349201e+03,1.614362034464614908e+03,7.837140783658914922e-02,-9.619281090110367582e-01,2.618248183961216502e-01
1.497825856458983253e+03,1.620319342179388514e+03,1.430663532241326720e+03,-6.463444494526714157e-02,-1.224036657094067504e-01,-9.903735311222312543e-01
1.432835439232722820e+03,1.480402989967325084e+03,1.600453128787488367e+03,-4.926685072680540012e-01,-2.686945942924353625e-01,8.276961742960341484e-01
1.603147062431089353e+03,1.603743512235712842e+03,1.601064372552473742e+03,-1.709900463433628170e-01,9.687357022655481709e-01,-1.797596818187263412e-01
1.555244125081678703e+03,1.438118992345813240e+03,1.515919726854625196e+03,-7.894984708992606667e-03,-6.281298424782878476e-01,-7.780684868343185068e-01
1.420689708867496620e+03,1.496706209256849434e+03,1.449353361031668328e+03,1.049015329192170554e-01,5.461053169209332397e-02,9.929820533219648748e-01
1.398663092100673566e+03,1.470825148267593477e+03,1.515424396937182792e+03,-1.895944004051020315e-01,9.818548488297407228e-01,3.875456690135912173e-03
1.595031527471752952e+03,1.469244909089070461e+03,1.497997969846066326e+03,-3.660318179129339738e-02,-6.277284831955590727e-01,-7.775713205023423447e-01
1.568047282800034736e+03,1.568155141640218517e+03,1.524402546574459166e+03,-3.159754434115452648e-02,9.909103196466022556e-01,-1.307605965475736043e-01
1.531608300634070702e+03,1.489478689374910118e+03,1.569393865547927589e+03,2.426396796493703600e-01,-2.096666168836771316e-01,-9.471884161159300763e-01
1.477571001123101951e+03,1.494566273470408305e+03,1.477170646975277577e+03,-2.688488867986052466e-01,-5.373312832338247302e-01,-7.993718584772934177e-01
1.554025931111832278e+03,1.462267997910589884e+03,1.596944840358150714e+03,9.591110637374233860e-01,2.432057677778456106e-01,-1.447650577178656306e-01
1.460458229010750756e+03,1.624820915912311193e+03,1.463715102298528336e+03,5.423093719655465000e-06,1.866892168060476087e-01,-9.824190227692737309e-01
1.595867721578887313e+03,1.607184777397291782e+03,1.548104872830292607e+03,-9.208221853353304844e-04,-1.018930426339268447e-01,-9.947949336166241885e-01
1.563488899715683146e+03,1.545082867344535771e+03,1.517151310395433256e+03,5.994682311877532754e-01,-1.536438963006838548e-02,8.002510701823033479e-01
1.615549862990475503e+03,1.454512253122894208e+03,1.539517440012762336e+03,2.209369897284320719e-02,9.657665145192666500e-01,2.584703230527725104e-01
1.508098311650168171e+03,1.508172790123448976e+03,1.408488255487902279e+03,-6.414576531103543484e-07,2.079846761002171196e-01,9.781320843869074633e-01
1.527177813743908928e+03,1.462652834120731313e+03,1.536395400540322498e+03,-2.165335801153506559e-02,-9.537592221879486187e-01,2.997907239696777637e-01
1.479059391951824637e+03,1.597183850481228774e+03,1.387943015048621191e+03,-2.081937352699181343e-03,9.811477934886539964e-01,1.932476982248562125e-01
1.469216663600249831e+03,1.645835275704595006e+03,1.570752099089275589e+03,1.415704730665729794e-03,9.474996172156636698e-01,-3.197537664458176554e-01
1.621856942970495993e+03,1.487395196789544798e+03,1.503440314662398578e+03,4.389543684392515493e-02,-8.432249701837165809e-03,9.990005444389141731e-01
1.725405243102357872e+03,1.504889239282994595e+03,1.594271665910759793e+03,-7.749888357211088818e-01,4.419028370147466966e-01,4.517899812368113555e-01
1.490298913587247398e+03,1.470020411237622511e+03,1.381253745140946421e+03,1.901626553668034000e-02,-9.962335491036244939e-01,8.459962934572930193e-02
1.310054203469662070e+03,1.636574343284169800e+03,1.655850837633827268e+03,-4.439107245601224272e-01,-7.800498778391325994e-01,-4.409823768629100305e-01
1.618874240350589162e+03,1.556797708087492992e+03,1.645603947485019035e+03,-2.337298983546047260e-01,2.948456169805442964e-02,9.718544105145686673e-01
1.439716999802830287e+03,1.483220471990598298e+03,1.317579085513176096e+03,-8.055167538811098182e-04,-9.999134010982531073e-01,-1.313550329767108199e-02
1.559339692432994980e+03,1.543075812704371401e+03,1.462994298987443699e+03,3.417609597328871100e-03,-8.223004307052110828e-01,-5.690433389528996022e-01
1.527370903612822076e+03,1.524601071602018465e+03,1.349462854360954907e+03,-8.722036272157855652e-02,-1.221926944667241777e-01,-9.886665533665424110e-01
1.547425663862333522e+03,1.522148055980825575e+03,1.338915235617838789e+03,-1.237027218186956615e-02,8.760509606959083762e-01,4.820598413370714708e-01
1.524076019359705924e+03,1.378921527950511518e+03,1.566822241904428893e+03,3.052010553451494079e-01,-1.331260772477178278e-01,-9.429367759149294148e-01
1.405200654378113768e+03,1.579168328922313549e+03,1.422375525601317804e+03,-2.791703944328982612e-01,-1.376496225241147838e-03,9.602405928361505971e-01
1.649363231349307625e+03,1.529711792911539760e+03,1.495982587637257666e+03,6.606658473570942451e-05,5.500085928768746468e-01,-8.351589928850714495e-01
1.448778509745527344e+03,1.609105170740759831e+03,1.443119477475270969e+03,3.542066396104611575e-02,-1.225831767811937922e-01,-9.918259632288263239e-01
1.465665278102469983e+03,1.490584196923048466e+03,1.466082770415705909e+03,-1.262488683795437994e-01,9.319453381863032071e-01,-3.399104438903012282e-01
1.463225740001310442e+03,1.530732520036545793e+03,1.567979336579357778e+03,-8.924435564781599620e-03,-1.370808634559468331e-01,-9.905196572123252663e-01
1.542727594864869161e+03,1.401900145462474029e+03,1.572457428965752797e+03,1.468870306966063854e-01,-7.536837489462510087e-01,-6.406129929898851660e-01
1.520554727928011744e+03,1.597920884844366356e+03,1.423640979443117658e+03,-1.591739100587832715e-04,1.302559158717767618e-01,-9.914803936760782088e-01
1.565941508918549289e+03,1.445210745895190485e+03,1.627097360754250985e+03,4.327861236482899443e-01,-1.868869176826272460e-01,8.819123829364082789e-01
1.554068932950737008e+03,1.516779474621290547e+03,1.371948789399273437e+03,-2.260045043959964597e-03,6.393636761969860860e-01,7.689011521361343027e-01
1.512134827366284298e+03,1.507055697519353998e+03,1.349395732461433909e+03,-1.157119742144787321e-03,3.020551150504938720e-01,9.532897610620473250e-01
1.640624615815550442e+03,1.509306522474008489e+03,1.503180492982888154e+03,3.077955965676872352e-01,5.814542122200205138e-02,9.496741444961306344e-01
1.588978867028685499e+03,1.595658017322441310e+03,1.354468030771242866e+03,7.812215386872280176e-02,-2.217595834881751216e-01,9.719668802001757424e-01
1.465201392469570692e+03,1.542549700081945048e+03,1.463034532337276232e+03,-3.153236257944107279e-02,-9.809048227130763298e-01,1.919151867059689931e-01
1.548275305901880529e+03,1.530312436153843464e+03,1.515093217984028342e+03,-7.807414631706203787e-06,-6.222420463146383085e-01,-7.828249074583765177e-01
1.527920249426042801e+03,1.554302676186823192e+03,1.502469810336243199e+03,3.249383038584066075e-01,-1.815426119136319405e-02,9.455609559865602032e-01
1.618799617253955603e+03,1.447395008220742739e+03,1.459785802887178079e+03,-1.756468820352058923e-04,-7.886882695030242862e-01,6.147932845245608346e-01
1.588968037150476675e+03,1.528538438754789240e+03,1.692901615945179174e+03,-7.092807750072051276e-02,-4.898392081547454646e-01,8.689227571978902498e-01
1.346882144188134362e+03,1.516411819386764819e+03,1.628592157353882385e+03,1.536962846762706947e-01,9.154475705068083891e-02,9.838683903516988183e-01
1.488068760866229695e+03,1.538795653727546323e+03,1.580230980268472877e+03,2.295531474833969465e-01,-9.134661184217892638e-01,3.359836349822646895e-01
1.512866907785304875e+03,1.586197160390334375e+03,1.519149481245872494e+03,-1.152645134242730966e-03,-9.459148189689499386e-02,-9.955155061382741088e-01
1.524043830293106794e+03,1.508118021306180253e+03,1.352513913984818373e+03,-2.174427100590013984e-01,9.008798413378247272e-01,-3.756782923104990957e-01
1.543230372805410752e+03,1.549768856846610788e+03,1.519036769560138737e+03,2.791071671364381279e-01,-6.421155867939611905e-01,7.139935310976699423e-01
1.597125589421942095e+03,1.687385743434782398e+03,1.566098495876578454e+03,4.389910737753258685e-01,-2.664744963579487314e-01,-8.580665358446069035e-01
1.516421658393540838e+03,1.461769022176516046e+03,1.378163398744751248e+03,9.479731029212228044e-02,-1.985212833978600433e-01,-9.755012916441707649e-01
1.559142763428083526e+03,1.585048926303070630e+03,1.521619568472662877e+03,1.475613536870370654e-02,1.730346437633293599e-01,9.848051931862860098e-01
1.441305904192472326e+03,1.683375839951355829e+03,1.569091248253875847e+03,5.419602066135851062e-03,9.947913943811736992e-01,1.017875708453884614e-01
