x,y,z,nx,ny,nz
1.510971352835710832e+03,1.414412109305600552e+03,1.384071859050495732e+03,-4.580358922192248605e-02,-9.839013966219698482e-01,1.727427941759843988e-01
1.595351211741328825e+03,1.279050128553918285e+03,1.358683342411681224e+03,4.255256657355389049e-01,8.605097579379162864e-01,-2.800908143691172025e-01
1.467777905234789841e+03,1.505711200807735850e+03,1.425887254985850177e+03,-1.004986159700165388e-01,-2.640213877096052597e-01,-9.592667694755225849e-01
1.407966369958928226e+03,1.418977645636715806e+03,1.475883980239595303e+03,1.671806335607342597e-02,-9.813756010262418839e-01,1.913698933165950133e-01
1.384054882644579493e+03,1.701981691507971391e+03,1.559995272727596102e+03,-6.135757296868612487e-01,4.682029814288183323e-01,-6.358543796502478251e-01
1.458128432943275584e+03,1.511985187215145288e+03,1.484083757548401309e+03,-1.004789805123396974e-02,4.497037281273100207e-01,-8.931212664880119334e-01
1.535406799118633899e+03,1.494151892269719383e+03,1.522506628338645896e+03,-1.720744934942337488e-03,-5.306034797445495499e-02,-9.985898249580248409e-01
1.686117348404928862e+03,1.377472764760296059e+03,1.344812998702995628e+03,4.092621404277866672e-05,-9.984709591393312600e-01,-5.527876699447150516e-02
1.404996427557457764e+03,1.542690742165559186e+03,1.480835206164218334e+03,-9.699754961239509532e-01,2.416821243909200445e-01,-2.715304161575748942e-02
1.633968629147376532e+03,1.573655230409263368e+03,1.402006576322472938e+03,4.184968759789025605e-01,5.696286370667628107e-01,-7.073779616508852897e-01
1.587952207851071080e+03,1.413470199673367688e+03,1.459670213718719879e+03,-6.794690685226334806e-03,9.917782502619150176e-01,-1.277878495237575185e-01
1.508818818131808257e+03,1.535298444431244661e+03,1.608450153649564299e+03,5.178708821774801988e-06,-8.810509670241626345e-01,4.730213456906241509e-01
1.611519235171372657e+03,1.340587405927346026e+03,1.404616609676470716e+03,1.827648654772804360e-01,-9.402362822163151668e-01,2.873199219530617188e-01
1.533057977753612931e+03,1.403552604492118007e+03,1.449733167488502659e+03,-2.450085099428015490e-07,5.401135095657368934e-01,-8.415921796122648457e-01
1.492870783589121629e+03,1.434451793498768211e+03,1.445147232572714984e+03,-2.030632079526922540e-01,-3.140383673160459382e-02,-9.786619092487949256e-01
1.604440635853714639e+03,1.474971306327151751e+03,1.566870020607621427e+03,-9.144398123956780366e-03,-9.172095466222244253e-01,-3.983001726939169873e-01
1.453587776300934365e+03,1.487271668692427511e+03,1.568061949622085876e+03,3.365188943308737541e-05,9.327229178864933079e-01,-3.605938952850646917e-01
1.476515579660003823e+03,1.390400488017571206e+03,1.460342752684169000e+03,-8.839796307977725032e-02,7.512429861341218817e-01,-6.540793345670184999e-01
1.797263205468321075e+03,1.522901513732929288e+03,1.422933355723662089e+03,-2.451546142229648825e-02,-9.987221572866594732e-01,-4.419326527801321208e-02
1.668610959842266539e+03,1.571024990726727310e+03,1.378229842122824493e+03,-2.276594249948178661e-02,9.333388530903761193e-01,-3.582740531688719532e-01
1.512477687721731400e+03,1.500200515110469496e+03,1.545323064465047537e+03,4.361659852843405641e-03,3.048528379473357530e-01,9.523894807896522430e-01
1.400996094338379635e+03,1.411802749539658180e+03,1.469749967351785244e+03,2.088294239333517502e-02,1.115295041508739815e-01,-9.935416812700194056e-01
1.512424800747330210e+03,1.536858011219984746e+03,1.297158099361614404e+03,3.742849103174725352e-05,8.395747834364892803e-01,-5.432441270889913909e-01
1.641757978491966469e+03,1.345718766506411612e+03,1.420357099656818718e+03,1.925337531824572804e-02,9.996690931797387325e-01,1.705906445423275783e-02
1.756860612270331103e+03,1.522723350155720709e+03,1.359424068438789163e+03,-6.578083998175457414e-02,-1.954120447204941990e-01,-9.785126539138113699e-01
1.684291526177922606e+03,1.499932029718582044e+03,1.246015283145744434e+03,3.573506384148074952e-05,8.392740167026414566e-01,-5.437086753131860073e-01
1.448407209139144015e+03,1.503498062523624185e+03,1.527147306759310140e+03,-3.741594289021885522e-04,1.900408372771688337e-01,-9.817761150953482341e-01
1.553813028421155650e+03,1.362466349725932105e+03,1.350451154968162655e+03,5.770694137273316149e-02,-9.948315143148367401e-01,-8.354739399558004653e-02
1.456045712096556827e+03,1.652211666648673372e+03,1.610163103834833464e+03,-4.625856122970856501e-04,7.252233809951607046e-01,6.885134956357059632e-01
1.623321400449435714e+03,1.445967067676539500e+03,1.382743751157491033e+03,2.337919674599961695e-01,9.359227178625024735e-01,-2.634197831220174701e-01
1.489207055293162284e+03,1.378775128113424671e+03,1.364717327969104417e+03,1.798601326440760553e-02,-9.788022996609052617e-01,2.040160814871612160e-01
1.357303768966592315e+03,1.473966331613080001e+03,1.560148968765992095e+03,6.930028678630144601e-01,-1.649896144398624587e-01,-7.018015761314753131e-01
1.412399386624508224e+03,1.363928566896092207e+03,1.480564605709120997e+03,-2.250754231393310711e-01,-6.549689231344308915e-01,7.213575837452427253e-01
1.431811336585600429e+03,1.605624304422102341e+03,1.450855672634846997e+03,4.830802557295469507e-02,-9.693572735086022907e-02,-9.941175983897491131e-01
1.491609149734629000e+03,1.549111996886452744e+03,1.292640056926275520e+03,1.112416972837201312e-01,-8.938711052437423588e-01,4.343037324221007411e-01
1.481510953898023899e+03,1.458713817821024577e+03,1.346338493288555810e+03,1.471946929362794310e-01,-9.278942974419169794e-04,9.891071030902403027e-01
1.594165746190417167e+03,1.594771785046838886e+03,1.324187137260938925e+03,5.562076679404813766e-05,-2.778342641334226037e-01,9.606290223492989222e-01
1.524636210900356446e+03,1.531769187053308997e+03,1.528679735446664608e+03,-2.532159130089846055e-01,9.671127245117505655e-01,-2.397247351621096048e-02
1.340163867602635491e+03,1.406004867217526453e+03,1.458903873187550971e+03,-3.426007091197584287e-01,9.352523161555186260e-01,8.903852669702351508e-02
1.559716558019992817e+03,1.412906627690208779e+03,1.520647680858988679e+03,-6.666492197344708881e-02,3.146509407034699390e-01,9.468635454450105016e-01
1.434860839633251771e+03,1.384707413412811547e+03,1.365690242957336068e+03,1.084493379879408420e-05,-9.999615536061785548e-01,8.768762278977977262e-03
1.543456038067088230e+03,1.479358847943549790e+03,1.439807631481006865e+03,-3.180929176861733090e-08,8.581006611960730890e-01,-5.134815042967577625e-01
1.545823235062671529e+03,1.410488547675857035e+03,1.373741795355299473e+03,-8.146058489705107486e-02,-5.292865299771017940e-01,-8.445235001425530630e-01
1.527662067663872676e+03,1.236972281372867201e+03,1.413011274645079993e+03,2.060237803329441990e-05,9.762831914498676378e-01,-2.164974126127219289e-01
1.543357076025832384e+03,1.393649743667317807e+03,1.362529695783638317e+03,-4.391799201202056585e-04,9.654565843228827271e-01,-2.605636024248021987e-01
1.477133822039799725e+03,1.482865892580175114e+03,1.520728001172547010e+03,1.135070105972850601e-01,5.654339060663245986e-01,8.169459323699743702e-01
1.539179393548110966e+03,1.323341060368064063e+03,1.489567648107473360e+03,-1.248232874730603713e-07,-4.387504150230585043e-01,8.986089657448775858e-01
1.477376393538611865e+03,1.449219246340649079e+03,1.543581966194648658e+03,2.025793955589357559e-11,-9.751553371470463860e-01,2.215221623983259225e-01
1.524347048192538978e+03,1.321174596171959820e+03,1.467578150422984436e+03,-2.491340139927892411e-02,9.159539453926547337e-01,-4.005092912160069796e-01
1.500982058774947973e+03,1.482941855846948329e+03,1.414823427298891602e+03,5.902232324547882492e-01,3.614637374697249883e-01,7.217897909814454671e-01
1.463611864432944458e+03,1.549617215022952678e+03,1.434062733212149396e+03,5.371274115343873529e-02,-9.981817628950095944e-01,2.735159340138171302e-02
1.529524876484660808e+03,1.375372976757465494e+03,1.536792157921275702e+03,5.355595939168625419e-06,-3.598296506961158880e-01,-9.330180182886228524e-01
1.546557485711753543e+03,1.443359146417069724e+03,1.438945309436811613e+03,3.799858527888019810e-02,-1.283734218522694370e-01,9.909976650218419447e-01
1.512491713112123989e+03,1.607664808901524566e+03,1.503388707778759908e+03,1.642432554587261173e-01,3.982759379663499688e-01,-9.024413722083799438e-01
1.505643078723563121e+03,1.523230682666889379e+03,1.405319541841546425e+03,3.357962402760374804e-02,-2.394989688701102404e-01,-9.703157490014880926e-01
1.405619034410911127e+03,1.572916482828782364e+03,1.387716716936123703e+03,7.742981284950932062e-05,-9.268899433068652494e-01,-3.753332212863925710e-01
1.390232108001752295e+03,1.650448669902802749e+03,1.461630377019780099e+03,-3.696111325770525761e-04,9.999902078282159046e-01,-4.409947311745068127e-03
1.328614826985975242e+03,1.470498840202122210e+03,1.472596376265620165e+03,-4.734856780971458470e-03,5.354955508505676587e-01,8.445247753325599849e-01
1.600511227629846871e+03,1.393148883500703050e+03,1.411665661115904641e+03,-5.170791412241374507e-01,6.585815830959298456e-01,5.467169835644100084e-01
1.572902362326046159e+03,1.499679327122707946e+03,1.434287850184039826e+03,-3.556247228084491192e-03,9.960121817773655017e-01,-8.914643490765593314e-02
1.508575642893115855e+03,1.395070859239822994e+03,1.478281241870705117e+03,4.669510462664978184e-02,-9.871829829566198811e-01,1.526084052887528297e-01
1.518950470742861626e+03,1.492592415913057948e+03,1.421684729880658551e+03,1.027538849509842672e-01,-1.650150485522865196e-01,-9.809238874034857947e-01
1.588597321402296529e+03,1.389621294580667382e+03,1.533186101197987227e+03,-5.782326575942993777e-03,9.968232611574425750e-01,-7.943519821093245059e-02
1.429157537620785206e+03,1.536758595047625704e+03,1.572222820165449320e+03,2.460709372997209876e-01,-3.025523654002164609e-01,9.208209163605975967e-01
1.401748896812851854e+03,1.568438405859518980e+03,1.632652096638763624e+03,-7.931201398397756328e-03,3.267295267942516013e-01,9.450846059296397206e-01
1.537671554372107721e+03,1.416065633660369485e+03,1.512371950276442931e+03,-2.230401890823681052e-02,-2.662714528832508254e-01,-9.636399971566060874e-01
1.610246074361249612e+03,1.492877010760637859e+03,1.450448777514199037e+03,-2.241795229906861016e-08,7.374880326705487987e-02,9.972768492332891865e-01
1.520333125887966389e+03,1.397856564972763863e+03,1.393593480460014462e+03,-1.893767010568540576e-01,9.719600221009379037e-01,-1.393921824722147984e-01
1.564213897725594734e+03,1.331856816319652580e+03,1.409595053521124328e+03,-6.959151063816085671e-05,-9.255672773086631722e-01,3.785831617127864979e-01
1.559004460588429083e+03,1.513920967934518558e+03,1.443809292124386957e+03,1.166036407944081865e-01,-9.563389300077368427e-01,2.679914959567667454e-01
1.409488770880044513e+03,1.557709857303103718e+03,1.350860544402880805e+03,8.185392048953302939e-05,-2.264099200149781999e-01,-9.740321049219820004e-01
1.391635352490533933e+03,1.693175662975463638e+03,1.509391183287787044e+03,-2.903875861027757789e-05,8.659073259161022273e-02,-9.962439682055790335e-01
1.554878069543082347e+03,1.447917442535313739e+03,1.524679784621909675e+03,-5.388853335889515206e-01,-4.104769787083767940e-01,-7.356026421874566346e-01
1.525209352934302387e+03,1.459168506214663466e+03,1.477987909920434277e+03,1.318652295593435110e-04,-9.365858818057656299e-01,3.504381095338770513e-01
1.423926994378988638e+03,1.393228628703680670e+03,1.393050096268012567e+03,1.390291854493109006e-02,9.719983955763669137e-01,-2.345758466954807331e-01
1.507981441957567085e+03,1.417643633727771885e+03,1.519043487088243864e+03,1.405013638049604496e-01,8.279739882337175949e-01,-5.428797671467392449e-01
1.575555559022040597e+03,1.458263316597353423e+03,1.452374662264196104e+03,-1.676642888782618531e-05,7.799545810794352718e-01,6.258361216581299624e-01
1.376198030376725683e+03,1.458547300556023856e+03,1.396604219397847601e+03,-4.558654155853807416e-06,-7.284217996584301247e-01,6.851289526516832762e-01
1.419250572360843535e+03,1.370555696850762388e+03,1.637417882167673042e+03,4.924321569942840729e-05,9.069359879455259899e-01,4.212684551973698843e-01
1.604221470218556306e+03,1.615809941709579789e+03,1.480946946502658648e+03,-7.129901286596243386e-03,-8.472054790178760175e-01,5.312175080225939316e-01
1.498109436087220047e+03,1.578432967014464566e+03,1.516145764303907981e+03,-6.380194620202377230e-06,-9.462497500290747432e-01,-3.234368725566192371e-01
1.439631724500440896e+03,1.437209240892286516e+03,1.514080900070711778e+03,-2.249420205693368447e-04,-9.856624172882385571e-01,1.687292166359868339e-01
1.487101652962115622e+03,1.481212756331205810e+03,1.594408016142735278e+03,2.323411916230037205e-02,9.674029470022241783e-01,-2.521739753387801652e-01
1.571254571842385303e+03,1.492552863703329422e+03,1.371198692010559853e+03,-4.810905146287068401e-05,7.902358852009824242e-01,-6.128027769406230174e-01
1.368666061104460368e+03,1.602405876685769726e+03,1.528603717804709504e+03,9.931501808596348430e-03,8.274053945700381441e-01,5.615173000970008488e-01
1.498915104801642656e+03,1.500743786635235892e+03,1.495902355698888186e+03,3.264884473269859407e-04,-1.400120869487614383e-01,9.901497406521633238e-01
1.595541155377585255e+03,1.523814238949388937e+03,1.493424330150195146e+03,1.844035778651222923e-01,9.766183426059843464e-01,1.105076167333361725e-01
1.657901445387596368e+03,1.471655455157322649e+03,1.530686103659922082e+03,-2.668894894916887378e-05,1.467456987140253466e-01,-9.891742511795545978e-01
1.591773564589249872e+03,1.455291642544499155e+03,1.471200389196791321e+03,2.278612744475029192e-02,-8.963364609550071860e-01,4.427885964641867789e-01
1.631752131051195420e+03,1.488955991464627232e+03,1.480719535806823615e+03,3.733283845417671265e-07,2.141689363279183356e-01,9.767966352890599113e-01
1.533793197450613661e+03,1.572783259782840787e+03,1.420639989397802310e+03,-5.676736268836105742e-02,-9.424608853887369575e-01,-3.294616002597058890e-01
1.603179113361964482e+03,1.529334039241317896e+03,1.338312070467956119e+03,-1.019223659627683728e-02,5.460678286896464284e-01,8.376789628391896336e-01
1.533847211592287749e+03,1.384348375969021390e+03,1.329336791779896657e+03,8.583571909079152143e-03,-7.868510584963613885e-01,6.170832472498642973e-01
1.657613825996845890e+03,1.459726669221198563e+03,1.408561082889382760e+03,1.718429505646135589e-09,9.795428041053907409e-01,-2.012359185765509595e-01
1.422658934269684096e+03,1.445417204228061109e+03,1.432373255936269061e+03,-3.643443324856023013e-02,7.954500144311175136e-01,-6.049229757707929034e-01
1.431885978033156562e+03,1.457980059238674812e+03,1.538103096486761615e+03,2.370570976187015952e-06,7.437634314162112625e-01,6.684429355467550460e-01
1.558893672395495969e+03,1.421596206171634776e+03,1.532081361490641029e+03,-2.274886159611670761e-06,7.340361008220035871e-03,-9.999730591846431871e-01
1.318929623808927772e+03,1.340434963856848526e+03,1.407390612628036479e+03,-4.067670359431639626e-03,-6.988861853174858085e-01,7.152213321973974747e-01
1.380233699696650547e+03,1.574474461727905918e+03,1.530624702598836166e+03,-9.545858146657330216e-05,2.913966253833064068e-01,-9.566023194634645233e-01
1.347040820520337320e+03,1.440730870404466941e+03,1.489100091276607372e+03,-3.706753128247394224e-01,-9.128467811858580472e-01,1.712032900995179019e-01
1.409566425037468207e+03,1.622137138475697384e+03,1.489161956513888072e+03,7.560310200902731204e-01,5.178496553019410475e-01,4.003109181185569021e-01
1.488315305202475201e+03,1.323548040175083088e+03,1.440908022158339918e+03,1.014990046470952856e-03,-3.905658333303306806e-01,-9.205744400265466476e-01
1.563996980981315346e+03,1.465839570060476717e+03,1.373964736878147505e+03,9.337654392552222626e-01,-3.437640143423507100e-01,-9.954098098639607706e-02
1.541881735395879787e+03,1.433599151677432246e+03,1.414040222408503951e+03,-2.934790945020026784e-02,8.587885916944971720e-01,5.114888610578778305e-01
1.637551237816474213e+03,1.380175606500879212e+03,1.438085614045458215e+03,1.765765246821601048e-02,-2.545708653480833195e-01,-9.668929009074582748e-01
1.567461717617454724e+03,1.607842298511699028e+03,1.411879841737240440e+03,7.783731451204371765e-02,-5.048494298893282384e-01,-8.596908779380955101e-01
1.581070097048376056e+03,1.376786974424248683e+03,1.451755947126443061e+03,-3.136504861103396324e-01,-8.981416441196233835e-01,3.081638519697719736e-01
1.567852020859353388e+03,1.688430442508793476e+03,1.572110409888861113e+03,1.191770508229108992e-06,-5.013009256413239294e-03,9.999874347894451843e-01
1.460343149954108640e+03,1.471895812206891605e+03,1.485228415009947639e+03,-6.016963180638086328e-01,5.002331957604805313e-01,-6.226783203932132471e-01
1.592462341655356568e+03,1.406026174746476499e+03,1.473681425164352731e+03,8.101840119782198479e-02,1.690531857073984401e-01,-9.822713673265288659e-01
1.461343918856995970e+03,1.429956517984387119e+03,1.457713099935477885e+03,-4.608125356184020194e-01,-8.568986453779933177e-01,2.310335875285216556e-01
1.532101673196661068e+03,1.478376856597690448e+03,1.443981500538733599e+03,5.633462688033222081e-04,1.710013024264046277e-01,9.852706416053685912e-01
1.560009066588134829e+03,1.392865007134163534e+03,1.480870499155189009e+03,-1.278738679765635544e-02,9.967584225188577118e-01,-7.943003132698381319e-02
1.529845869598118270e+03,1.424574057877696305e+03,1.488997850145415669e+03,-5.264707257212996039e-01,4.047813985575498541e-01,-7.476500480440578800e-01
1.478901151984927537e+03,1.548788194021042500e+03,1.420879751200770215e+03,-8.114465137711027731e-01,3.669277405237481582e-01,-4.548830492806482106e-01
1.506282091949834921e+03,1.553555591520169173e+03,1.292934236991870421e+03,3.728451175764133790e-02,3.348034969176033604e-01,9.415500430857293157e-01
1.475535715177664542e+03,1.526116641159402207e+03,1.526997869290739118e+03,-4.747342884771419395e-05,9.345639315374950629e-01,-3.557952439472089612e-01
1.474131062135754064e+03,1.373918348486156901e+03,1.474502195441862114e+03,1.259592338225846435e-06,-8.213481958739222710e-01,-5.704271567282421795e-01
1.522129681767136162e+03,1.571195134944777919e+03,1.587157639047066596e+03,6.418408398158739932e-03,-7.875205502940546554e-01,6.162549690657138646e-01
1.675366063840481274e+03,1.515127941177315734e+03,1.358827537784631431e+03,-1.806306079809450182e-01,6.767947163377888709e-01,-7.136676365071392691e-01
1.637627494086623983e+03,1.543170870413410512e+03,1.447874079076859516e+03,4.192655705032020235e-09,2.420199860467024122e-01,-9.702712643142400450e-01
1.541940838005805745e+03,1.472319511886836608e+03,1.308723376964139334e+03,5.500486770157640530e-03,3.496507551675588354e-01,9.368639677434751345e-01
1.530905221926082959e+03,1.613223214556281619e+03,1.376170875472641683e+03,7.530944098813218378e-03,8.839307881724693949e-01,4.675571051773009801e-01
1.490469815702296728e+03,1.459166876492265374e+03,1.458023711081577403e+03,3.389295357369761950e-06,-3.960833801650281982e-01,-9.182145478838583674e-01
1.537290821937053579e+03,1.455027793033160378e+03,1.511696079580684682e+03,8.202929265876666466e-04,1.848764727154309229e-01,9.827614242306295100e-01
1.841073100331233491e+03,1.509855515776573839e+03,1.442595847599481658e+03,5.487170887284011089e-02,7.506535387505034462e-01,-6.584135177278187534e-01
1.621199914978355991e+03,1.382872987036492304e+03,1.315083922193795388e+03,-1.239522096926134465e-01,-5.770491928091996403e-01,8.072484616216804021e-01
1.591907831491342677e+03,1.561253401939360629e+03,1.503592946992499037e+03,5.599447826195023968e-09,9.191310090468217675e-01,-3.939520125707842158e-01
1.542997014096912835e+03,1.458610817748796762e+03,1.456396312740481562e+03,-9.516838141633905679e-02,9.872995474137208349e-01,-1.272107812068474786e-01
1.406491121000706926e+03,1.597731049789153758e+03,1.470080886142722420e+03,1.684649187512629858e-03,9.543763570833024845e-01,2.986016259123845384e-01
1.481576837069715793e+03,1.369595481435075044e+03,1.456211763095637025e+03,8.612945881528540903e-01,-3.945628340590665584e-01,-3.201434091120460845e-01
1.522660603897151532e+03,1.447810132725334597e+03,1.466074382444430057e+03,-1.373379928078610757e-02,-9.659674967028835102e-01,2.582986218911745291e-01
1.499658670479056809e+03,1.393730363555832128e+03,1.498245957677590695e+03,-6.189004436710795476e-01,6.465059558437900034e-01,4.460855185749124652e-01
1.502609795268124572e+03,1.443146698265261648e+03,1.372892060803542336e+03,2.850852880121065858e-01,-7.171573734557683544e-01,6.359337074389733724e-01
1.551676379132698230e+03,1.395426976588170646e+03,1.424351966527592822e+03,-2.915195914996446813e-01,-4.716459145752376902e-01,-8.322057792615766836e-01
1.589419438027508932e+03,1.535163537939380149e+03,1.514168186171869820e+03,1.691896539082571316e-02,2.870819324717449050e-01,9.577566040797592661e-01
1.677810163697792177e+03,1.498279419276964745e+03,1.403611653098188754e+03,1.126467459045308282e-02,-3.065690912720654415e-01,-9.517817498686299560e-01
1.606743123869334568e+03,1.565274912361307543e+03,1.515241085277497632e+03,-4.517089112407493209e-03,-9.485327079047878307e-01,3.166469610477272156e-01
1.414024833434596530e+03,1.584538751643281103e+03,1.579780761672026529e+03,7.362777746371276452e-03,-9.941319956346306164e-01,-1.079229575176859635e-01
1.502129768919988692e+03,1.498294942890253196e+03,1.464948073854374798e+03,1.391562169456486697e-02,-8.625508359445059892e-01,5.057790138828298643e-01
1.574104597931399894e+03,1.538401187762426161e+03,1.365383201446123621e+03,-2.334296511066750361e-04,9.247143806801615407e-01,-3.806616078276128801e-01
1.500921460437558153e+03,1.535854600044354129e+03,1.635904795515980823e+03,-1.766206327228717087e-04,-3.757711001382270655e-01,-9.267124953868155490e-01
1.602607881103319642e+03,1.472574980714441153e+03,1.491482470047948482e+03,-1.568146692637069906e-01,6.427547966355060538e-01,7.498502723249246271e-01
1.405417984286090359e+03,1.572927730553040419e+03,1.514888533123256821e+03,-8.332796865266453926e-03,1.119809350212175869e-01,9.936754171701018823e-01
1.607502309185817921e+03,1.474277918373343937e+03,1.500387790236911769e+03,-4.746389171993217748e-02,-1.427255956558088901e-01,-9.886235802000138406e-01
1.530020396016285076e+03,1.509063651359674850e+03,1.442354921534707728e+03,-6.486146935298490492e-05,9.996388029214002824e-01,2.687488580179709166e-02
1.551213814795532471e+03,1.485378401064906257e+03,1.340579789030078018e+03,5.552049629080075821e-01,-4.253645880543239222e-01,-7.147114217582458684e-01
1.423660349230179690e+03,1.560672991213500381e+03,1.526947907436830974e+03,-1.361623259828510877e-03,-9.990594427290729884e-01,-4.334023391691077531e-02
1.548192551183567048e+03,1.597919583733769059e+03,1.439902342809468337e+03,1.001542824092017253e-02,2.830027536944194066e-01,-9.590668029905564662e-01
1.468291310074150715e+03,1.460295153022168734e+03,1.480051750489733649e+03,-2.482965672896576413e-04,-7.401654684100184012e-01,6.724247301536379062e-01
1.616013921332418931e+03,1.420734433411275177e+03,1.434539038641372144e+03,-2.035550515203021424e-04,-8.333110758618358371e-01,-5.528043138501459453e-01
1.464317069001282107e+03,1.470562829653681092e+03,1.333884811930808610e+03,1.676555512814652815e-01,1.636414217956557240e-02,9.857098107329737013e-01
1.413400700117936140e+03,1.455606256934039266e+03,1.504178420968072260e+03,-6.823371529544474843e-04,-9.505769342503942454e-01,3.104883677162985633e-01
1.500290759280044995e+03,1.485274249639493291e+03,1.511343300723051925e+03,-7.051316733938287618e-01,3.546631610441786098e-01,-6.140059978330585366e-01
1.675398396054687282e+03,1.444609280496090605e+03,1.452011829299828605e+03,-9.716982044283728470e-03,-2.149648691832296843e-01,9.765734408005308786e-01
1.539301601736254497e+03,1.356736269321418376e+03,1.471054739263824104e+03,-3.183470095974350739e-02,-8.369066626215736493e-01,-5.464190606800088945e-01
1.506376805218576919e+03,1.507324241392806698e+03,1.576534911756553811e+03,-6.932980408884085177e-01,-3.106109102613390238e-01,6.502758560233625751e-01
1.587997215057033600e+03,1.342808228355130268e+03,1.474916499997279516e+03,4.473600348558548490e-01,3.141446088831191807e-01,8.373662065807530031e-01
1.540439375365883279e+03,1.506929294620562359e+03,1.466956181856764260e+03,1.757498134668928069e-01,5.525186643395805230e-01,8.147607799978827670e-01
1.551517582219604492e+03,1.532883437329780236e+03,1.340352911160831809e+03,-1.612418829447452226e-02,-9.297071361175182069e-01,3.679465336214036708e-01
1.540690192050484711e+03,1.361458060784726740e+03,1.480060096871177166e+03,2.508438487278706955e-02,-8.995676063916961951e-01,4.360606553752221504e-01
1.557386430842397885e+03,1.438171640210115584e+03,1.368549017205980590e+03,5.272419046674321069e-02,5.660854748201872289e-01,-8.226587354044384570e-01
1.457276397401699569e+03,1.664863960356699408e+03,1.573198092358107488e+03,-1.999619902298534509e-06,-2.041543829942563115e-01,9.789387048739242037e-01
1.663092287040215069e+03,1.523151267434791180e+03,1.365239683186425282e+03,-9.694954614496865269e-04,-9.389481966508367305e-01,-3.440571814171184961e-01
1.333419866919309925e+03,1.651456926964814556e+03,1.494136330700333474e+03,3.517123170796423309e-02,9.585567622117892039e-01,2.827223338864412461e-01
1.473269119451407960e+03,1.349617969032324027e+03,1.584731769512927485e+03,-2.811041722375126617e-01,2.163325361608409714e-01,-9.349762981749223378e-01
1.405174111340987110e+03,1.561031009598426635e+03,1.436101610690933740e+03,1.439633240262817587e-05,4.331172411147964953e-03,-9.999906203251561765e-01
1.519946794328472606e+03,1.379966040596214953e+03,1.494605881564571746e+03,-2.786344844525639792e-06,-8.056876902665143225e-01,-5.923405656759003213e-01
1.440721173494024015e+03,1.606387057856019283e+03,1.418429953363741788e+03,-3.428643531603579597e-01,-9.246031323300903937e-01,1.659912136750458789e-01
1.575628090420690114e+03,1.362790647951246228e+03,1.366805258633735775e+03,-5.086790064435682372e-03,4.345477847321013720e-01,9.006344138168737024e-01
1.438436762023870415e+03,1.488116701970626082e+03,1.452001121895257484e+03,-1.195097343972374916e-04,9.498957809517765138e-01,-3.125667785409032562e-01
1.534673399702629695e+03,1.618041502063759708e+03,1.469432230896513374e+03,2.636243647395519751e-02,8.670663983138839903e-01,-4.974946058583409325e-01
1.619644667656819138e+03,1.600330301537723017e+03,1.567882365538825752e+03,4.114335180488485456e-05,-4.002731693495926724e-01,-9.163958687194398989e-01
1.416272158080906138e+03,1.595887830704303269e+03,1.491304130179177491e+03,-3.181870940511542095e-02,9.953930360144216394e-01,9.044486489450555278e-02
1.444179850197949918e+03,1.400715196511864178e+03,1.629489295489394408e+03,-1.676392071459632468e-02,9.636879863782480404e-01,-2.665041010425776569e-01
1.556234133514286441e+03,1.523710895115449375e+03,1.597982122692582834e+03,4.080752409486871586e-06,7.215868288333924241e-01,6.923239476123268510e-01
1.457584181273938157e+03,1.479000991853261894e+03,1.589897679077442490e+03,1.007769950357257032e-12,1.727369186104931453e-01,9.849679979313804568e-01
1.593920680580709814e+03,1.591272062961675147e+03,1.321123066053223283e+03,3.863011719887843864e-01,-5.136488524240017117e-01,-7.661176547525827552e-01
1.711050549479727806e+03,1.568366783426961547e+03,1.391007725262895974e+03,-1.877203555835487425e-01,6.758805627335429111e-01,-7.127036782692898198e-01
1.655984766485617683e+03,1.433215534558690706e+03,1.384741949306924880e+03,9.610837227479396283e-01,-2.762571984278479054e-01,-1.954117659854759652e-04
1.431221717442097543e+03,1.436250569246869190e+03,1.458239225338933693e+03,8.358559849108358059e-03,-9.998978792157565687e-01,1.159161839783565476e-02
1.572237040503171556e+03,1.401777383683944890e+03,1.553031717910959742e+03,3.086295137453940775e-03,-4.036177694757931422e-01,-9.149224945019716060e-01
1.397622953973977474e+03,1.403006517960507836e+03,1.418386418503490177e+03,-2.634948634798563237e-04,-8.159133757680925303e-01,-5.781741033747294090e-01
1.568742280262117220e+03,1.588737120112920593e+03,1.393939074096357217e+03,-9.972350846825636661e-02,-1.311335471939608366e-01,9.863362584124700794e-01
1.396669130449100066e+03,1.411809422006796240e+03,1.469895389868241409e+03,-3.236800073607727923e-01,5.905442542716538012e-01,7.392487650186954085e-01
1.435094231217280367e+03,1.427058153488764447e+03,1.552950736008176818e+03,-2.079305724470193462e-01,9.538419394851345157e-01,-2.166804825569016713e-01
1.506529854114272212e+03,1.395370035064705689e+03,1.406047620689443193e+03,9.679820604406821349e-01,-7.569272089868339659e-02,2.393352098375116921e-01
1.666659791041129893e+03,1.384695233636850844e+03,1.402837850687873924e+03,-9.352511750766784315e-01,3.539847501759122439e-01,1.901593788719871348e-04
1.579880955718409496e+03,1.399825680461361799e+03,1.500815036371265251e+03,-1.791086463215066371e-01,-2.774504565022885560e-01,-9.438968889659236083e-01
1.614178777600463945e+03,1.564094373896974957e+03,1.492088806805513286e+03,-1.639602530949855475e-01,-8.448968784317761882e-01,5.091819912578102736e-01
1.421997075452369472e+03,1.482453564001357790e+03,1.420533886013694428e+03,-1.963817181006429491e-01,1.812765305995865384e-01,9.636249479178176092e-01
1.569811447048261698e+03,1.447626383171343150e+03,1.614331970068823011e+03,-6.946577602378256611e-02,-3.371180219869773786e-01,-9.388961312163351947e-01
1.365085867623528884e+03,1.447718458857502355e+03,1.506528927166064477e+03,3.043732753271255476e-01,-3.013328402903862613e-01,-9.036345658667370717e-01
1.516397116608492979e+03,1.325315260061578556e+03,1.431315620807903315e+03,4.945771463106640252e-06,-3.130528217025473348e-01,-9.497357162914388251e-01
1.333980550879927250e+03,1.663903687265901453e+03,1.523006907311683108e+03,1.159433011499094862e-01,8.154503527720713407e-01,-5.670959998821767378e-01
1.291853471210548150e+03,1.341188178956954289e+03,1.489473158708484334e+03,6.008428388172695062e-02,3.539861171702064491e-01,9.333186528089861822e-01
1.603955070628733893e+03,1.567034771109710618e+03,1.579722908513927223e+03,2.921221558708061907e-04,-9.660552282206871233e-01,-2.583354615458784420e-01
1.406639753853188950e+03,1.416497699071146371e+03,1.608077705268379077e+03,2.280949807472579236e-05,9.626224900659920980e-01,-2.708467114418702804e-01
1.536498599210041903e+03,1.460966342123973618e+03,1.526235741717478277e+03,-2.384294205873362105e-01,-4.443249720421552779e-02,9.701428578258897151e-01
1.519928858660344986e+03,1.594652027101246858e+03,1.366080130884902474e+03,6.107465841990494804e-01,-7.333601015332005257e-01,-2.986160936192272519e-01
1.487490145438641775e+03,1.594905618972244156e+03,1.452015246924280746e+03,-3.271009008964502751e-01,-9.195744737408271252e-01,2.176873626947865292e-01
1.526370783888945198e+03,1.540867017388339036e+03,1.421233149189183223e+03,5.081733655729921140e-02,-6.794188860890575388e-01,-7.319887810142492457e-01
1.506958526958170069e+03,1.435994777594662992e+03,1.598317742144444537e+03,5.465819390243291387e-02,3.160490241795197996e-01,9.471670898814513739e-01
1.421012769232127539e+03,1.516142907772734134e+03,1.423129521929698512e+03,-6.465026891468614867e-01,-5.810002427792091417e-01,-4.944421005703059091e-01
1.564479669572720240e+03,1.596850913655891418e+03,1.487196274850097325e+03,2.989584687782664493e-02,9.500824086887540432e-01,3.105634476876391048e-01
1.479782748950034375e+03,1.269373134981970679e+03,1.559329463963388662e+03,6.481257040836559125e-02,-8.394567165868126457e-01,-5.395477288380967629e-01
1.818104092666894303e+03,1.557562480934938321e+03,1.390798272760409873e+03,-8.211627915599690672e-03,9.564850003242129084e-01,-2.916659275982819710e-01
1.500434004818637504e+03,1.418653129406321796e+03,1.407427550266412709e+03,-2.243108824818723646e-01,-8.839927157248925749e-01,-4.101725326561163620e-01
1.552745808952550078e+03,1.458682739853958537e+03,1.402825605306669104e+03,9.260675203397217281e-02,2.308906975697992414e-01,9.685625820015194565e-01
1.466067658927109733e+03,1.617281949427950394e+03,1.562261456997388450e+03,-7.970091208068115864e-07,-1.294888657157277079e-01,9.915808760030716540e-01
1.553556824378205192e+03,1.596489508431988952e+03,1.561536760697816362e+03,1.132994755966269806e-02,9.985164929870679051e-01,5.325829063256101725e-02
1.491439831290251732e+03,1.479680020330356228e+03,1.467767189779401406e+03,-1.954471759501222707e-04,9.094975201174010371e-01,-4.157093007146932528e-01
1.480571444846407985e+03,1.547738358520128713e+03,1.446328392827619609e+03,3.598319393160338553e-01,3.564287064837275837e-02,-9.323360773991348216e-01
1.671290911244338986e+03,1.341866369467217510e+03,1.376966028333358054e+03,3.260230707135267688e-05,-1.805960471119687216e-01,9.835573530326644498e-01
1.468926336353863462e+03,1.402131552328333328e+03,1.395383779464274539e+03,4.571240649760909947e-06,9.918908304059380621e-01,1.270928028478496841e-01
1.511230493816270155e+03,1.440371042284777104e+03,1.495740570383869454e+03,-2.374891182237921505e-01,2.601713292269276501e-01,9.359005279267553767e-01
1.611275723278848318e+03,1.455660232893930242e+03,1.522753671825327501e+03,4.062738814458961151e-02,4.958220912732096419e-01,8.674732671028022590e-01
1.571905183780955667e+03,1.543928387869139897e+03,1.517887796028263438e+03,-8.794868049959325695e-02,-8.876357188540624499e-01,4.520706363089868618e-01
1.687048290289497118e+03,1.541498915615519991e+03,1.245480140121426302e+03,-1.342195959381170230e-03,-2.403315451658646074e-01,-9.706899334536207569e-01
1.613338176952136564e+03,1.440981950415464325e+03,1.497131034413108864e+03,-1.114777188128260321e-01,-9.856191827276954420e-01,1.269942709238419953e-01
1.480607766276983966e+03,1.437694668494970529e+03,1.441686851818498553e+03,-6.387762996996743364e-04,-9.996477262758709514e-01,2.653328694904609486e-02
1.539450918932934428e+03,1.427659079463963508e+03,1.549387911869433992e+03,2.289827757925669283e-01,-9.372022076556906223e-01,2.630948694969758583e-01
1.584529201426387090e+03,1.454203915055387142e+03,1.404369634043733186e+03,-1.096769714388197295e-03,9.884329138570192574e-01,-1.516547786926474295e-01
1.567342097480607890e+03,1.347921531508364069e+03,1.460708786194388495e+03,-3.457369523711383978e-05,-9.200775976574867565e-01,3.917361523953177826e-01
1.588493362663664357e+03,1.534778374060771739e+03,1.423188353638924355e+03,-3.846260643447888558e-05,-1.122244521466317368e-01,9.936828824433961982e-01
1.539384864891907682e+03,1.390385547065979154e+03,1.412928066676880007e+03,-1.863331605983217841e-04,-7.178955594744003132e-01,-6.961507961403843314e-01
1.543465052319714914e+03,1.525600010511481742e+03,1.657277798669110780e+03,-1.079735158859243972e-03,8.500525319686916825e-01,-5.266968075331416310e-01
1.550197721809361155e+03,1.404446349197585050e+03,1.485313223771779803e+03,-5.512451857730543692e-01,3.972351528429057255e-01,-7.337117816335677611e-01
1.493831978586297737e+03,1.449514611862951597e+03,1.410547735834893274e+03,-1.105036260092376148e-02,9.445530902594699851e-01,-3.281727428773963950e-01
1.584195086160402298e+03,1.404020268231090768e+03,1.485900217336494734e+03,2.771560435309280626e-05,-4.341943617868837535e-01,9.008192135075305806e-01
1.378673390710127705e+03,1.684126937307767093e+03,1.509984874819515653e+03,1.642339594759474608e-02,6.829399416854807781e-01,7.302898795109930008e-01
1.479671857967536880e+03,1.547008995872983178e+03,1.362245297389937150e+03,5.196688506905641769e-02,6.440108841818864560e-01,-7.632492541178697021e-01
1.444455251000661974e+03,1.362293160288423451e+03,1.551983368489240775e+03,3.935569388325543252e-04,9.865356998723352477e-01,1.635455838301287379e-01
1.427663761085613032e+03,1.398480762894310828e+03,1.446290977108999186e+03,5.205771331098570966e-03,1.786201467730229309e-01,9.839043363618397153e-01
1.588222146163855086e+03,1.471245932360699271e+03,1.373544263197351484e+03,-2.334375641884364971e-08,9.883955760195491935e-01,-1.519018936846506795e-01
1.482005265076674050e+03,1.471043145682128852e+03,1.467138314167453927e+03,9.263123528348182756e-03,9.245302837833144771e-01,-3.809959959238973792e-01
1.580550239215316651e+03,1.587937484846853067e+03,1.402004128251834572e+03,1.357991291842639318e-04,3.786103035695276842e-01,9.255561677119258368e-01
1.505513117520241394e+03,1.415688996305997080e+03,1.544388972259628872e+03,9.841239636276080671e-02,9.818317740740177824e-01,-1.622386133471491743e-01
1.537845129804038152e+03,1.558099552731806398e+03,1.451555332008185587e+03,3.060854084312203752e-02,-9.010886746335982078e-01,4.325532541485733184e-01
1.652908957617203214e+03,1.440474936357551087e+03,1.396131000592092732e+03,-8.568118614731012883e-01,2.761150192118667634e-01,4.354697810464345231e-01
1.401948611010687728e+03,1.528533946142445302e+03,1.485110671766844689e+03,5.625207465894769068e-03,2.646605006720418873e-01,9.643252441085371496e-01
1.439986179706776284e+03,1.505282392681008332e+03,1.390396268110447181e+03,2.417900246031078615e-01,-9.238196130599201084e-01,2.968078612979245801e-01
1.624909817802484895e+03,1.547129406267585409e+03,1.305186550545070986e+03,2.602093093579426093e-03,9.820182475923062704e-01,-1.887680865699188082e-01
1.445676772101270217e+03,1.667326542464196791e+03,1.521901863832813660e+03,-4.480657883782082976e-04,3.906837476428571820e-01,-9.205248549413435066e-01
1.607711552605545194e+03,1.644187486611246186e+03,1.546521860572939204e+03,1.026228318598185500e-03,-4.164459740761125572e-01,-9.091598855708691307e-01
1.496308386205380430e+03,1.478228264067925693e+03,1.464865862454860235e+03,2.685349404550510521e-01,-9.338700875804578638e-01,-2.361686797127644510e-01
1.420321368709474882e+03,1.387631072849743305e+03,1.449566437328354596e+03,4.434365476664002332e-08,-8.498550839260430312e-01,5.270164478695673616e-01
1.504464134109519819e+03,1.293454977679660715e+03,1.500577448619007328e+03,1.657312457392880656e-04,-1.617421075636661099e-01,-9.868330472648438878e-01
1.484189955058880514e+03,1.511659567178118778e+03,1.549949248172577200e+03,-3.233688026994431253e-01,9.459824394626114019e-01,-2.344870292991637489e-02
1.592696884731206865e+03,1.454329140830610186e+03,1.508236324899272859e+03,-4.967511731702905359e-02,-2.024454750027922245e-01,-9.780328278592868019e-01
1.494104377412638542e+03,1.450095445689953976e+03,1.580845152612889251e+03,1.065795330816165197e-02,2.263611778451135037e-01,9.739851257569871468e-01
1.461643143927285564e+03,1.421724412921015301e+03,1.500384400468778495e+03,2.096167187210352598e-02,-9.993894852968460141e-01,-2.795111787445617169e-02
1.563104153667655737e+03,1.522021855254970660e+03,1.527351986520531000e+03,3.895391969897504109e-02,-8.178463833729272547e-01,5.741166130185648697e-01
1.620951227126821323e+03,1.452418561784541225e+03,1.425290398827781928e+03,-1.150462405876638144e-01,-8.485141912864851976e-01,-5.165152753908518468e-01
1.361129599935037277e+03,1.577243062960122870e+03,1.404827716235579146e+03,-1.157921946063269480e-01,6.886136753375947384e-02,-9.908835853568425112e-01
1.539018593520803734e+03,1.503027533914230844e+03,1.378502121527950749e+03,-3.210430336178635938e-03,3.910241794457490205e-01,9.203748063837011717e-01
1.392978660829415958e+03,1.412729840657187879e+03,1.472884668556494034e+03,-5.829952607290147526e-01,5.668324028508328061e-01,5.820803664837524982e-01
1.481102403387888671e+03,1.469399638251664328e+03,1.420163695582831451e+03,9.605712542513885745e-06,9.880355097128435959e-01,1.542265588483762162e-01
1.480240010138099933e+03,1.411043191682913175e+03,1.482704652071129203e+03,-2.098869020469130431e-01,9.583416873965004967e-01,-1.937232524690251367e-01
1.324656854078412152e+03,1.749785839888062128e+03,1.467356816091514020e+03,-2.199296265796275070e-03,8.189173554655656551e-01,5.739072468728894094e-01
1.383720428059297546e+03,1.376757224769231016e+03,1.359642736205671326e+03,-1.411323137546435598e-05,9.868363983449979226e-01,-1.617217446798334402e-01
1.514312123638173716e+03,1.429278764034112328e+03,1.510859653222775933e+03,1.873861139890523530e-04,7.488594060639955918e-01,-6.627288697770182813e-01
1.333431355268180369e+03,1.584313959839884546e+03,1.329452864089647619e+03,-1.963235427856213915e-04,1.252420761036059649e-01,-9.921261935007689159e-01
1.596959611019418162e+03,1.605344297909785837e+03,1.478899005446404090e+03,1.778204418980927452e-03,6.644832917791040350e-01,7.473010055763678050e-01
1.617644724717049485e+03,1.412826219519660071e+03,1.442303343803350799e+03,-9.773320123513949448e-06,-4.945438138551785379e-01,-8.691527000947858461e-01
1.325258641199237218e+03,1.339090728856077249e+03,1.458177382599089242e+03,-9.039254400975529902e-02,-6.960308534204427966e-01,7.122992623007934343e-01
1.535963407561439453e+03,1.473026113315478824e+03,1.552259834012187184e+03,-2.279131906544503143e-04,6.144531115304561197e-01,7.889533077350764367e-01
1.573970527330859113e+03,1.387257754395240454e+03,1.566210227775193289e+03,3.761644211097852722e-06,-2.445224817727812416e-01,-9.696436231386921234e-01
1.360975048007538135e+03,1.413968423157882171e+03,1.478024368733051460e+03,9.284319961266179755e-02,-6.157786989871797539e-02,-9.937747764078237456e-01
1.556692825387691300e+03,1.378692322678344681e+03,1.604511328546794175e+03,-1.285414938898406636e-03,-9.878232816159873142e-01,-1.555747794658779160e-01
1.579824265711039970e+03,1.426822994752750219e+03,1.470337040749082462e+03,1.545690534049364018e-01,9.253299890657158411e-01,-3.462265429818229823e-01
1.576589086766644641e+03,1.434437050058069872e+03,1.500877241097986598e+03,-1.069229990293724293e-02,9.959552896542771538e-01,8.921174660576250415e-02
1.431540887886003702e+03,1.423673318352190563e+03,1.400222315897488897e+03,1.367497560003128332e-01,-9.904443491825398738e-01,1.787443443105393021e-02
1.639637520003524969e+03,1.565449821507319712e+03,1.430479914349868750e+03,5.721202837401446681e-03,9.990590375670400647e-01,-4.299194452119022708e-02
1.713927776896578280e+03,1.607494248682563239e+03,1.371417050598142168e+03,-6.913053196121485104e-03,9.270859030918191523e-01,-3.747851891202928498e-01
1.493116598974067301e+03,1.585475597583803165e+03,1.456836257355256976e+03,1.892049962021185618e-03,3.762281490119250837e-01,9.265251211046583446e-01
1.541551338704038471e+03,1.304390192220188510e+03,1.387318117346350164e+03,4.517106865552824625e-03,1.955986450106776964e-01,9.806736285918736806e-01
1.517949703796761469e+03,1.541599984311732669e+03,1.482865006147635313e+03,-3.787847618549240848e-07,9.718737869092396453e-01,-2.355023191362466406e-01
1.629620183630930342e+03,1.394964345484286468e+03,1.534198810414449554e+03,-6.232268276064335246e-04,7.758173730424312575e-01,6.309572214293631687e-01
1.535341413427875978e+03,1.592411677151746972e+03,1.360388340146313340e+03,7.927500078048330579e-05,9.989583089882996259e-01,-4.563212266278222212e-02
1.596140599883894538e+03,1.535472125114491064e+03,1.419147971555535833e+03,4.951273070823691835e-01,-4.443422155115074323e-01,-7.465982489235334363e-01
1.457171615113473763e+03,1.579084477951922054e+03,1.429728570459426237e+03,-2.241243606202863215e-08,1.712586906323264324e-01,9.852260963265745408e-01
1.354900773268259400e+03,1.609081460254130661e+03,1.478873382725571446e+03,-8.209897013570775001e-04,-7.535718425511629404e-01,6.573650462946410977e-01
1.578319719394957929e+03,1.324581681154518265e+03,1.529345894266569076e+03,1.211256364764582288e-01,7.399222092433136444e-01,6.616975929052989480e-01
1.556953139221328001e+03,1.440739814029161153e+03,1.467684355790325753e+03,4.313088286404203437e-05,2.241591798581804851e-01,9.745525435937433256e-01
1.428955844650639392e+03,1.500868675659606879e+03,1.366007302436969667e+03,-8.920097838970991733e-03,-3.363182146609398626e-01,-9.417061592353642707e-01
1.618567871837200755e+03,1.438811220605750350e+03,1.448222367856386882e+03,-9.309130135573528975e-02,2.140415057905843410e-01,-9.723786522804760413e-01
1.453029752884408254e+03,1.392755638142399675e+03,1.394265256209232803e+03,-3.265087815807571348e-02,1.386657905875672558e-01,9.898008479872258958e-01
1.448691787579040238e+03,1.481330969496616490e+03,1.472615616927779683e+03,9.923817179199919680e-01,8.931084043416907814e-02,8.486518555395883290e-02
1.501423413369317586e+03,1.363315123715495247e+03,1.405574091411576092e+03,-1.330782909631014581e-03,9.981698910165041072e-01,6.045740388858895226e-02
1.469078495133127490e+03,1.465668038423811367e+03,1.449604594743149391e+03,2.872974524117425377e-01,8.571737207431503469e-01,-4.274498640835744379e-01
1.541610273313066273e+03,1.420345163056475258e+03,1.294139661383593648e+03,-1.792205121565818293e-01,2.333953555839784477e-01,-9.557230854249366692e-01
1.359958171639496868e+03,1.719575827009728755e+03,1.431732404991760632e+03,9.510003985311725019e-06,-8.329909013275075269e-01,-5.532866871840912415e-01
1.748013540251011818e+03,1.550688680286515591e+03,1.414565301219625098e+03,3.327259154593452352e-04,2.468884199860709242e-02,-9.996951287138658993e-01
1.545067715455282951e+03,1.381134683474820577e+03,1.472474567542666819e+03,6.543724004206881828e-06,7.728370069887399163e-01,6.346045702528985144e-01
1.595065026102994807e+03,1.446015336567541226e+03,1.546014245222407453e+03,1.383356005300468900e-05,-4.785136452492709802e-01,-8.780801165718806756e-01
1.327864844154269576e+03,1.550613017380948577e+03,1.369090543390381072e+03,4.138398189372808345e-01,-1.399890277826867091e-01,-8.995219154430962316e-01
1.443651141524061813e+03,1.497445413587371377e+03,1.520243512499647295e+03,-7.289974382898498615e-05,4.254778007970868581e-01,9.049688589749935730e-01
1.550021164372296425e+03,1.568997463576827158e+03,1.417632428510860564e+03,-8.052987664732132178e-02,1.118599691336557983e-01,-9.904555953058091777e-01
1.537884024940042991e+03,1.451237932792220590e+03,1.477016898149187000e+03,-5.181484857488165632e-03,7.906260594714891177e-01,6.122773769291633972e-01
1.477166888063381521e+03,1.479514566854210670e+03,1.599514583753023999e+03,6.735562379425039103e-02,6.428597699264561038e-01,7.630167338619718853e-01
1.566197720175662653e+03,1.491412193203019342e+03,1.416611183086789424e+03,-1.662966859814505871e-01,-9.415862074010132865e-01,2.928494942180417393e-01
1.433402494847299749e+03,1.390373272817600991e+03,1.445671080523614364e+03,2.529917392942788168e-01,8.597396437422959448e-01,4.436698376346150940e-01
1.488707438005332961e+03,1.443904020203294522e+03,1.470025068652173331e+03,2.986470119705601145e-06,-1.579746546897506654e-01,-9.874431672084905687e-01
1.529846996100072602e+03,1.475175246996961732e+03,1.460734441481222120e+03,4.419937561655332137e-03,-3.348957225354441403e-01,-9.422448297440606524e-01
1.605249605497508355e+03,1.405567600946099219e+03,1.509454683137292932e+03,3.571535943338982610e-02,-9.359883509889090902e-01,3.502145341267356438e-01
1.497058016087808710e+03,1.569559704072931481e+03,1.415432364915208154e+03,-4.667878978054095440e-07,9.756002820758079563e-01,-2.195542976427155568e-01
1.526303069437874456e+03,1.483121599776916128e+03,1.468922995451657016e+03,1.320294918243917681e-08,8.795424480228993813e-01,-4.758204305469503903e-01
1.518829976715799830e+03,1.406954780052417391e+03,1.418663714260057077e+03,-3.916181036446870069e-04,2.408007924521109455e-01,9.705744819382469135e-01
1.574733432183698142e+03,1.381266782156455292e+03,1.668703992371955565e+03,8.551402681107920012e-08,9.930090287102927293e-01,-1.180384212866041754e-01
1.462447278639308479e+03,1.651799340584224183e+03,1.488248803908529226e+03,-2.600205789469473561e-01,3.696276075453973076e-01,8.920564613657366859e-01
1.419971384199954400e+03,1.290525118953584524e+03,1.515294164319795982e+03,-6.224330079089635155e-03,-9.522052856218421457e-01,-3.053954023047704691e-01
1.553508222104721654e+03,1.497157644674561880e+03,1.457478753752454395e+03,-6.291444124122312024e-04,-3.171461205233968017e-01,-9.483764771514883174e-01
1.485123683095024489e+03,1.553726411183005894e+03,1.608029816313578749e+03,-3.023898584095020547e-01,2.488941851510470815e-01,9.201152417654419047e-01
1.387746726941815950e+03,1.607498347637318602e+03,1.432489871801371237e+03,-3.138180672348810161e-04,9.958323566208311384e-01,9.120207796548591983e-02
1.524686475430509518e+03,1.372500273324533737e+03,1.423711389430614190e+03,-7.574391759468116492e-01,2.731063552593798183e-01,5.930419997419681399e-01
