x,y,z,nx,ny,nz
1.392389626825829509e+03,1.551278042883926901e+03,1.494352428764741262e+03,-1.716349790971983744e-02,6.403378674043773700e-01,7.679015756641712764e-01
1.390231459965303429e+03,1.506784925808513890e+03,1.425643733969751111e+03,5.421083700934925531e-02,-9.253904790308585815e-01,3.751181766720773081e-01
1.431846180132695281e+03,1.664784907125905875e+03,1.458505293940963156e+03,2.915114262234289413e-04,-4.339462146930356257e-01,9.009387314211073639e-01
1.517819253900234344e+03,1.523474205520639998e+03,1.532149396026910154e+03,1.274851997898589738e-02,-9.266779458904431666e-01,3.756400668706871837e-01
1.481394670740497077e+03,1.402908830105031484e+03,1.490720049021215573e+03,9.015553957447198785e-01,-3.395786425817262644e-01,2.681123158415772423e-01
1.522945445958134997e+03,1.546230503099848193e+03,1.372464780697562674e+03,-9.531239415233950033e-03,9.924187870994375382e-01,1.225320630989737009e-01
1.546564937396763298e+03,1.363902143199912189e+03,1.476455558563086697e+03,9.117478820146929230e-01,-7.590703439065676905e-02,4.036755154474163110e-01
1.411007138951879369e+03,1.590203211032549916e+03,1.356070097292566288e+03,6.523250924937638005e-05,9.670840766150025081e-01,-2.544570386183645505e-01
1.410332923950599252e+03,1.634135285091748983e+03,1.373117434668817396e+03,2.500368502618428163e-02,-7.828895875727623910e-01,6.216580325269362994e-01
1.528961982864219863e+03,1.622610256605102904e+03,1.431308999324768820e+03,-2.276929768693620548e-04,-2.268012604406843824e-01,9.739410333374527440e-01
1.365746835886805911e+03,1.601142158780559157e+03,1.340128560414091908e+03,7.701339858477863620e-01,-5.179832459253166377e-01,-3.722727505242287571e-01
1.328622172526884469e+03,1.663341093091907624e+03,1.406889548965291397e+03,-8.252247183674864539e-01,2.687455066445940122e-01,-4.967695812483321482e-01
1.414058435728259610e+03,1.456364037674804877e+03,1.295932628328018382e+03,-2.333376516788939203e-01,5.204004237198025518e-01,8.214237270137922931e-01
1.316772774790628773e+03,1.528218110539156669e+03,1.382551187709890428e+03,7.953285318353657818e-01,1.897191858217562033e-01,5.757248969601120869e-01
1.442110137865671732e+03,1.519106457112066664e+03,1.350510449306592591e+03,-1.249196901081623401e-01,3.014566810042416667e-01,9.452613080525339440e-01
1.375541944466868927e+03,1.528395070899280654e+03,1.356378718981734892e+03,-4.753198381041414604e-05,-8.898410850742217715e-01,4.562705787738698393e-01
1.335454075925813186e+03,1.638902051242688913e+03,1.576757104398606771e+03,8.067525921826970746e-04,5.243389988733109242e-01,8.515092268500613626e-01
1.457838898875136010e+03,1.587220859054391440e+03,1.430170260690303394e+03,-2.142826872046990627e-01,-1.255228568068395278e-01,9.686727736358562435e-01
1.358476661946534932e+03,1.416444595345865082e+03,1.381760825494577603e+03,-3.508444453609110142e-02,-4.638920798421319880e-01,-8.851967126076186743e-01
1.540405911071024775e+03,1.446051076770309464e+03,1.370022637868379206e+03,4.232213952830748597e-05,4.157118157790642976e-01,9.094963905538657745e-01
1.475680394632763182e+03,1.539373502812978359e+03,1.555939575585952753e+03,-3.353827667814439084e-01,-8.565864543049250823e-01,3.921454399165445470e-01
1.387893689016327016e+03,1.530703414878970989e+03,1.453275374424036727e+03,-4.373835813279379134e-03,9.358326956689647647e-01,-3.524174162512934139e-01
1.474501274780714084e+03,1.464513966844412380e+03,1.496599450705573190e+03,2.355003804213013502e-02,9.912986858602116369e-01,-1.295079577478999155e-01
1.330434873830534343e+03,1.550827669648981782e+03,1.510057032684562728e+03,-1.282419892105941014e-04,9.594620422601760623e-01,-2.818378487994905868e-01
1.369775444898045180e+03,1.574425365682401207e+03,1.487769690862423204e+03,-1.973340904656867290e-03,1.077052634319856372e-01,-9.941809101741597710e-01
1.399148440590230166e+03,1.601266024878396593e+03,1.392284395814728896e+03,3.915574670826274528e-01,8.930129812851473892e-01,-2.218345447130584680e-01
1.457856862606668756e+03,1.577641110020575525e+03,1.374516486302306703e+03,3.410952379906996290e-01,8.684194675914304051e-01,3.598634003733702791e-01
1.351866404626863641e+03,1.463459683813072616e+03,1.522664337317985201e+03,-3.096229579149360916e-09,9.930254217199540046e-01,1.179004317969510746e-01
1.337525510582520837e+03,1.525852479095068475e+03,1.421222814793855605e+03,6.964809856341612759e-01,6.924175086370246701e-01,1.883407294850560909e-01
1.442868208901371418e+03,1.543957161116150701e+03,1.402177536495706818e+03,4.870338226449913432e-01,-1.656197238237884159e-02,-8.732260627527171915e-01
1.470423816429488397e+03,1.675160948683324932e+03,1.413940175333028037e+03,3.868171993279481777e-03,-8.093630730069180101e-01,5.872958822418464786e-01
1.440434289206902122e+03,1.587921576869809087e+03,1.354561416044261932e+03,-8.128221338375886396e-02,-9.554954585029762359e-02,-9.921005423218148822e-01
1.449610215415144467e+03,1.534014425901144250e+03,1.289785035263412055e+03,1.843969482427749301e-02,8.977885707163195672e-01,-4.400405208000005008e-01
1.496246231772367082e+03,1.806011494593820771e+03,1.494742242547147271e+03,1.840980554223105026e-01,-2.243223973035058383e-01,-9.569677988614517794e-01
1.392686023909927599e+03,1.643040608539124150e+03,1.532390343620347949e+03,-2.109796483657865040e-02,-4.018922846261600013e-01,-9.154438636190206369e-01
1.460275828612685928e+03,1.827490338115069335e+03,1.526748545954135579e+03,2.282010844623608703e-01,-8.120767266027650866e-01,5.370806784463021399e-01
1.508558831789743181e+03,1.582101926896033319e+03,1.514172895410045612e+03,-2.350952252815217969e-02,-9.937378467518598324e-01,1.092354991908559697e-01
1.543852839948778865e+03,1.459624333407491577e+03,1.548550769120581435e+03,-6.584097676783484676e-01,-5.871324830198526579e-01,4.709267726607668791e-01
1.528254305716354793e+03,1.424917196782626434e+03,1.392192368723850223e+03,9.963145829694758718e-03,9.578767544231201470e-01,-2.870067230240538891e-01
1.555422042131674289e+03,1.817341010476870451e+03,1.454583762882969495e+03,-2.098975972443929087e-03,-5.015218237329349682e-01,-8.651424475885217680e-01
1.385468545347116105e+03,1.668305870005928000e+03,1.515091752762768010e+03,-1.299107945506927653e-01,8.296359170420652962e-01,-5.429801383227376155e-01
1.337980668398723537e+03,1.600244908602986243e+03,1.396001592270764831e+03,-5.062853376719392839e-01,7.002722179038586292e-01,5.032831982993485331e-01
1.463837850153171075e+03,1.409996904761545693e+03,1.467030075647220656e+03,1.140293801154074749e-01,9.927693129294664631e-01,-3.750189029970341092e-02
1.459570752137511818e+03,1.433487298475692342e+03,1.444484398685635369e+03,7.817577401983169224e-04,-4.799431749789082047e-01,-8.772992292519131707e-01
1.502079040835416890e+03,1.513015776835094357e+03,1.447350182218181544e+03,-4.918186924705070066e-03,-8.458927574755531476e-01,5.333303425530735442e-01
1.499443569466967119e+03,1.420007891601031815e+03,1.572608230895679753e+03,-2.390506920315928208e-01,9.568590968737250568e-01,-1.651527637347187660e-01
1.472645474384314639e+03,1.575259041243739375e+03,1.432319536995002863e+03,2.938153595159143094e-03,2.492837625532563495e-01,9.684260286571932941e-01
1.317990716063200352e+03,1.581062169430254926e+03,1.420775113105269838e+03,1.977592780727392002e-02,-9.696654051497189952e-01,2.436347978741806308e-01
1.513017361518216831e+03,1.515032358626813448e+03,1.505218661257394160e+03,7.133218139893363530e-05,-9.669715372050293745e-01,-2.548843681889150226e-01
1.569130729669936500e+03,1.448954109650645023e+03,1.521883809647844146e+03,-2.086540018814178188e-06,9.279954852421656852e-01,-3.725914375905646780e-01
1.368811566632538188e+03,1.499784633021277159e+03,1.420816577306900626e+03,-1.481311588290599134e-02,8.266994326851612174e-01,-5.624487706412668597e-01
1.451700623469344237e+03,1.577065606216229980e+03,1.449788810809608549e+03,3.315672277787780065e-01,-4.945603161485214727e-01,-8.034135094421617218e-01
1.458508287896914453e+03,1.526888974987833080e+03,1.585373394711496758e+03,4.923715505798051829e-04,-4.518257030141678565e-01,-8.921060988839888406e-01
1.500280904881977904e+03,1.478533407361212767e+03,1.380472237164678290e+03,1.699036265569454571e-03,-4.828325099824795630e-01,-8.757110714041402844e-01
1.440060434892774310e+03,1.494360311535844630e+03,1.544958527369401736e+03,-2.848970680383969625e-02,3.419851931249057730e-01,9.392733703717742744e-01
1.567796375629301565e+03,1.573607780621085567e+03,1.346233051554719623e+03,-2.271790976831203068e-01,3.098758779170175948e-01,-9.232370214961275190e-01
1.457661561886098525e+03,1.533984417367653350e+03,1.419516766993671126e+03,-1.090396291842473872e-02,-8.348616002473183695e-01,5.503518983570062639e-01
1.558122588647494240e+03,1.503959243583298530e+03,1.500726538092981627e+03,8.799209971770980410e-01,-4.726356470958195111e-01,4.852405404721893412e-02
1.414344677111492047e+03,1.305644842345735697e+03,1.611218807910310716e+03,-1.217543408486208012e-01,-5.459528624769112159e-01,-8.289218011596658497e-01
1.450994887676498593e+03,1.512641157829746589e+03,1.384660119486962003e+03,3.498132728314914258e-02,9.557928912084706630e-01,-2.919524890403605855e-01
1.344539619010969091e+03,1.618455579434096762e+03,1.459144648022397178e+03,-5.844853415092229583e-04,-9.176713696418395960e-01,-3.973397988077152498e-01
1.493501095347240835e+03,1.527468486429331506e+03,1.373246710023908463e+03,6.649711056785514811e-05,9.780209845107148414e-01,-2.085064733643212376e-01
1.580823713914921200e+03,1.451776240370577852e+03,1.340746135220389078e+03,-5.966954396454384005e-06,8.418008088479692619e-01,-5.397882901539272638e-01
1.466389924981982631e+03,1.564294973210789294e+03,1.524910841483455670e+03,1.460609283698666994e-01,-4.889331340396307346e-01,-8.600061602348655354e-01
1.344100644769118844e+03,1.470515805507992354e+03,1.406040434924534111e+03,-2.684307364790311512e-01,4.427343394004702596e-04,-9.632988859640758683e-01
1.402164808714660012e+03,1.503403835774812478e+03,1.398905472097807433e+03,-8.810585244882034317e-01,1.310736675786627337e-01,4.544838502016854687e-01
1.449025986344259536e+03,1.607999087509619812e+03,1.498929747328592612e+03,-6.599535255164553638e-01,1.725245656641136160e-01,7.312295251156167852e-01
1.463321542021725691e+03,1.562517245459992637e+03,1.432205283647980650e+03,3.398904148296235106e-01,-2.850177788676540036e-01,-8.962362253537263790e-01
1.418703226009196214e+03,1.419552948844467664e+03,1.459472376214320548e+03,-5.833730933672644811e-05,-8.390384855777858197e-01,5.440720690460906228e-01
1.476961520504743930e+03,1.377213317999002129e+03,1.540677886540790496e+03,1.755191319143645673e-06,-9.998137161653229965e-01,-1.930111304060442776e-02
1.408185853485541202e+03,1.569923651952256705e+03,1.431326829431514852e+03,-4.969781233832821181e-05,5.365237181300121921e-02,-9.985596729935407589e-01
1.335438284844705095e+03,1.488190694588432052e+03,1.427575113571553857e+03,5.422722653386257557e-02,9.604863960527620925e-01,-2.729932066920748857e-01
1.356869363365220579e+03,1.700040198029253133e+03,1.557053072827671031e+03,1.338341511361595265e-02,7.858460016570532058e-01,6.182774020450039210e-01
1.517980269725032485e+03,1.710247078573990848e+03,1.562573873881919553e+03,7.326636238050634602e-06,9.999004745181558906e-01,1.410818927740187419e-02
1.467485203356253578e+03,1.491559609753948962e+03,1.597061475341123923e+03,9.140654665559183947e-03,-5.831416184964711702e-01,-8.123190882957269654e-01
1.549898007034387774e+03,1.484661225042305659e+03,1.386788342595224549e+03,-4.249351843840381421e-02,8.398169225269281890e-01,-5.412040627417022964e-01
1.416358968162920064e+03,1.755860138412627066e+03,1.478987477765235099e+03,1.593969280425470851e-06,-2.271667848332377219e-03,9.999974197579942770e-01
1.483256293585990534e+03,1.466333660097754318e+03,1.589433513767048680e+03,2.136984623928533666e-01,-3.295937075504800640e-01,9.196200058252641529e-01
1.492779082818534562e+03,1.645138111305743450e+03,1.475927085528619045e+03,2.587423116728708103e-02,-2.261501368147800922e-02,-9.994093682359038722e-01
1.375688146149372415e+03,1.527446971892336705e+03,1.416695535881608521e+03,1.160836652049295793e-03,-2.139823559987411861e-01,-9.768368358019138276e-01
1.339730122069341405e+03,1.608305422383506084e+03,1.537334056894360629e+03,4.806729803110528691e-05,8.812375180969993504e-01,-4.726737081621694148e-01
1.470015784979904538e+03,1.547055035436424987e+03,1.417873881064720763e+03,-1.722991060878311179e-03,-9.938311994994972753e-01,-1.108899373396637494e-01
1.606216653337770595e+03,1.423289690658329391e+03,1.666303322895836800e+03,-2.651903149703097595e-01,-9.639597724535584611e-01,2.134605202916459513e-02
1.430809131264375992e+03,1.568422814025284424e+03,1.504991790987427066e+03,-2.755490813547428752e-01,6.625131781050640489e-01,-6.965263760990569875e-01
1.457360192452287492e+03,1.619214758955767820e+03,1.457709385340026756e+03,-2.554124510222594568e-01,9.369327481195580676e-01,-2.385822821668342197e-01
1.326250057991256199e+03,1.653390344277970598e+03,1.346241666747607951e+03,-1.484782853388620324e-04,3.476166531343438670e-01,9.376367315852530693e-01
1.422545830239555244e+03,1.651822810060744814e+03,1.423680248616228482e+03,-5.273043929975513855e-01,-4.944165695565421736e-01,-6.910154360601684642e-01
1.429483546002670437e+03,1.450314831502916604e+03,1.448850794988556800e+03,-2.223268548847386842e-03,-5.709728309416074732e-02,-9.983661439272792926e-01
1.335903788713506174e+03,1.638226289474959685e+03,1.487939805085565013e+03,1.032549240146397570e-03,-6.708857780998994658e-02,-9.977464891291273341e-01
1.475019440215458189e+03,1.608042219310082828e+03,1.425861969290792331e+03,-8.291741038280744068e-05,-9.666628299772769273e-01,2.560526630695826311e-01
1.415885585814353135e+03,1.542627541129721067e+03,1.380790596933039978e+03,5.456335454195768847e-02,-2.803032739538569573e-01,-9.583594915019507665e-01
1.392687338203217450e+03,1.461252320106805428e+03,1.582099103000889727e+03,-2.037290056762315060e-01,9.087928948704072640e-01,-3.641290519571856454e-01
1.436402186937358238e+03,1.437330215558413556e+03,1.463823950352260454e+03,2.953526841520016238e-02,-9.226717424907067144e-01,3.844535388428688139e-01
1.397884103499435923e+03,1.543096382956220168e+03,1.351230619114649471e+03,9.499060491848075214e-04,-3.911934230546543767e-01,-9.203079937919043108e-01
1.254696340886933285e+03,1.670448569641242329e+03,1.442401954604420780e+03,6.983120804214057453e-02,9.889091575355524188e-01,1.310811982158360811e-01
1.321488104098757503e+03,1.589358614830700390e+03,1.481416980429536125e+03,7.329585712713378165e-02,-2.594144882832856158e-01,-9.629807062432351739e-01
1.431657590622049156e+03,1.514289762553171386e+03,1.580063849043569917e+03,3.252647622473112121e-01,-4.957090756542468779e-01,-8.052796698999747926e-01
1.446449949894604970e+03,1.588806884023794282e+03,1.483306414409125637e+03,8.674916595244876183e-02,-9.232595711156063034e-01,3.742543874826071981e-01
1.593848439136024581e+03,1.441146643862239671e+03,1.298025777125392096e+03,6.468843907360176553e-07,-6.278674490027555954e-01,-7.783202852825780171e-01
1.456012237374744927e+03,1.444307949545462634e+03,1.512978447931126766e+03,5.530300732972111680e-06,-9.562901878890013307e-01,2.924193504483489359e-01
1.510823571230650032e+03,1.622239951964038028e+03,1.444388025901036144e+03,3.271773129337322006e-01,4.670323476969026055e-01,8.214838964375272834e-01
1.275106884051277575e+03,1.629116069019897168e+03,1.484529661034514220e+03,1.426905484116144374e-01,-9.894497840376077491e-01,-2.507054570455392872e-02
1.497395359441520213e+03,1.479915968593254547e+03,1.566397878539302837e+03,1.738620716367463887e-08,-6.472397626531317671e-01,-7.622864879038048214e-01
1.458071124795528704e+03,1.735571099519529071e+03,1.433628129059874027e+03,-9.415241004416243786e-01,-6.215718737396155880e-02,3.311628788758610997e-01
1.333057040386028120e+03,1.606885482204873597e+03,1.386563446292758499e+03,-1.535177898649998096e-01,9.515698372967283936e-01,-2.663590301492398393e-01
1.546824063598044631e+03,1.501521089668814966e+03,1.455765964677578268e+03,3.588458278638483878e-01,-7.477801989784346182e-01,5.586183364699748299e-01
1.326738213801946358e+03,1.496644646625810765e+03,1.484931393813944624e+03,1.155054849299022498e-04,-3.610309167484131998e-01,-9.325538396308726830e-01
1.339614162497421830e+03,1.528872167570634474e+03,1.468517750609251607e+03,-2.140705521030111455e-02,-9.310553022829438641e-01,3.642495876154689949e-01
1.481951569304949771e+03,1.450483537831619515e+03,1.538396527455648766e+03,3.152958149552014628e-04,-9.362582524917839599e-01,3.513123755713424834e-01
1.445995717963357038e+03,1.554742015636498536e+03,1.483973472269145759e+03,3.539996996230369009e-01,5.970984463578793422e-01,7.198316872879426676e-01
1.371775093593260863e+03,1.635193149747904044e+03,1.337607368794215063e+03,-1.238939060717932604e-02,9.103111836697208581e-01,-4.137391108974523002e-01
1.451438251925132590e+03,1.594658472593795295e+03,1.384901174704959431e+03,8.796212033158596899e-01,-2.335976334667484999e-01,4.143653995158060876e-01
1.447729859912592474e+03,1.550026940138315467e+03,1.413507045878439158e+03,3.263618097307977679e-04,9.808720743385304086e-01,1.946531974327618542e-01
1.520865683262733455e+03,1.727847564843641067e+03,1.547191348345362712e+03,-2.437283765873182360e-04,9.983152624058179159e-01,-5.802221509113129894e-02
1.478723589883649765e+03,1.505055087096311809e+03,1.405179529213842670e+03,-1.885943851234494206e-01,-1.867425890308453684e-01,-9.641365895670410691e-01
1.458356290789836294e+03,1.481302988206112104e+03,1.552678259744003071e+03,1.723097752648691250e-01,-3.323411012665781761e-01,9.272856807678463431e-01
1.394534612087484675e+03,1.639993806386214374e+03,1.313698176526664611e+03,-2.782649648663889859e-07,-6.800850995674837529e-01,-7.331331784513700489e-01
1.400580219086094758e+03,1.539480166146064676e+03,1.375682275417360643e+03,-1.201254220769378683e-01,8.957393860823219534e-01,-4.280430296029857917e-01
1.463938852773943381e+03,1.430033554540110117e+03,1.492330232627572514e+03,2.915994584708117210e-05,2.632174274585463714e-01,9.647365365900694156e-01
1.512244226060740630e+03,1.475794352201179208e+03,1.517849033835019100e+03,1.012942487361802868e-01,-1.891768458703149691e-01,-9.767044569159761824e-01
1.543120996117874711e+03,1.431280097603614877e+03,1.598951837369976602e+03,4.237150148107570770e-03,-8.723780048159932576e-01,4.888135260729692955e-01
1.476200885049773206e+03,1.431125403908552926e+03,1.453627162669959489e+03,-3.575826899343726578e-02,-3.371879160988923707e-01,-9.407580217226315655e-01
1.411503328868366452e+03,1.536008937436875385e+03,1.486212822686369464e+03,-4.344897805660327965e-04,-9.611961476968329254e-01,2.758655050407693432e-01
1.494240199729338201e+03,1.565228944600841260e+03,1.501633761056738194e+03,5.139159610355553687e-01,4.991671509654407868e-01,6.976550296457026956e-01
1.467699588266683122e+03,1.439305244335214638e+03,1.551007132108380574e+03,-1.497668358015861456e-01,-3.382653662441770792e-01,-9.290567457877227930e-01
1.373079675886559016e+03,1.517939082583160143e+03,1.436866399790572132e+03,9.628901832964579244e-01,2.393735678388115573e-01,1.246707260403647904e-01
1.416921714298915276e+03,1.642477271324720732e+03,1.356531790201887361e+03,-3.693740776550403782e-01,9.187400890726465930e-01,-1.395687625769956863e-01
1.186118247122155935e+03,1.616638202300777493e+03,1.469007534264838796e+03,-1.443608159733278666e-04,-9.117544472701504255e-01,4.107356900039942915e-01
1.509969364237681930e+03,1.485790069880855981e+03,1.414688875232608098e+03,-2.811963232908656451e-04,-9.575263423209878777e-01,2.883456687554331599e-01
1.446137266357478211e+03,1.640178932974274176e+03,1.409652284544085205e+03,-1.049239599123371648e-02,8.929784448548369058e-01,4.499771179193451376e-01
1.336081685391801557e+03,1.534758522208357135e+03,1.454986868537098417e+03,-1.164982376528039387e-03,-4.957521536867919298e-01,-8.684632663106538475e-01
1.478116785756973741e+03,1.633051741287295044e+03,1.319925074526729531e+03,4.923081188439997619e-02,6.835237337591961726e-01,7.282661824834998354e-01
1.515129599181410867e+03,1.580246922811219747e+03,1.437772259265960656e+03,-3.669832819836630899e-01,-5.412882814637198781e-01,-7.565251265454121521e-01
1.467907683160946135e+03,1.387070403520407808e+03,1.465649676858490466e+03,-4.290345949529289133e-07,-9.782605230015722908e-01,2.073797220957394327e-01
1.606230039128443423e+03,1.448308065416328645e+03,1.530917569469829459e+03,7.220800058352555562e-01,5.396647122054064605e-01,-4.328538593719747363e-01
1.526644995550447447e+03,1.562466749106904899e+03,1.437747807490840842e+03,2.795396706693217305e-03,9.277660597510678508e-01,3.731518781022414299e-01
1.572285287363084763e+03,1.482349205437182263e+03,1.631955310514707662e+03,-6.900526565370824518e-03,-4.964820916088566460e-01,-8.680195363266978159e-01
1.318526427164297274e+03,1.520606047357668785e+03,1.376717061533880496e+03,4.403094006394825399e-01,6.500221008324656990e-01,6.193536147774126865e-01
1.416422261255058856e+03,1.538016845158072329e+03,1.561752238862581407e+03,2.047298815056589584e-05,-9.101217573640202341e-01,4.143409059620883350e-01
1.577231669190859748e+03,1.632939246706443555e+03,1.460392101709327562e+03,-1.671702824478745741e-01,2.363311000504396686e-01,9.571842601167482867e-01
1.548665325265369574e+03,1.416275599320080119e+03,1.431571364511380352e+03,-6.523418204037080559e-02,-8.903464927475985835e-01,4.505858678937612050e-01
1.345724229371945967e+03,1.373800001634498813e+03,1.680322094513090178e+03,-2.468597168288113597e-01,7.939948150825426598e-01,-5.555470401588312734e-01
1.313975372655883348e+03,1.489446722649110825e+03,1.447211024938085984e+03,1.507562524934537990e-02,8.589363035274510949e-01,-5.118604809964720781e-01
1.429713400923216568e+03,1.542398784466349070e+03,1.475159292828312346e+03,5.591373541623013976e-02,2.603198672230433441e-01,9.639020805666833613e-01
1.578251735423978744e+03,1.380228248461493877e+03,1.472360271194712595e+03,2.114426798465205148e-01,-9.766937999579945462e-01,3.689463731946305419e-02
1.513779414606264481e+03,1.737573117493392374e+03,1.501753910262429144e+03,4.584444520930938575e-06,7.193461942765703165e-01,-6.946517492663483173e-01
1.442159714014110932e+03,1.479492131949288932e+03,1.435249701584873719e+03,4.833263566050477467e-02,-8.806864424057384566e-01,4.712274891099125784e-01
1.317365707514928772e+03,1.561031417797394170e+03,1.458476091236193497e+03,1.231796811267481112e-01,3.807917295644847600e-01,-9.164193498899949608e-01
1.476336714663616931e+03,1.500494274439178525e+03,1.513682189265710349e+03,-3.609613115945242007e-02,9.235719567080794556e-01,-3.817222944729964929e-01
1.550082360877784367e+03,1.630001004010658562e+03,1.476299362994395779e+03,1.601583309331596205e-06,9.755122756541919626e-01,2.199449932265216678e-01
1.442682066562989121e+03,1.496710665330278516e+03,1.566775092766205944e+03,2.242136507807144796e-01,-9.258244413149978591e-01,3.042652505090844839e-01
1.471700447254457913e+03,1.583135674716772201e+03,1.421283546928117858e+03,4.956096033565941528e-01,-1.647023495449095529e-02,-8.683892286418937179e-01
1.336831505068991191e+03,1.671148796070091066e+03,1.510759657049037969e+03,-2.485911273443945971e-06,-7.971787306557122088e-01,6.037433820622529757e-01
1.424500694597959182e+03,1.587840770891143393e+03,1.375755615797327209e+03,-7.435424176978681909e-02,9.714998642239821569e-01,-2.250765659583965628e-01
1.502300488107491674e+03,1.432904947457887829e+03,1.478081210295995106e+03,3.769831015654377393e-01,-9.216172126469314163e-01,-9.222502093794071598e-02
1.458822090333716005e+03,1.468069223793419042e+03,1.266431515656306601e+03,3.145924069352822317e-01,-9.491838255704624361e-01,9.037852293975801032e-03
1.262874710060352527e+03,1.587232718398143561e+03,1.419853625817260081e+03,-5.125111290259109185e-03,4.866545526501762642e-01,8.735794638263419953e-01
1.451412132340080916e+03,1.396528753282948173e+03,1.615301495718012802e+03,5.772629255560891570e-01,-4.280515415968615400e-01,-6.953699680853173692e-01
1.557613850921891981e+03,1.399023532569326335e+03,1.555360430249023011e+03,7.831576891657221160e-07,-6.936624806284037437e-01,-7.203001894820214579e-01
1.309802291924026804e+03,1.640509176303880167e+03,1.455632640663621487e+03,-1.543347659921203985e-01,9.751849090772914952e-01,-1.587298746741524769e-01
1.543711542520254170e+03,1.547448540132196513e+03,1.602824788069309989e+03,5.001179863629326983e-01,8.278366243763114474e-01,-2.541033708110134737e-01
1.560518671150827686e+03,1.623704918267069388e+03,1.393658533985575559e+03,-3.093431938264535675e-05,-7.091288064846840156e-01,7.050789564698946021e-01
1.452068214952533936e+03,1.643849303841885103e+03,1.354012054533592391e+03,-1.728089305002621312e-05,1.526196609379370239e-01,9.882849987713867579e-01
1.395875883400449993e+03,1.586621109081949044e+03,1.336650414147338779e+03,-6.555589306822871484e-03,-2.560015782885767255e-01,-9.666541347155135355e-01
1.463729508050113964e+03,1.536181536928315154e+03,1.390613488563258443e+03,-1.452970800647866885e-02,9.916352285822964685e-01,-1.282515536739544382e-01
1.470010137155318034e+03,1.563280612616750886e+03,1.451450874715107830e+03,-2.690281685298002547e-06,9.712209996191362160e-01,-2.381801206892974199e-01
1.561566667110597336e+03,1.448496823318246243e+03,1.574797335730009991e+03,-7.275351388264947262e-05,4.964939112771594720e-01,8.680402011264422013e-01
1.332277849154102114e+03,1.385778969348732289e+03,1.640105142719567539e+03,-6.842912467104563835e-04,6.572849556989439623e-01,7.536418371861576260e-01
1.481117104120570275e+03,1.486855512046943431e+03,1.419999892350832852e+03,1.977860455408518292e-01,-8.029227838342665180e-01,5.623127985286694441e-01
1.378669328063205057e+03,1.467291423909800869e+03,1.415014732495165390e+03,9.815513641074329332e-01,1.428490160091291927e-01,1.270868924951000511e-01
1.476310231611523022e+03,1.505357657174406995e+03,1.398841330920112114e+03,7.297439392554390055e-05,-8.937287475450284013e-01,4.486077579426517858e-01
1.277771120011732137e+03,1.531680328476832301e+03,1.490722021672118444e+03,1.627900560582965991e-02,-3.731155679756419791e-02,-9.991710772964896847e-01
1.427865963530167846e+03,1.505650901714338715e+03,1.497423759051224351e+03,-8.765404083050019196e-03,4.252262057577534948e-01,9.050446627808628186e-01
1.407497212023537486e+03,1.469939209770250955e+03,1.407111604850297908e+03,-2.777653880068428616e-01,-9.410287599754817434e-01,1.931612334926844365e-01
1.473799298413495308e+03,1.391157191353118151e+03,1.468825365078334244e+03,3.920194858431848175e-05,9.976918094878950427e-01,6.790472549077185282e-02
1.459524933455671317e+03,1.553286448335601563e+03,1.519504866247464861e+03,-2.794545319904476743e-01,9.278630261320013339e-01,-2.469319122494391949e-01
1.527097095497377040e+03,1.684970350106332489e+03,1.479903015616098401e+03,-1.583872614247496635e-06,-9.004029798989355848e-01,-4.350568627048748693e-01
1.359905589426902679e+03,1.590315729085666817e+03,1.517516982198622600e+03,-5.015996468707609830e-04,-9.878612407271448737e-01,1.553380747493036673e-01
1.437894070363948686e+03,1.567821579352449817e+03,1.484239991757177904e+03,1.581263694583388141e-02,8.282426701782472644e-01,-5.601464449666947454e-01
1.484000239052002598e+03,1.559520655211499616e+03,1.399051319510781923e+03,-5.762703750969128125e-01,-2.843697768400230141e-01,7.661894575140140162e-01
1.580533459873200172e+03,1.618494552695517996e+03,1.542398474305177388e+03,1.203085160513390345e-02,4.898727419298320451e-01,8.717109356454142421e-01
1.376671912069917880e+03,1.645090201976268645e+03,1.509436479441179245e+03,-1.808895894676118706e-04,-5.747660030326775527e-01,-8.183177922034914342e-01
1.374507878214502853e+03,1.516543886702829468e+03,1.499850442852513879e+03,-3.480436078868718863e-01,2.415599978395664982e-01,9.058225071463161804e-01
1.344533289614393880e+03,1.720265160319899223e+03,1.408464001392129603e+03,4.521160821668252162e-05,8.765320421807757389e-01,-4.813435124589395819e-01
1.458673471882801778e+03,1.794964467905784431e+03,1.562655642924368976e+03,-3.170188825727628112e-02,6.591015783456489752e-01,7.513854534812327568e-01
1.425217696704293076e+03,1.409429630751235891e+03,1.528003090901146606e+03,-2.981569771927600754e-01,7.168622898446511682e-01,-6.302466773811342682e-01
1.409349112372976151e+03,1.605096495691059090e+03,1.437727694790739406e+03,1.602863752888095475e-02,4.148528444926740111e-01,9.097473276659321373e-01
1.481917886686431302e+03,1.705436230089788296e+03,1.495680993671910755e+03,-3.152998850523835300e-02,1.900559341948577230e-01,-9.812668351178386317e-01
1.463353793380419575e+03,1.612001631165177514e+03,1.397496958821521730e+03,4.343844880374787137e-02,-9.090387574866060083e-01,4.144413571939120633e-01
1.424283393551210565e+03,1.522592192787212070e+03,1.402668770640623507e+03,1.913230913588493190e-02,4.238671745810711489e-01,9.055222653583890891e-01
1.504997485556962374e+03,1.514265633412008583e+03,1.421146733632799396e+03,3.321434753082018188e-01,-7.556570170976074641e-01,5.645025990386014492e-01
1.574709765128108756e+03,1.529450860837936489e+03,1.468640293723474770e+03,-3.320647865625921992e-03,2.630541514156312100e-01,9.647753555728684205e-01
1.563296430621730224e+03,1.495708754866996287e+03,1.520492713255674971e+03,7.454654799176537727e-01,6.659749760509258154e-01,2.754177781318967178e-02
1.348136519991957130e+03,1.559926764369226703e+03,1.396153167510915409e+03,5.985145827901269306e-05,-9.884304483988551882e-01,1.516748004641544634e-01
1.320301464589812667e+03,1.603560385349408989e+03,1.499937325522317451e+03,-2.643057984889228551e-02,-9.836498872562274842e-01,-1.781413027617749223e-01
1.426048608787337571e+03,1.567757230319480414e+03,1.355461554648560195e+03,1.621336554588225995e-02,9.055393249640847353e-01,-4.239524238888902619e-01
1.316850922912998158e+03,1.687985897424325685e+03,1.497495781288625267e+03,1.406037373889714170e-01,6.642215205663637434e-02,9.878353540688945555e-01
1.378792123260062226e+03,1.601782620776584963e+03,1.358401575842148759e+03,1.479991868660292514e-03,-1.701349648680864357e-01,-9.854196584975376538e-01
1.303508729372724702e+03,1.644480275150504212e+03,1.500432252496733327e+03,-6.101011548441349561e-05,-6.113226858170832667e-01,7.913814314748316425e-01
1.391492594485419204e+03,1.683073854194851037e+03,1.530832422701669657e+03,5.179096976111274842e-02,9.181859140598310765e-01,-3.927496946826514734e-01
1.459623860427938553e+03,1.689472442382219697e+03,1.553772746673260599e+03,-2.136047066480717127e-01,8.981997758530715359e-01,-3.842007183169798279e-01
1.468102574108527961e+03,1.610676453330616823e+03,1.318476035344073125e+03,1.270508207854025538e-02,5.777066551203071665e-01,8.161455761805512799e-01
1.495775010035346895e+03,1.646685494488046061e+03,1.389470916704745150e+03,-6.398116826207512764e-01,7.421351429896527740e-01,1.996908618883964925e-01
1.412285254330395219e+03,1.364929077850358681e+03,1.572146382321272995e+03,8.665699679583714621e-02,-9.596623600562824430e-02,-9.916052876287209106e-01
1.623744049588161261e+03,1.350214487073664031e+03,1.623536411246531770e+03,2.558445164258505138e-04,2.015908980582301058e-01,9.794697771568348088e-01
1.450438879663564876e+03,1.596850769510893542e+03,1.313648653627833937e+03,2.244488381225314549e-03,-2.945677962124758076e-01,-9.556279483703016275e-01
1.499396613135068492e+03,1.436417492764815279e+03,1.466086869473802153e+03,9.472623736161860375e-01,3.204347141594934834e-01,3.948353144411453214e-03
1.405931633627201109e+03,1.593366999161353988e+03,1.507103315450925265e+03,3.783407108148767201e-03,-3.546357921034289373e-01,-9.349968667272782197e-01
1.449749056700233041e+03,1.642011232321094212e+03,1.486922955512822455e+03,-6.075261676189281923e-01,-5.882219086408632114e-01,-5.337667485458027494e-01
1.282288189037142729e+03,1.495008420582717690e+03,1.396954866795627595e+03,-1.155275524050937723e-03,-5.082607954272728989e-02,-9.987068513717024532e-01
1.553842394188417302e+03,1.361429998648088485e+03,1.603561979871011090e+03,3.696469820764036185e-01,1.853869601555926117e-01,-9.104904083218425814e-01
1.433658064459724073e+03,1.737972737649797637e+03,1.391209298979804998e+03,8.244103017557695445e-05,-1.893772811161059388e-01,9.819043938187403953e-01
1.425281331872986357e+03,1.510605032608987813e+03,1.452706817156092484e+03,-9.266508633274290769e-04,4.774445546033163623e-01,8.786613901827132755e-01
1.427577096040792185e+03,1.506051901330398096e+03,1.569930766534790337e+03,1.378251812698924638e-04,-9.364425820329944639e-01,3.508208539405802129e-01
1.464905845471266502e+03,1.484585801788791969e+03,1.548546553107434647e+03,1.248142559627483800e-01,-3.854929500845840629e-01,-9.142300514331991312e-01
1.443774735446719660e+03,1.624866489994328504e+03,1.351758066774410281e+03,7.096731076212456704e-03,4.999684462393547135e-01,8.660145432803293408e-01
1.284679474736838301e+03,1.661831764610136133e+03,1.442435499568263367e+03,-2.967470378326541366e-03,-4.747121192243395661e-03,9.999843293571853975e-01
1.498314834294520551e+03,1.475553518493838510e+03,1.472973684000000958e+03,-3.723510195529021460e-02,-8.434779789531424710e-01,5.358716695287233378e-01
1.413772492760499517e+03,1.569114612325188318e+03,1.352963051149550438e+03,-4.901684826485548305e-03,1.988590574230492680e-01,9.800158410794583830e-01
1.598136969196750442e+03,1.372754425205780990e+03,1.652727141869874686e+03,3.112945298017133315e-03,2.015899279024563617e-01,9.794650634605882589e-01
1.444080706187723308e+03,1.753527660546126526e+03,1.542501338586259862e+03,1.480335725716853197e-04,7.486774089323396941e-01,-6.629344729612569598e-01
1.318164666453635164e+03,1.649538299650879935e+03,1.488601458438384952e+03,-2.817053107505033585e-06,-7.774848339908116968e-01,6.289016877909806569e-01
1.385980735550587269e+03,1.543995749078868130e+03,1.412642252413380902e+03,4.693013929798429875e-04,9.699818152948344041e-01,-2.431770090973661147e-01
1.291132952394328186e+03,1.677583327150555306e+03,1.369027563398138909e+03,3.124160614124639190e-01,-9.158182756714695616e-01,-2.523352740257688853e-01
1.408313297665423079e+03,1.525605140224812430e+03,1.462255606566065126e+03,-1.041617798053240813e-04,9.660628999672220552e-01,-2.583069152331091689e-01
1.416130789969457055e+03,1.457968608206945191e+03,1.516597709477490980e+03,1.131351650084430338e-01,3.875917631574621880e-01,-9.148623172756664701e-01
1.534363034010197907e+03,1.468735807341065311e+03,1.460933502247042270e+03,-1.590924066990234698e-01,1.859008932141360260e-01,9.696032508365980407e-01
1.386889748530134284e+03,1.573763952363235148e+03,1.476534748442886439e+03,9.801553467589845125e-06,-3.480666303344271406e-01,-9.374697972476589980e-01
1.408900655129262532e+03,1.643448801899422733e+03,1.416550998857701870e+03,9.514873731847903193e-02,-9.675405595578877582e-01,-2.341195920829964583e-01
1.533090569727889715e+03,1.621673806565007908e+03,1.543725617973587759e+03,-8.640242233937368843e-03,4.244844155755902460e-01,9.053940176230393932e-01
1.479783888644454919e+03,1.367926314523012934e+03,1.577247947919544686e+03,-4.195915388678666536e-01,4.758361332589809423e-01,7.729960638940129858e-01
1.426899394520977012e+03,1.554363338053147118e+03,1.374813819785808846e+03,6.657668231508111559e-03,9.881656066756021595e-01,1.532462372691678343e-01
1.448289407548897998e+03,1.465772534071462815e+03,1.425571887608341513e+03,2.392892955211593786e-01,-8.962575773355446751e-01,3.734474368871841254e-01
1.480958028745363208e+03,1.475094228581186826e+03,1.571599406971021835e+03,1.560894165777770371e-03,9.195067506797282020e-01,-3.930711119680654897e-01
1.592542072934915950e+03,1.372984386950211501e+03,1.662931387519989130e+03,-2.100346152783887327e-04,-1.257209535173832993e-01,9.920656216864590649e-01
1.532735518383952240e+03,1.463799850210326213e+03,1.666434004259928997e+03,-1.604282523804008154e-01,-1.614728596839286601e-01,9.737501175474458925e-01
1.404804303038391026e+03,1.545179224542436486e+03,1.502729689270907102e+03,1.203814319972390523e-01,-5.787218798745852322e-01,-8.065911582609373021e-01
1.462344261769366312e+03,1.455941795803475998e+03,1.565117773776700460e+03,1.476299762347236255e-01,-3.679437599949021420e-01,9.180537999473390443e-01
1.580754113981996852e+03,1.481709769688313827e+03,1.488152565056218009e+03,2.507060327107968277e-05,8.934901350374471196e-01,-4.490828186005666467e-01
1.568650335295772493e+03,1.592871039891964301e+03,1.434024820866753089e+03,-2.066356329521674973e-01,-7.460726625237350529e-01,-6.329907561956984452e-01
1.381326623174590168e+03,1.499878612576728301e+03,1.592086382464577810e+03,6.675165398790845750e-02,-9.343539690843566392e-01,3.500383938172892395e-01
1.312423588951036436e+03,1.476403123010311219e+03,1.422788298400796748e+03,1.332263634768441896e-01,-9.715882204797452459e-01,-1.956196971159545328e-01
1.407157482850823271e+03,1.314525813948391260e+03,1.663877388343562643e+03,-1.131211664454729975e-03,7.085789676522944447e-01,7.056306165133275909e-01
1.520284254939670291e+03,1.330020475626608686e+03,1.525718221360078815e+03,2.324098833472369036e-02,1.379394962470890662e-01,9.901679412283173054e-01
1.398157872466898880e+03,1.440987231518846329e+03,1.371153553601474414e+03,-1.048985257102691693e-01,5.322208843212146157e-01,8.400816803121923249e-01
1.439429424692185421e+03,1.410188493166925355e+03,1.544280859712505844e+03,-5.471791278162622119e-01,6.206698489543994723e-01,-5.615727385487632173e-01
1.529431553109191782e+03,1.477728220637979803e+03,1.530861916692988189e+03,6.369836291214726887e-02,6.764757254522034413e-02,9.956738042607385930e-01
1.450423626539791485e+03,1.561362877179490624e+03,1.517096172535436153e+03,-2.838641966944942530e-01,9.020814735907045634e-01,-3.250694277218522665e-01
1.559047386278939030e+03,1.661415075634579580e+03,1.572511601325374386e+03,2.699567266249357136e-03,9.594649799563419457e-01,-2.818149473927021864e-01
1.360457156725426557e+03,1.513822781592326010e+03,1.398527550693611602e+03,2.378336019304264359e-01,7.032054888289995809e-01,6.700277742553416571e-01
1.436001509123120741e+03,1.628704043750907886e+03,1.392898570618266831e+03,-2.343127612430391960e-03,9.780854747946329253e-01,-2.081905707488919954e-01
1.443980221662071472e+03,1.590524163691948843e+03,1.470662411539265804e+03,-5.575925207415399978e-08,-2.179992596479964906e-01,-9.759489345211266320e-01
1.308862450571529280e+03,1.744445685862772507e+03,1.509826139554864085e+03,-2.848776277942025384e-02,9.635953899088474106e-01,-2.658427578818724490e-01
1.579818633583206974e+03,1.537783544711868217e+03,1.564021974787994168e+03,-2.393329448305085982e-01,-1.746795550115776141e-01,-9.550951756656056446e-01
1.452605025231074706e+03,1.751409465061459059e+03,1.571393227580757411e+03,-1.980561093278055865e-06,1.544209961949148668e-01,9.880051396274452946e-01
1.436520873450231647e+03,1.570900218781022659e+03,1.440310386795950080e+03,3.560180056988475616e-01,5.437622123773223626e-01,7.599827866529182963e-01
1.497779185818939368e+03,1.770611400577845870e+03,1.489555349393689085e+03,3.996748497836748182e-02,-9.974875004981939020e-01,-5.849176432943069964e-02
1.527839708182018057e+03,1.444105686316930814e+03,1.465257216207867032e+03,5.180092168827937577e-06,-3.918947168513252644e-01,-9.200100710737824095e-01
1.504468139959441714e+03,1.643290771021398314e+03,1.382288022779485118e+03,-5.357690302681108463e-01,8.153633867529873624e-01,2.193948352816598446e-01
1.364650317854187733e+03,1.623250383547709362e+03,1.481723711211579484e+03,4.130544654328586422e-04,-9.947040531186381873e-01,1.027797455501905793e-01
1.309603994331276226e+03,1.604244512829010773e+03,1.407992568782732633e+03,-2.853488867713595001e-01,9.459744265193373858e-01,-1.539753135725223931e-01
1.488936799363736327e+03,1.604207536416564153e+03,1.483443582076504072e+03,-1.539849183085444280e-02,8.704879815050039493e-01,-4.919487376797291867e-01
1.578566628123559894e+03,1.481418329163853514e+03,1.600665318414030708e+03,-1.468738945452569000e-02,-4.964403580161075857e-01,-8.679465718141008423e-01
1.473332516914931375e+03,1.355812289149777826e+03,1.550425710263796645e+03,2.461474595564452916e-01,9.551102573136575069e-01,-1.648509160670555140e-01
1.425648979374070223e+03,1.409220205833708633e+03,1.541200037284329255e+03,4.843641389434316658e-02,-6.661806966305834354e-01,-7.442158243721014310e-01
1.280332764406858587e+03,1.528838904376190840e+03,1.431760588685052653e+03,2.289964019126922851e-02,2.600459225176257605e-01,9.653246731856942597e-01
1.387748697449707151e+03,1.528159890945742745e+03,1.336879900824355900e+03,7.009612641959472867e-02,-8.843656241120163575e-01,4.615018699311325689e-01
1.536994953598766415e+03,1.587212126423841710e+03,1.502748986929403827e+03,2.320868647646801355e-02,9.780335585213709715e-01,-2.071514307893170259e-01
1.506160989986798313e+03,1.466095120382797631e+03,1.457182043476570243e+03,-5.348630136130729795e-01,-9.695336318723411784e-02,8.393578510000523352e-01
1.526646755066497917e+03,1.459831964472402660e+03,1.435891675123601544e+03,6.911911371636941803e-02,4.281243781991705966e-01,9.010727300893291991e-01
1.498556693076095371e+03,1.542894672891299933e+03,1.421559370473329182e+03,1.145952155470504746e-01,-4.913570392188497116e-01,-8.633864700027508166e-01
1.395746800600259576e+03,1.699357117339291335e+03,1.573497481896831232e+03,2.280959300716488107e-03,6.075271233367255386e-01,7.942956575701969335e-01
1.522278220240442579e+03,1.438539890485620163e+03,1.461221100189738081e+03,4.527788672658822995e-04,4.040372371951548962e-03,-9.999917351570428714e-01
1.508492117751226033e+03,1.430832744823532266e+03,1.602787891295320605e+03,1.212824025411023306e-02,8.948593511788057731e-01,4.461834234887996353e-01
1.392896376137279049e+03,1.664352276738000683e+03,1.440286957152969308e+03,1.731589457283956301e-01,6.429017847976817857e-01,-7.461188073076471250e-01
1.425007178050642779e+03,1.462181867036251106e+03,1.508626484513498099e+03,3.606428287292675391e-03,2.690796527685615502e-01,9.631111743412382742e-01
1.412969876121439484e+03,1.601730746953921425e+03,1.368062525887191669e+03,-2.824525929209105099e-02,-2.229040842987310353e-02,9.993524618569527007e-01
1.385500768520037582e+03,1.617392364029678220e+03,1.408207016703986255e+03,-2.326857101899610920e-04,-1.100326776654845934e-01,-9.939279429129276311e-01
1.482896904323795297e+03,1.462154328610835137e+03,1.456923306779806808e+03,-1.158731923539421498e-02,9.646313024519770352e-01,-2.633480289706749966e-01
1.440891419904860641e+03,1.576394369511626110e+03,1.394283067041609684e+03,6.268528010488212503e-03,7.089972390949600412e-01,-7.051833949493605536e-01
1.451391416521240444e+03,1.750039944899015381e+03,1.567764900221482776e+03,7.571517671828441667e-03,2.282166733854908147e-01,9.735809273547861853e-01
1.484993485106944263e+03,1.528230983662269182e+03,1.306161075820775295e+03,-1.856928943013046922e-04,2.759352157447680365e-01,9.611762180942874378e-01
1.555848194090526476e+03,1.641816834618997063e+03,1.495576672322159311e+03,-1.485826142260599121e-03,9.649363860786248637e-01,-2.624796432910521116e-01
1.458450513553496876e+03,1.635924559919324565e+03,1.437025222360154430e+03,-4.444655723663622909e-02,-7.786107603915846109e-01,-6.259311362699965242e-01
1.364577273007958638e+03,1.456996313986285486e+03,1.514647083377369654e+03,2.378686754848692922e-02,-3.893674834590960532e-01,-9.207752971040009671e-01
1.421616545993440695e+03,1.572327230099906728e+03,1.371086005125437850e+03,-1.721851013821188244e-05,-8.336286161803260208e-01,5.523253841611822645e-01
1.491745500387080938e+03,1.668526243986666032e+03,1.412913719665731151e+03,2.485411557195775223e-01,8.516407205206492081e-01,-4.614492139603732501e-01
1.350365763250639247e+03,1.606527447268710830e+03,1.368135246675349890e+03,3.418511893473121233e-01,-6.541376155942361104e-01,6.747160470942688004e-01
1.561577056955606622e+03,1.556869963986167249e+03,1.553669502767205131e+03,3.708019465101620976e-09,-6.451860245657906612e-01,-7.640255190142479780e-01
1.567138057213237971e+03,1.544063865077450146e+03,1.475447388053019040e+03,3.270162646053565436e-01,5.195774915554280948e-01,-7.893665770429658668e-01
1.494575465127865073e+03,1.605399924104617867e+03,1.451842946613851154e+03,-2.008961630101147033e-02,-8.158278432243495359e-01,-5.779457911749027454e-01
1.421446713930951773e+03,1.529713463494622147e+03,1.511091099770893834e+03,4.815092981592566164e-07,-9.534369513702579679e-01,3.015924066709183005e-01
1.396808640484814987e+03,1.595195092676051672e+03,1.436373260537312490e+03,-2.817335680414566459e-07,-9.270777004720982539e-01,3.748692269142494538e-01
1.358998805955935950e+03,1.437290012065833025e+03,1.330005685029801498e+03,-2.103948820305986261e-02,-4.640751024321717599e-01,-8.855459554640416897e-01
1.561849848033061562e+03,1.485751027711871757e+03,1.551434617379446081e+03,1.173789824698811927e-02,-9.970619932412608799e-01,7.569414362093940252e-02
1.422443091496483476e+03,1.396780493427511828e+03,1.575836396166889472e+03,1.461922039403686091e-01,5.441354804987091898e-01,8.261624648757025513e-01
1.447460062636002931e+03,1.737423265282463035e+03,1.476070367245597936e+03,-1.302900560121650839e-06,-2.853563695553085547e-02,9.995927757951458270e-01
1.433189753826046172e+03,1.503007896409615796e+03,1.427093264746508794e+03,-2.711211776353482372e-02,-8.994249984935743791e-01,4.362334296626176333e-01
1.398583665328275401e+03,1.787489197221244922e+03,1.529541838450027399e+03,3.231717828377216918e-03,7.486735075318492472e-01,-6.629310183720745764e-01
1.544958040496463582e+03,1.593639598273770844e+03,1.404294619324231007e+03,-4.908926136871809009e-01,-5.069525524030055186e-01,-7.085362033371662704e-01
1.488263842298756799e+03,1.544696459948543861e+03,1.487727324133978300e+03,-2.737365289425754047e-03,-3.108318047099691284e-01,-9.504609913152753942e-01
1.525758755689008694e+03,1.503330082673662446e+03,1.558725089818288779e+03,-6.042866925662245479e-06,-1.720516606960998118e-01,9.850879280628699330e-01
1.385591869293713899e+03,1.679521415947639071e+03,1.411419541151079784e+03,-1.795786969825357779e-02,7.700959957621611451e-01,-6.376752090421784480e-01
1.494820534288731551e+03,1.460037463067209046e+03,1.577848965312471819e+03,-5.967534877062521254e-02,9.982070769345727790e-01,-4.635116701898845358e-03
1.488679197913452299e+03,1.648065552755674162e+03,1.370061464159086881e+03,-1.602009862987889277e-01,-9.579695647267993941e-01,2.379704961671544328e-01
1.343779535913846757e+03,1.694103151100237028e+03,1.496743908039544294e+03,-9.653605915839929066e-03,-7.214662093877752813e-01,6.923823485650515419e-01
1.466872892146987397e+03,1.721203196108448310e+03,1.519776311284717167e+03,3.654111405729795688e-05,-2.750303088530831053e-01,9.614355557586399259e-01
1.385452710179158885e+03,1.540349330645071859e+03,1.430350166093859571e+03,-8.988442833465811257e-03,-3.075324853363120559e-01,-9.514951278689242065e-01
1.478779772732079664e+03,1.628996551615141698e+03,1.266032742578561738e+03,-4.307007348180533733e-03,6.665558186258340179e-01,-7.454426807902448937e-01
1.307244248670783236e+03,1.575527222245328630e+03,1.407737112261285802e+03,-5.077376864869483086e-03,8.838861860413944616e-01,-4.676744918951317165e-01
1.474716350965672291e+03,1.572458509641474848e+03,1.393082249304062543e+03,8.408551988214589155e-04,3.450769688724153461e-02,-9.994040783477287082e-01
1.373714961205197596e+03,1.679311915613246583e+03,1.434216542234949884e+03,-1.327438518457338575e-02,-8.764548131245637475e-01,4.813011024803055538e-01
1.354790377985271334e+03,1.515447183255321988e+03,1.436353118216279427e+03,-1.462262691494036621e-02,6.223728764216349685e-01,7.825842967225747904e-01
1.449662332526172349e+03,1.618921311146289099e+03,1.429531561379686991e+03,8.110798319500300835e-01,-5.747519165702565935e-01,1.086726304215004518e-01
1.429316131969709659e+03,1.592635441989055153e+03,1.333200117547940408e+03,-7.216030903283714875e-05,-9.448731722511628517e-01,3.274365330150471598e-01
1.457026233889297373e+03,1.490478406637106445e+03,1.422386137929089273e+03,-1.901342749170401719e-02,-9.936883992000372645e-01,-1.105524982543822504e-01
