x,y,z,nx,ny,nz
1.530958974151156781e+03,1.434074445251418183e+03,1.574871674500066774e+03,3.246935670641158955e-01,6.426912288828896536e-01,6.939179143271786421e-01
1.605537029398919458e+03,1.438362635027592432e+03,1.480966198216651946e+03,7.847035698513856817e-04,4.968993567756061491e-01,8.678078205894991237e-01
1.492678541455002460e+03,1.516170320621032488e+03,1.531617184177409172e+03,-4.124177505792740728e-02,-8.992851214352348688e-01,4.354140401448791109e-01
1.524060734177831819e+03,1.530599356923636606e+03,1.598491046408308875e+03,-4.680538921873250376e-09,5.837686679856783911e-01,-8.119200344111645595e-01
1.514872566453626632e+03,1.463035972555524040e+03,1.463464754688671064e+03,-6.997696012926182992e-03,2.503080226710243661e-01,-9.681409639288240943e-01
1.470373575780712827e+03,1.570395631451593772e+03,1.537443080071169561e+03,1.210003559365735882e-03,-7.900462542057506976e-01,-6.130460440349067008e-01
1.441998434640214327e+03,1.550699918499193700e+03,1.529534795269428287e+03,-3.344087518281301891e-06,1.723429071203343432e-01,-9.850370157279009220e-01
1.423700744961120790e+03,1.523593449261447631e+03,1.463658181696421707e+03,-4.916270439877436921e-02,9.954623978839364229e-01,8.147173065157137239e-02
1.596777474747944552e+03,1.517023233664654754e+03,1.573235726319798232e+03,-7.579559424944062873e-02,8.219191520097075543e-01,-5.645386926084141610e-01
1.411219439111664997e+03,1.477726278845502520e+03,1.552037065063937462e+03,-8.241847180730493827e-01,1.005709430038377733e-01,-5.573195097232528372e-01
1.508143062926605808e+03,1.474035314927538366e+03,1.393422655449618560e+03,-2.150282347697302782e-02,9.447655029999726395e-01,3.270409346300964248e-01
1.562612301563138089e+03,1.451588834104494026e+03,1.447245618596020449e+03,-1.169920776316576608e-04,7.840259207706666844e-01,-6.207280740167647748e-01
1.530793895541300799e+03,1.546754416501283686e+03,1.476144529790289653e+03,1.218920111323533971e-02,9.127604977775187756e-01,4.083132340166764629e-01
1.509509763598235395e+03,1.540097128327795417e+03,1.432189329143225677e+03,-1.616028201293855451e-02,-9.209472890761307706e-01,-3.893519436558495750e-01
1.595287787205519408e+03,1.688786591696196183e+03,1.474159900462772612e+03,1.081550951403076159e-02,-5.922676701812644717e-01,-8.056686860068528189e-01
1.391902681401884138e+03,1.545411307614074076e+03,1.547821527642868432e+03,4.573170072816532526e-05,-8.345730077819694115e-01,-5.508973521359205039e-01
1.538489670819168168e+03,1.508735506176762328e+03,1.564867552082976090e+03,-6.056357463582209139e-02,6.394455417985238643e-01,-7.664472927092400578e-01
1.485774304422476689e+03,1.446963011668534818e+03,1.505915393753401077e+03,-6.966460253636368746e-05,-9.704937998869349602e-01,2.411260656334379970e-01
1.569725056867870535e+03,1.639541319463693981e+03,1.501473853149105935e+03,8.049763670738602217e-02,-9.630903064787953438e-01,-2.568602578272979331e-01
1.515494956934283891e+03,1.508750858966759324e+03,1.430824935157986374e+03,-3.805340230601218180e-03,4.891479967569716814e-01,-8.721924997696157700e-01
1.577661214440696540e+03,1.491093172715643050e+03,1.591692600963528776e+03,-3.108969748233223472e-09,-7.377082425775284280e-01,-6.751196551968950965e-01
1.557751498833780943e+03,1.518047091397594613e+03,1.480871606333752425e+03,8.432941252285890886e-06,-5.143226177329824900e-01,8.575967845189124139e-01
1.451250595397917095e+03,1.498528748796353739e+03,1.581996492342598913e+03,4.607988944953425982e-04,-7.891364340674116296e-01,6.142177757862015142e-01
1.563922139754687350e+03,1.496022622837934478e+03,1.543037079727810351e+03,4.314771865803228496e-04,8.307869524356922275e-01,5.565903821393721751e-01
1.439064764306660663e+03,1.574629434777004008e+03,1.423081866640020962e+03,8.353676400139483649e-01,-4.014134330192447586e-01,3.755371643515865721e-01
1.436177192493853454e+03,1.507122961848537670e+03,1.451701039780493602e+03,-1.469177494530262418e-01,9.890463603227520606e-01,-1.422926660002514151e-02
1.414995296716604571e+03,1.513698264013566586e+03,1.520790676602728809e+03,3.169892473631835375e-06,-6.074207687670954980e-01,7.943802676680371544e-01
1.360640373894857930e+03,1.557864200891063092e+03,1.472586252794704706e+03,7.503118385709116323e-02,9.659320382552043505e-01,2.476804774727913439e-01
1.481225640773054465e+03,1.391282749474896718e+03,1.520252212311587527e+03,-5.914820550122261481e-06,1.578563434747556615e-01,9.874620877733963908e-01
1.475427705832430092e+03,1.583418727662529363e+03,1.499958243752733551e+03,5.486998727500320694e-01,7.511389226249121087e-01,3.670405543832793716e-01
1.537435612903455876e+03,1.513195445162209353e+03,1.509694223475448325e+03,1.856524734572830709e-02,9.977762701692084735e-02,-9.948365477493597009e-01
1.504052894333059839e+03,1.425649014086745865e+03,1.582765050695975106e+03,-4.848456692301313375e-01,-5.602873903900364994e-01,6.715673586459581790e-01
1.555159668064760126e+03,1.425271604862784898e+03,1.457786857637463754e+03,1.399127263260446438e-03,-9.986622715256333604e-01,-5.168858553069081291e-02
1.588474850824761234e+03,1.506886555371797158e+03,1.588800534818623873e+03,-4.543766857053820746e-02,-6.653708761643004621e-01,7.451288582703161634e-01
1.348850826494761804e+03,1.551452371150573299e+03,1.436925053867968018e+03,-6.137163631579135581e-01,1.352849411254128664e-01,-7.778497350368628327e-01
1.416257165428126427e+03,1.572122202607715508e+03,1.519805585365554180e+03,-7.207486492677944809e-04,9.976812615627177472e-01,6.805571870172631710e-02
1.442499792923163341e+03,1.539804587065489613e+03,1.437300286177290673e+03,-7.002574423132967851e-02,9.802498843174223264e-01,1.849501539348608059e-01
1.448477801657673126e+03,1.489787578676941848e+03,1.403904539420605261e+03,7.160159944076190108e-02,-4.945813837373664312e-01,-8.661769252398476837e-01
1.621580265849198668e+03,1.486715056761441247e+03,1.521705126114953828e+03,4.204473858625104588e-02,-8.235614289375376984e-01,5.656666975557028687e-01
1.556853272390091888e+03,1.621175106227527067e+03,1.518038968422467406e+03,-6.995102205417456920e-02,-8.805126081360130641e-01,4.688330208369418939e-01
1.507999038673873429e+03,1.453491621958682344e+03,1.504942490915582766e+03,-8.812146542940635374e-02,-6.189690693438938407e-01,7.804562117929025877e-01
1.466577196583213436e+03,1.510871925967475136e+03,1.438666782405642834e+03,-8.433375600810436024e-02,9.963344572074096517e-01,-1.433411939332066183e-02
1.545983021042695327e+03,1.544937391586650392e+03,1.449527129018167898e+03,1.059157607179258285e-03,-9.738799559322484090e-01,-2.270610261990491929e-01
1.534919245540441352e+03,1.581185838273712761e+03,1.588547879501384614e+03,3.780584972076381432e-10,-6.819905604421434564e-01,-7.313609748050624582e-01
1.627808361425828480e+03,1.483503529737815370e+03,1.555361272116859027e+03,1.167228939360173551e-01,6.615059669875251736e-01,-7.408006625746904605e-01
1.560559137710736650e+03,1.451951701085086825e+03,1.571040768051731902e+03,1.406658401580098972e-01,7.303733057026249309e-01,6.684070284861322042e-01
1.617027783868925098e+03,1.535881103213144570e+03,1.458562832008138457e+03,3.072939120487963908e-04,8.468517184792925256e-01,-5.318289880018959304e-01
1.520928124214487070e+03,1.490943784951355610e+03,1.556682421167757639e+03,4.338449458928272419e-03,1.082784225632172914e-01,-9.941111412027900940e-01
1.504514991850509659e+03,1.477735942120410527e+03,1.471756727357951377e+03,-6.010385930837931490e-01,-5.430759362590807937e-01,-5.863626327454517506e-01
1.565472910342448358e+03,1.473027805633980279e+03,1.570602886409692019e+03,-1.785230353945991937e-03,7.191811123201401479e-01,6.948203657309919290e-01
1.538098487688290106e+03,1.472077801404332376e+03,1.509298355372681954e+03,3.391901250810329393e-02,6.260693233285905546e-01,-7.790293338362528353e-01
1.564666602462619039e+03,1.531813778620737594e+03,1.578008581110941577e+03,-6.230774091369197155e-07,5.553901503739873124e-01,-8.315899114751040822e-01
1.530497842252967303e+03,1.418412474722041679e+03,1.530906361906874054e+03,-3.507737707871105282e-01,-5.999165606231331438e-01,7.190673695961333767e-01
1.466477943493622661e+03,1.599241644862092471e+03,1.454059798812211511e+03,1.864211172594710392e-02,6.740497635797335629e-01,7.384506672002556504e-01
1.597517720698507446e+03,1.573770615096900656e+03,1.442663932670716349e+03,-1.855922860575878763e-04,-5.289870700224959948e-02,9.985998659888721818e-01
1.391761429742983637e+03,1.422001656942717091e+03,1.512822066951635179e+03,-1.862546696090287279e-01,1.181505671701657684e-01,9.753715402482274754e-01
1.536526058633056664e+03,1.588214410408743106e+03,1.543369468898040623e+03,-2.374745664642327059e-01,9.456200140899753137e-01,2.222804967492641726e-01
1.553756607530845486e+03,1.418545949145749091e+03,1.498123623447087994e+03,4.779277041584551085e-03,-6.834865723974394847e-01,-7.299474391100769788e-01
1.469959190326467024e+03,1.475982928792665916e+03,1.521947541840220310e+03,-2.886752227180645058e-01,6.133483765813607658e-01,-7.351669094387240921e-01
1.554256675169409846e+03,1.513120683767505170e+03,1.610459993540357573e+03,9.022571391139398711e-03,-8.545506480170877994e-01,-5.192896910001845168e-01
1.513413458821470613e+03,1.471071553816592541e+03,1.458341663221643103e+03,2.525381211724689323e-01,6.366276169088912473e-01,7.286492810286615551e-01
1.621130075390305592e+03,1.515670040221256386e+03,1.621330308144902119e+03,-4.163052071818471034e-02,6.654813741982857911e-01,-7.452526016995135727e-01
1.411487790098172582e+03,1.602291778291062201e+03,1.422053727396260228e+03,1.847205353637814129e-01,5.775036628608404277e-01,7.952155954187712927e-01
1.539494512811055074e+03,1.479941248196304741e+03,1.620661625157392336e+03,-1.732108181323008065e-09,-5.382452401743722525e-01,-8.427882660725838360e-01
1.529455129035655546e+03,1.479696327537637217e+03,1.496228970672471860e+03,-9.385897428650630259e-02,6.433281228006908492e-01,-7.598153850506214058e-01
1.545739090807451021e+03,1.532298040675945686e+03,1.535787993181907950e+03,-5.010481652457764902e-09,5.804509380857726386e-01,-8.142952219406340841e-01
1.574210531211910848e+03,1.581975250907553573e+03,1.475721551626887958e+03,-1.721981172650679237e-01,-8.694896862250814928e-01,4.629638149559587856e-01
1.489631430968814811e+03,1.503900142732329414e+03,1.456685621492468499e+03,2.822649288646326970e-02,5.091609356021239430e-01,-8.602083507825882824e-01
1.497556497292400309e+03,1.548226189825383017e+03,1.428110899790017356e+03,6.082096388806929738e-02,-7.052397350988092173e-01,7.063552409301482315e-01
1.514383895377402496e+03,1.410239680286052135e+03,1.437868539846431077e+03,-3.136092386012435951e-02,6.636064817726459175e-01,7.474241966942003490e-01
1.567208296805043119e+03,1.575366792934282557e+03,1.552134024995796835e+03,1.723305560498958611e-01,5.717669141130463650e-01,-8.021126949358039493e-01
1.547015677436246733e+03,1.593642837838847981e+03,1.470920349181664506e+03,7.161142277040038269e-05,-2.923872300340333852e-01,9.563000065799588389e-01
1.602837111002878601e+03,1.585830972490325621e+03,1.452572975385399786e+03,6.040370309611375887e-01,-7.036426166616994715e-01,-3.742009263018069021e-01
1.497184989639411015e+03,1.544739151663349048e+03,1.565644453796161770e+03,-1.296964623645853238e-10,-7.989973838865398470e-01,-6.013344997108226453e-01
1.625075481942204533e+03,1.454024525996387183e+03,1.571618255955860832e+03,7.035307010963658125e-02,7.358803143479737408e-01,6.734468119170777811e-01
1.524445268516051101e+03,1.457083838919976870e+03,1.516496090760070047e+03,-2.900736260519079859e-02,-3.751555306471853757e-01,-9.265079064635766137e-01
1.552974340819899226e+03,1.576494186918408559e+03,1.524674307412216649e+03,-3.276753340943204912e-06,9.686772451375322834e-01,2.483231659391126889e-01
1.537635077302324362e+03,1.509484612666170278e+03,1.480149369816517265e+03,4.206114942067758385e-03,6.595118507780581840e-01,7.516823978785150961e-01
1.441101307480907963e+03,1.536846947906793048e+03,1.505527496189401745e+03,-4.137729362001409394e-01,9.102859155695063320e-01,-1.309615149957143836e-02
1.499042492198227819e+03,1.426487758606092257e+03,1.429561434839098411e+03,4.072198313190750207e-03,1.422776339240630905e-01,-9.898184136930714416e-01
1.513089439972506398e+03,1.530607917952627304e+03,1.492988302806405500e+03,5.033724417597486593e-04,-4.663798918237504476e-01,8.845843900491641154e-01
1.664287329929077032e+03,1.469423550467070299e+03,1.507434666910818351e+03,9.184996829934044191e-03,3.725790398404650317e-01,9.279550069398792012e-01
1.442122057853114484e+03,1.581526603273605360e+03,1.532966985774581872e+03,6.827179257288666127e-03,-4.594104157161559843e-01,-8.881978718477643309e-01
1.557416530824599931e+03,1.511965350633836579e+03,1.595052979082304091e+03,-2.989548875644117143e-02,-3.718620956578291836e-01,-9.278064677318115239e-01
1.433072610990399198e+03,1.597236962660454083e+03,1.419197925795520632e+03,8.428490192294385563e-03,6.607183100068446391e-02,-9.977792710320732006e-01
1.489118483566296845e+03,1.553316592039313491e+03,1.482961113861260401e+03,-9.041699307554817988e-02,9.945000733539305360e-01,5.286181478347936474e-02
1.599235311840728173e+03,1.483402532033196621e+03,1.590453069307603982e+03,1.115580211362745362e-03,-6.209854524654584429e-01,7.838212955177104035e-01
1.510789562389320508e+03,1.402640295011509579e+03,1.493789483760226631e+03,5.785732860886976317e-03,-8.334457800716691400e-01,5.525709519835344530e-01
1.494979449340838528e+03,1.423075198472416105e+03,1.467202126699897917e+03,-1.785564059779137513e-01,-2.120837672117114880e-01,-9.608007522736121686e-01
1.530530210911672157e+03,1.464807502102300305e+03,1.570274355173570257e+03,-1.617137706067932057e-01,6.572919355723912949e-01,-7.360814953710171915e-01
1.712257919498308638e+03,1.488596434216385433e+03,1.480882661787736197e+03,1.058724775646258847e-03,9.647546526066543837e-01,-2.631488920281885857e-01
1.455846977696817021e+03,1.559504525958636805e+03,1.457003667031027817e+03,8.453477245726884193e-03,6.027757020920797570e-01,7.978658983124020665e-01
1.556275301724601150e+03,1.503005563113828202e+03,1.385067668596627300e+03,-1.865501674096723143e-04,3.353006769492337669e-01,-9.421111512111618458e-01
1.609400082595514732e+03,1.585824741328046684e+03,1.462857311037191721e+03,5.414957676290513278e-02,8.456092875266616460e-01,-5.310487324013211108e-01
1.535402591396494699e+03,1.594638801417228706e+03,1.594929765846953160e+03,-3.353955737330056031e-01,-2.221135368533736221e-01,9.155191892400689202e-01
1.596019999422597493e+03,1.485354753005019802e+03,1.474934194703755566e+03,4.382393150762383532e-02,6.588840662834595241e-01,7.509668769160121604e-01
1.550038341746221249e+03,1.458394501117790924e+03,1.490852011730153208e+03,2.473005504587643929e-04,9.801843702928239033e-01,-1.980872006872180513e-01
1.610602438965175679e+03,1.469031297429849019e+03,1.497912964244034356e+03,-1.350639585530384254e-02,-8.947386373188898068e-01,-4.463858736113139325e-01
1.563873610335819649e+03,1.620429267929092930e+03,1.456982673630007866e+03,-1.141321108446036918e-03,-7.361052411479291901e-01,6.768661398981902222e-01
1.530952374888661325e+03,1.503098400300544654e+03,1.574013957998399974e+03,3.474577761539545673e-01,7.492163549404254885e-01,5.638687323126996276e-01
1.614141639469359006e+03,1.589313353039841331e+03,1.568726554265234427e+03,1.391949962357536333e-02,-7.654517808314873495e-01,-6.433426915354940601e-01
1.547117118905546249e+03,1.506879946777809209e+03,1.432309593100906568e+03,3.381825330940690466e-05,7.569673960368886734e-01,-6.534526457161666801e-01
1.693699043883168997e+03,1.593170558588564063e+03,1.497841834041819538e+03,2.743672995726376684e-01,-5.151947009629661567e-01,8.119710616917934498e-01
1.569537298093512391e+03,1.396995901060655342e+03,1.446124377376781695e+03,1.213131234308198331e-01,-9.338388663214252094e-01,-3.364938303014990417e-01
1.593961737601069899e+03,1.633529780351788759e+03,1.560178863383378939e+03,9.469534547615268139e-01,-1.783644488550654300e-02,3.208753897528686672e-01
1.450647658434064397e+03,1.526231633927654684e+03,1.415639244484410256e+03,-8.814454810785634156e-03,-5.093441022298911269e-01,8.605178039471438334e-01
1.593801114612700985e+03,1.448397399275417229e+03,1.473873419317690832e+03,-1.360059140660803932e-02,-2.321663661361362263e-01,9.725810004048670576e-01
1.523720306546550546e+03,1.507892174604758111e+03,1.593494699249020414e+03,-5.464420213689956368e-08,-7.796777066204744200e-01,-6.261810231866137277e-01
1.436078065486762853e+03,1.398337802525574034e+03,1.495779871458955540e+03,-3.314631958896763902e-02,1.201887677072051991e-01,9.921975517076876416e-01
1.543762284785369047e+03,1.557543950274609870e+03,1.506327856772607674e+03,-4.195182289489829963e-01,-4.668747678467890516e-01,7.784808326012372381e-01
1.559227023545218572e+03,1.549272553457080448e+03,1.466731092034105814e+03,-1.317386126555246768e-06,-6.824442331447082566e-01,-7.309376639945404097e-01
1.376636125265922146e+03,1.594789469537672630e+03,1.464421328860094491e+03,5.990738684867472769e-02,9.526979913435743574e-01,-2.979557723738238129e-01
1.546240531254082498e+03,1.475474572582304518e+03,1.582544986575495386e+03,-1.778064094902613856e-01,-1.914449358391158706e-01,9.652635480974811610e-01
1.486767310422121000e+03,1.521833987362575272e+03,1.406733299296384303e+03,-1.009217237853176578e-03,1.995134818934664600e-01,-9.798945616867726915e-01
1.504516618219134671e+03,1.436828724596127586e+03,1.498031326287041566e+03,1.299156982679950181e-02,6.716338412225634213e-01,7.407693314642959104e-01
1.430420668675686784e+03,1.520726509753894106e+03,1.455979474542016760e+03,-6.293131028612959643e-03,-4.273385992437669367e-01,9.040697528942288619e-01
1.478086265045063556e+03,1.404668762686124865e+03,1.472378535139211635e+03,-7.372888650625750162e-02,-9.244777549071450107e-01,-3.740386771129319832e-01
1.681097873134563088e+03,1.452083169163840012e+03,1.551309597639535014e+03,-8.367712067255993549e-05,9.245613738953215588e-01,-3.810331467194618682e-01
1.485364174118515393e+03,1.521139585265546202e+03,1.651149383661085494e+03,5.423872269106200522e-09,-9.946418355724088167e-01,-1.033809408408987301e-01
1.514106940963739817e+03,1.495723126607165113e+03,1.558179221933321060e+03,-3.528024081636405573e-01,5.868991578865389441e-02,-9.338554248804558089e-01
1.503569817300212662e+03,1.395104215679436038e+03,1.550470531669465117e+03,-5.951508412159411086e-04,6.353815351264135991e-01,7.721981291196439168e-01
1.558452786863787423e+03,1.464243193105134651e+03,1.552691756924059746e+03,-1.014870273024354825e-03,3.869608239621666890e-01,9.220955974067168714e-01
1.630078910963226008e+03,1.418446888903496756e+03,1.569490098638694235e+03,-1.477381509817971201e-04,7.135476769572757227e-01,7.006066591763983054e-01
1.335819871516274588e+03,1.558947395373995278e+03,1.382964655624438819e+03,-7.037182783588311619e-01,3.287853521847628468e-01,-6.298259893751799732e-01
1.538412580914460932e+03,1.494709162788183221e+03,1.541433967302896463e+03,8.243008842003650084e-09,-5.014021471305792899e-01,8.652143589035291571e-01
1.533579801781987271e+03,1.460154120623726840e+03,1.590933287747846862e+03,1.248766378729048443e-01,8.862585622488061698e-01,4.460398930076080459e-01
1.419495273419899831e+03,1.590511460766284472e+03,1.616023941164026610e+03,-1.744327189774752930e-03,6.262531937639418400e-01,-7.796177875235517085e-01
1.519191553697380186e+03,1.515238473838078789e+03,1.469968642097833254e+03,2.014942060669235036e-01,-9.472306611146633637e-01,-2.493073596301123296e-01
1.438382406066373505e+03,1.622997618868846075e+03,1.593401217871672543e+03,5.807225151130157581e-01,7.783540741129477691e-01,-2.385923212355940404e-01
1.436618377907739614e+03,1.517600210240857677e+03,1.452489378280122537e+03,9.682216069503873923e-01,-4.512827831227897435e-02,2.459885329257831543e-01
1.505003825743893231e+03,1.551910460244659362e+03,1.470525713499224366e+03,-1.318829744645861127e-03,5.069921803009648231e-01,-8.619496445859112788e-01
1.497048940157457537e+03,1.457295498501624024e+03,1.538062140308867811e+03,-3.130010996481713548e-02,-7.144128607393736008e-01,-6.990240106937490872e-01
1.650399321540847041e+03,1.645556146039305304e+03,1.443219726419140443e+03,2.861988062555766762e-03,-8.840083691773705787e-01,-4.674623110462441389e-01
1.583941376036980273e+03,1.557814838371088172e+03,1.510530059765288797e+03,-9.310585262673760909e-03,3.486050155468562450e-01,9.372234824937126785e-01
1.489068058387630344e+03,1.622949110092702995e+03,1.598267568102573705e+03,6.323436333544342595e-10,-6.401978174526683496e-01,-7.682100979086644577e-01
1.475809895021106513e+03,1.577699538029774885e+03,1.616954797757909773e+03,-2.250778158395148540e-02,7.134762894991618642e-01,-7.003177736504174744e-01
1.462498176391896550e+03,1.471608355010204150e+03,1.591090913075371418e+03,3.662663241051091756e-01,-5.836452172465515786e-02,9.286778571875090593e-01
1.667296545021131806e+03,1.374429615741803673e+03,1.551435288878871916e+03,-5.561533340006292320e-02,7.124433053085433842e-01,6.995223165931431231e-01
1.591169045280426644e+03,1.570018048335673029e+03,1.553402922301196668e+03,-1.125028836399961907e-04,6.858924958993126708e-01,-7.277028730272490087e-01
1.547053312071131586e+03,1.515727341104755396e+03,1.503824911568793368e+03,-2.442871893417956279e-07,6.373569497703397424e-01,7.705686981570100125e-01
1.567037320263327047e+03,1.546923779356611476e+03,1.570465584385796546e+03,-1.054384599640728060e-01,-7.725037779283451256e-01,-6.261953722655881904e-01
1.446719690172657465e+03,1.478564991235779416e+03,1.522264491523442530e+03,-9.789396066613544056e-02,7.113299586585103418e-01,6.960075160369888492e-01
1.592242278309369567e+03,1.537017605346757819e+03,1.524045119414440705e+03,1.156033495222649893e-01,-8.252169826910074057e-01,-5.528587496436885296e-01
1.465203779388325984e+03,1.422301714061584335e+03,1.543583818312448784e+03,-1.666564216820680459e-05,1.847616165136432009e-01,9.827833661522369368e-01
1.606260569381209962e+03,1.482389369437276855e+03,1.449155817052156635e+03,1.461196750748202516e-02,4.831363206534172172e-01,8.754232039825302625e-01
1.433341756923465027e+03,1.459695337138210789e+03,1.474407141055970897e+03,-7.279255743023644448e-03,1.643464256976672200e-01,-9.863758233027758449e-01
1.447945827601389283e+03,1.569981002299236252e+03,1.463563800012499996e+03,-1.473794224823440080e-01,-4.549342682682673902e-03,9.890695674773976043e-01
1.716513541894121090e+03,1.479374342501878346e+03,1.524258573698659120e+03,-2.919944965666899095e-01,8.842689911445028583e-01,-3.644277229781627270e-01
1.509418014284124865e+03,1.469974562746182983e+03,1.531051033535328543e+03,2.418569574779294018e-01,6.109710480979848590e-01,7.538034163530760168e-01
1.647082165930132987e+03,1.400490761299317683e+03,1.562268369485284893e+03,-3.708626826909153983e-06,-3.396815399680612746e-01,-9.405405102339677859e-01
1.440281523142157994e+03,1.548730818994833271e+03,1.408907800605152488e+03,3.380493950553104532e-01,-4.021884429320080612e-01,8.508625405285307197e-01
1.486524333864004802e+03,1.381657581426279194e+03,1.561767138918000455e+03,-2.856254241618940704e-01,-6.139340681378340214e-01,7.358689265433535631e-01
1.574390121998679888e+03,1.610099031373054459e+03,1.456983042379983999e+03,2.781222468176425267e-01,-9.424843505501345753e-01,-1.853948888000891970e-01
1.466862897538067955e+03,1.583307908512586437e+03,1.389921413732264455e+03,4.268091778397528624e-01,-1.567849835672061598e-01,8.906471774162791899e-01
1.597331388428034643e+03,1.619315035883820883e+03,1.486610591400090470e+03,-1.415035208442291803e-02,2.821493344496505684e-01,9.592661364842950400e-01
1.542038866976097779e+03,1.434205247412103290e+03,1.516969692334803767e+03,-2.501972246441854322e-04,9.890333654626981552e-01,-1.476920424494076178e-01
1.548163406702347629e+03,1.512037874394582332e+03,1.485338712145054160e+03,-2.555461757301255021e-01,8.032022846489647039e-01,5.381098791180025653e-01
1.558749220388659296e+03,1.583488615284712523e+03,1.565153568642929258e+03,1.756424937095549255e-01,-5.467560653323649822e-01,8.186620300378903980e-01
1.507650635637503001e+03,1.588902146558256618e+03,1.502370951538303871e+03,-7.145070390061433567e-03,1.315021466405536799e-01,-9.912901358321122292e-01
1.441180705381887037e+03,1.441573214669604795e+03,1.455906674633734156e+03,-5.219317752716915587e-02,9.957506473889458087e-01,7.587173679383416025e-02
1.523912211837314089e+03,1.639823104111144175e+03,1.622239372232920232e+03,-7.971935552267350196e-11,-6.813713188634406004e-01,7.319379248476578503e-01
1.598853077762243856e+03,1.533162003179382282e+03,1.480550369366434097e+03,-2.808996934222683373e-01,9.429403315728515089e-01,1.787705046380874685e-01
1.464994407756583314e+03,1.440542632089569452e+03,1.537951134355335626e+03,-2.968478064890410495e-02,7.143334313966756000e-01,6.991756307158289996e-01
1.382743478374865617e+03,1.592731715235503316e+03,1.421412995288917728e+03,2.022512040251400744e-01,-6.470866766011877658e-02,9.771935523733430440e-01
1.577488042129139103e+03,1.574646745583752590e+03,1.475125836834427673e+03,-2.448199961510578310e-02,2.677440587667380134e-01,-9.631789816487689171e-01
1.531288240181552965e+03,1.414148858579205580e+03,1.555213053139666044e+03,-2.083672756691839513e-04,9.876059720587839763e-01,-1.569534980078581277e-01
1.505322169002369947e+03,1.571455032519029828e+03,1.536446748305759911e+03,4.558378073819087527e-10,-6.694523248989645570e-01,-7.428550226574303084e-01
1.517904761154374455e+03,1.548904849841901523e+03,1.632523200235172226e+03,7.438341250613699288e-03,-9.984114673508427407e-01,5.584991442944820667e-02
1.558422649983983092e+03,1.517318584624820232e+03,1.499033620293754893e+03,-3.014120429667564944e-07,6.137544625648142516e-01,7.894969662270305832e-01
1.336056631602344396e+03,1.593395915179858321e+03,1.396613811450198455e+03,1.870416595740193033e-02,-9.888757228060321980e-01,-1.475634067805617622e-01
1.610143840350400524e+03,1.486686489656199228e+03,1.634921122555716238e+03,-7.158677873028804206e-02,7.358155601189021455e-01,6.733875515614518026e-01
1.507112985592096038e+03,1.440288484761833388e+03,1.600522797270104093e+03,-3.381731294106146354e-03,-6.726491964820670022e-01,7.399537974532492957e-01
1.490545967974065206e+03,1.530326207102313447e+03,1.586108126385046489e+03,1.171825313671077812e-01,7.934926065844098986e-01,5.971915418341721127e-01
1.607825483505635475e+03,1.572850053790363972e+03,1.424654976709861785e+03,1.773268402401207422e-01,9.656468060143276189e-01,1.899511457316917784e-01
1.521863405011020859e+03,1.654479639545711279e+03,1.506946371029752754e+03,1.377118220611219836e-02,-4.186588080074045704e-01,9.080391825347985391e-01
1.613510921460363988e+03,1.661818486902803443e+03,1.462316846641021812e+03,-6.073455789260663536e-05,-4.485993187274794347e-01,8.937329844805745882e-01
1.575442870455378397e+03,1.506175833851371181e+03,1.495993491848813846e+03,-6.767794885207554980e-04,9.601245423439050963e-01,-2.795718246863060363e-01
1.569952054664529896e+03,1.490430732020218329e+03,1.502207035274717555e+03,3.018072548863351477e-04,8.853089815654092698e-01,-4.650031355507174280e-01
1.455886550731336229e+03,1.569854089454491714e+03,1.483333861635579296e+03,-3.240613142208477460e-03,6.634022958162691941e-01,7.482559002989324082e-01
1.494037376341399522e+03,1.469423467456750814e+03,1.434686025924471778e+03,-8.595046839390282174e-04,7.656984919435000370e-01,-6.431990987922387992e-01
1.532396501242656768e+03,1.425625890886060006e+03,1.459947901322778534e+03,6.202027414359134044e-02,6.393882368466048405e-01,-7.663786062889175188e-01
1.358908256018987686e+03,1.542151747066942107e+03,1.489937351155731449e+03,-5.494062526974041738e-01,1.431719474530250003e-01,-8.231977666147450856e-01
1.598584712276963728e+03,1.534755720014371946e+03,1.455644719399078213e+03,-4.849099897289382388e-04,-8.325957460782846820e-01,-5.538809334817785812e-01
1.294125376836119131e+03,1.568583267081574832e+03,1.442115014233122338e+03,-1.495968990811107624e-01,-9.225165899530335389e-01,-3.557863249855768295e-01
1.670622331995439936e+03,1.524875213550745684e+03,1.600362157655737974e+03,-4.788254980899048219e-03,-6.644067519624469176e-01,-7.473558326265670182e-01
1.538031446324682065e+03,1.416433902686136207e+03,1.520992832306729042e+03,-2.521921349839186810e-01,-6.199148110791586896e-01,7.430375186065264481e-01
1.388611527809869813e+03,1.512941090260984993e+03,1.514457780844787521e+03,-2.435919282316168638e-03,-9.026180266130539448e-03,-9.999562962285168943e-01
1.500210375422512470e+03,1.476870502975486488e+03,1.550795871562140292e+03,-2.933493478102726371e-02,9.358668881066185552e-01,3.511305018750530138e-01
1.526520806531946619e+03,1.522031653772997515e+03,1.566035008985832746e+03,1.541320556223996869e-03,-6.576596659294968727e-01,7.533136054396240011e-01
1.429360420055660370e+03,1.554286391596909425e+03,1.498560144679377117e+03,-7.777216453836813823e-04,8.443455527277823336e-01,5.357984534672138865e-01
1.476789307131696432e+03,1.588495831077482308e+03,1.494270453184601820e+03,-8.287945813963633057e-01,5.053036773619520305e-01,-2.403491949071503708e-01
1.458048488211861695e+03,1.504035388848053799e+03,1.415603872205988864e+03,-3.199285911975856007e-04,-2.559731962542375894e-01,9.666838265146914244e-01
1.496771024879238666e+03,1.454945632288071693e+03,1.597228838706408624e+03,-6.812701239276094944e-02,1.080278712165105709e-01,-9.918108132213853123e-01
1.515436354136416185e+03,1.498538089199307251e+03,1.573119744347373853e+03,1.936579476043428019e-02,-7.078240991096105272e-01,7.061232262947912952e-01
1.622711172694608649e+03,1.596108290987295959e+03,1.491304821254614353e+03,3.403503959258692702e-02,-9.048530291588738894e-01,-4.243614163681014850e-01
1.402178718093962516e+03,1.551176088434516942e+03,1.504483530899528887e+03,-3.464160774326341397e-01,6.673995176477354185e-01,6.592221060763643337e-01
1.622072022760257596e+03,1.557753897159029975e+03,1.454510032194322093e+03,-1.903149460789809733e-01,-5.259623532324702033e-01,8.289413877235933814e-01
1.472009318516874373e+03,1.540729197087039893e+03,1.561174416694732372e+03,-6.395309492052952960e-01,7.323501941818250094e-01,-2.338019634015446879e-01
1.480772641952605909e+03,1.549291968969401978e+03,1.637640839168343291e+03,2.855938918741088642e-02,7.765898102666718428e-01,-6.293589022801033828e-01
1.429018566558776683e+03,1.588229998819725552e+03,1.380533861190142488e+03,-9.669346548532238572e-02,7.250492746506963515e-01,6.818752987613923011e-01
1.546515443844494030e+03,1.509566577940922116e+03,1.514972203469659235e+03,-1.884166730709589330e-02,-1.648372756844040665e-01,9.861407932531908171e-01
1.445710855932447203e+03,1.590215524674868220e+03,1.435794797186244750e+03,1.626954381787851928e-02,-4.741617642382570802e-02,-9.987427136942240713e-01
1.560013482413663041e+03,1.504559512597726552e+03,1.617781663324973351e+03,3.602898898586186140e-03,-6.045967903658654441e-01,-7.965235339893104172e-01
1.529601633097614013e+03,1.628665419450024729e+03,1.424036355187046865e+03,9.325521569516084797e-02,-4.978544887550022113e-01,8.622322035114116101e-01
1.399418175535408636e+03,1.536981448578534810e+03,1.430805145690799236e+03,-1.818942384047201322e-01,7.541903916377036277e-01,6.309606478985310130e-01
1.498701830959191511e+03,1.447537008923886788e+03,1.464756908588409942e+03,3.974762810754682747e-03,-7.802780406301639271e-01,-6.254201632270506295e-01
1.432356545572414689e+03,1.461182841091668934e+03,1.410734051986244140e+03,2.065617254378838419e-01,-9.783323282146251243e-01,1.407512537334087120e-02
1.476341550266152581e+03,1.496051737443530556e+03,1.521811954386521620e+03,-4.491679643669823502e-02,-9.722298866689191854e-01,-2.296770098760535783e-01
1.617805537354327498e+03,1.501096420163668654e+03,1.468048691510930894e+03,1.261583640340363799e-01,2.303326874484879216e-01,-9.648994353180090355e-01
1.561047140769034741e+03,1.573451958586212413e+03,1.546793630753157458e+03,1.228863382508688746e-03,-7.084696040309812481e-01,7.057402567935117110e-01
1.511574506346480803e+03,1.419766314367470386e+03,1.422818009167837317e+03,-1.189509411609575434e-01,-7.747442901322527664e-01,-6.209846684938318262e-01
1.580213388796495110e+03,1.463181906180182523e+03,1.502838446653901883e+03,4.257870801900620616e-02,-9.719793529889478867e-01,-2.311778341161162820e-01
1.490943246019086928e+03,1.552035386270278195e+03,1.557860141205583204e+03,7.844955598689254961e-01,4.213859615195499897e-01,4.549731728137226261e-01
1.486017988068662589e+03,1.558279747109550271e+03,1.509613583800728065e+03,5.639992532041279953e-06,-7.590243394292538470e-01,6.510622490378129568e-01
1.331850157433528693e+03,1.492572352690589014e+03,1.423922467356301468e+03,6.890514670785328200e-01,-1.241790684009096146e-01,7.139941419143464030e-01
1.511745273382634423e+03,1.508368235959007734e+03,1.462074904518021413e+03,6.489179880960858904e-02,4.867514549465928320e-01,8.711268997996951535e-01
1.472678621072177975e+03,1.484359542209816937e+03,1.471755281484156512e+03,1.149754568700069035e-02,6.855850279421277227e-01,7.279017625372034006e-01
1.432499271246774015e+03,1.441449558874928471e+03,1.549893148894415845e+03,4.401197619607978284e-01,-5.579671571794840856e-01,7.035390867895086053e-01
1.399127179768575161e+03,1.536526787881387463e+03,1.461171963747725840e+03,5.374577083055465804e-02,-3.752033332463900472e-01,-9.253830832896330350e-01
1.426624327163272255e+03,1.452323725100416141e+03,1.475444705871143697e+03,-3.243176834078945886e-02,6.852696728128671033e-01,7.275669425731459139e-01
1.396620734654204853e+03,1.453058477111280126e+03,1.588342401384318919e+03,1.522748812609451552e-01,5.420667072828128097e-01,8.264236476484287941e-01
1.424448542716717611e+03,1.529711456026512224e+03,1.500804793682964146e+03,1.412968381700749898e-01,9.407476359100918062e-01,3.082678852114066892e-01
1.563855138187509738e+03,1.454087369588864249e+03,1.520807849761008356e+03,1.600776748826021091e-03,9.932359926619817037e-01,1.161021119298362991e-01
1.517884476716905056e+03,1.645305685907297629e+03,1.517781344778340554e+03,6.789928960081700327e-01,7.331477530443859525e-01,-3.824943628874089008e-02
1.506422250588919269e+03,1.466360711384835668e+03,1.461754681324374133e+03,8.890239154119623398e-04,5.099711242362540281e-02,9.986984050057003959e-01
1.518844254405807305e+03,1.399358784935663607e+03,1.449937394146306588e+03,-2.881893376455222366e-01,-7.507624083279353933e-01,5.943927253164136282e-01
1.524571016000548070e+03,1.523607809325016888e+03,1.607755461825608108e+03,-2.391026420651734020e-03,5.673362873040325161e-01,-8.234827381923266465e-01
1.442622235522896517e+03,1.611578224719463833e+03,1.508474455694208473e+03,-1.578372747958739150e-02,8.442406272589472183e-01,5.357318706519795803e-01
1.557054491759360189e+03,1.492955276613189426e+03,1.466168073539058469e+03,4.562427392857871244e-01,2.066135956361009052e-01,-8.655364723380079006e-01
1.422928726390471184e+03,1.429955696894573748e+03,1.455610537738492440e+03,-1.467477673492442042e-02,8.385273890326984392e-02,9.963700964532206106e-01
1.449396565033428715e+03,1.549049396598543808e+03,1.532316231560969300e+03,4.106739376726104701e-02,4.182802302760303959e-01,-9.073891767755419835e-01
1.585389105613772927e+03,1.519090999058133093e+03,1.500803126628154132e+03,-1.150806613298850645e-02,-9.896265067038712004e-01,-1.432024498497552201e-01
1.461929933036679358e+03,1.575757315233269537e+03,1.449343312447186690e+03,1.982634416675582434e-01,6.807823960903102156e-01,-7.051432030954214447e-01
1.426360480101916664e+03,1.501837974700261839e+03,1.508392193617966086e+03,-8.526097615132985919e-01,9.279747083850729827e-02,-5.142423786291951959e-01
1.504132709379384323e+03,1.516574791841392198e+03,1.520351829892760861e+03,-2.308358719571444034e-03,7.710004291495227147e-01,-6.368304403302919026e-01
1.607503217353460968e+03,1.525387634899497243e+03,1.423328010348579483e+03,-4.424747101588847475e-05,-6.482256302995785813e-01,-7.614483109606819955e-01
1.403739958928258147e+03,1.466909580791245617e+03,1.500329149031502766e+03,-7.888754281566561222e-01,3.929131754090769424e-01,-4.725407870656335163e-01
1.387069966694057939e+03,1.537422699710390361e+03,1.551426500672339216e+03,-5.429028484296141155e-01,-6.732670324423944974e-01,5.019641423380989398e-01
1.494529399550804555e+03,1.520311031714089722e+03,1.473962434041369306e+03,-2.778121950445283997e-02,-1.547416648102582781e-02,9.994942491153027131e-01
1.584557936266064644e+03,1.603054568091655710e+03,1.524754846249462844e+03,1.795558124361943536e-02,-4.660282324452285629e-01,8.845876348141996637e-01
1.501633766731459900e+03,1.497570414792584870e+03,1.501385716506140625e+03,-1.708446736908660335e-01,9.546407128139902110e-01,2.438712916877632808e-01
1.433252539683389614e+03,1.467534522628983495e+03,1.465053755349487119e+03,9.248292124931237201e-03,-7.661609196619889595e-02,-9.970177749391426758e-01
1.433430652425113749e+03,1.568089926284043941e+03,1.480994689306506189e+03,-6.688953548645938663e-02,-5.471625797035754024e-01,8.343493880950199060e-01
1.549154367122552230e+03,1.489005392090740543e+03,1.460218681726805016e+03,-4.688800498708091550e-08,8.785745944012628428e-01,-4.776051528958353831e-01
1.593907168360306969e+03,1.430690415458459483e+03,1.512891451125631647e+03,-5.230291328483748226e-01,-5.460111919004324577e-01,6.544557315138634923e-01
1.588460517394781618e+03,1.467118847988649350e+03,1.528038864162282607e+03,-1.086126584891417834e-01,9.838371710002290493e-01,1.423647125315365414e-01
1.556679567597262121e+03,1.591096224899852132e+03,1.619590165889048649e+03,-1.005192875117276279e-02,8.615175431718363752e-01,5.076282907162922298e-01
1.528826481457719638e+03,1.494433428426838873e+03,1.613089789919516988e+03,-1.782899522111536629e-04,8.243315174634754383e-01,5.661073374626556243e-01
1.540049629823663054e+03,1.474128055962708686e+03,1.401980903572036368e+03,1.055923206123185422e-03,-3.383113709197682617e-01,9.410336345384100465e-01
1.620357938286325634e+03,1.637348353593388993e+03,1.547414713563808391e+03,9.341936890550481265e-02,-4.640650343818092383e-01,8.808612066480777658e-01
1.493096643793937574e+03,1.513135449285021195e+03,1.601811570185577921e+03,1.780542774596701183e-01,-9.824846989342581605e-01,5.495899051451753198e-02
1.586197983478420383e+03,1.569482650557645002e+03,1.559911462390051156e+03,2.437384117629023128e-01,-9.441084671388674243e-01,-2.219251876376275023e-01
1.462868644878608393e+03,1.458675660071710809e+03,1.474566587244688662e+03,4.925159575603855512e-03,8.168740928662450163e-01,5.767949888886901855e-01
1.447699001131412160e+03,1.489296017639117736e+03,1.388147433263715357e+03,2.282695434856302392e-03,9.630991939593587237e-01,2.691370132411843308e-01
1.499038173220528734e+03,1.475878251906176729e+03,1.548350766741215466e+03,-2.223590388668338677e-04,7.292278903502716902e-01,-6.842708780093962329e-01
1.395739348814953246e+03,1.465712493331026053e+03,1.460694836872947235e+03,1.764398727248374030e-02,9.789859480289350158e-01,2.031629968154038957e-01
1.478019976820113243e+03,1.582995508468947492e+03,1.499830500528954417e+03,-2.579128312338055395e-01,-5.824035191243537302e-01,-7.709001961321134688e-01
1.490316962838968266e+03,1.542555809143329498e+03,1.528691181328776111e+03,-4.500557157894891807e-10,-7.588658894152393586e-01,-6.512469285010238362e-01
1.640650326931493964e+03,1.570156357385929596e+03,1.482329213179563112e+03,4.542979023154019802e-07,8.696871931239674725e-01,-4.936032679348350549e-01
1.673075284643325404e+03,1.499203556278455380e+03,1.617616215061176263e+03,-1.694431996613549041e-02,-4.104577194108300908e-01,-9.117221893740140581e-01
1.554637498448872066e+03,1.562243749430403113e+03,1.499951315263458582e+03,4.044130143880139694e-02,4.224662110924568559e-01,-9.054760083089555822e-01
1.564909695792661523e+03,1.460401892100069290e+03,1.474252720429494047e+03,-3.100773069327115907e-03,7.451846384364719800e-01,-6.668509877361487037e-01
1.452565163188145561e+03,1.430353954615386556e+03,1.426444661779282569e+03,5.043103078663913226e-03,-7.721031692790839562e-01,-6.354771932182399219e-01
1.391522677396069412e+03,1.469366911182357399e+03,1.498372542790405305e+03,1.435320033357153323e-02,5.875134492514367812e-01,-8.090870982711712012e-01
1.672418601514450302e+03,1.507025818410320653e+03,1.488337738662805350e+03,4.091610897588741913e-02,3.722827406987923027e-01,9.272170366230708671e-01
1.530270836761777218e+03,1.561378085849857825e+03,1.490476826290911504e+03,1.652753868830378999e-09,-9.601863393022567195e-01,-2.793603297129558793e-01
1.487120386530505812e+03,1.511617035058934107e+03,1.561252629694883808e+03,4.179909822406820824e-02,8.142000739283152821e-01,-5.790777797522373982e-01
1.505998609442779070e+03,1.500392096858639434e+03,1.665308682442383770e+03,-4.721643127949719590e-04,-6.952353401955597700e-01,-7.187820245415337261e-01
1.505325735430352552e+03,1.618746083369678900e+03,1.502556417007111577e+03,1.026709111565593004e-02,-9.860497382902633223e-01,-1.661339834522908565e-01
1.564076911779374768e+03,1.508660904223234411e+03,1.523376571966616893e+03,7.787761035699102344e-03,6.406020769629401368e-01,-7.678335299847344197e-01
1.335990556809455484e+03,1.454199966370156289e+03,1.466231810498279401e+03,-1.281366468758472071e-04,-8.143831704312659570e-01,-5.803275241614164193e-01
1.444815706816568081e+03,1.503181537566556926e+03,1.474702404489057244e+03,8.400334704529065916e-03,9.577539580144120990e-01,-2.874661550245167785e-01
1.434650515924022102e+03,1.502067288082047526e+03,1.508642944975249748e+03,4.002042086025490719e-01,7.321041423637503209e-01,5.512350824744786104e-01
1.449276037753151741e+03,1.423698307798872747e+03,1.488179799840266924e+03,-2.048752362224741993e-03,-9.002718754209219076e-01,-4.353232740617650198e-01
1.676300516773019808e+03,1.610990451512235722e+03,1.393582419167563785e+03,-1.982968240870032484e-01,5.251152866493883353e-01,-8.276063709784614586e-01
1.645412269082915600e+03,1.448940570010463944e+03,1.624315688676897253e+03,-1.592680239705617645e-02,8.219049778751398305e-01,-5.694019180767405652e-01
1.586212414791832771e+03,1.597706925491311949e+03,1.487546420174705645e+03,4.383509474694015640e-01,-8.559470605670131960e-01,2.742317931228397954e-01
1.401617827100259092e+03,1.560873526700677985e+03,1.527314165112088176e+03,1.184405711798497121e-07,7.711297573061295374e-01,6.366780170517716275e-01
1.566189679892821005e+03,1.555415674561917740e+03,1.547340627076739565e+03,1.756375019884456531e-02,8.306588770847026515e-01,5.565045773390668860e-01
1.521431175758147447e+03,1.392481731525364467e+03,1.583226353152119827e+03,-7.105108236338610050e-02,5.752505737666374630e-01,-8.148855877214578047e-01
1.506084290271906411e+03,1.417958416507088032e+03,1.553342888285329082e+03,-5.244657458624370260e-05,-4.929659882179870389e-01,-8.700485800859745211e-01
1.551536093158816811e+03,1.575619197004341686e+03,1.494957020625155792e+03,-1.983441436312762263e-01,9.756354839280328983e-01,-9.378167831558999190e-02
1.554701281285075538e+03,1.534604194246747284e+03,1.504031354677812260e+03,-7.187608533261875543e-01,-5.159092585371989337e-01,4.660691715629863285e-01
1.513552761036414950e+03,1.428647125531358597e+03,1.594268990402631744e+03,3.409642177370009793e-03,9.843844216806850733e-01,1.759991042380767701e-01
1.558827230026073266e+03,1.574812438849802220e+03,1.591913179868776751e+03,3.680337149863983220e-02,9.909711421028882805e-01,1.289252006615868862e-01
1.600296472641288801e+03,1.424038912814135983e+03,1.588051294670802235e+03,2.102012408840399013e-02,7.766812120725300472e-01,-6.295430479298883553e-01
1.555040489161222695e+03,1.561972297080708586e+03,1.589569348218192545e+03,-5.513900464377423649e-01,6.890585592918602176e-01,-4.702842954596828662e-01
1.610103331036353893e+03,1.488529686872566344e+03,1.447456424837373561e+03,4.454603687157929204e-03,9.950606276054276833e-01,-9.916906723108145916e-02
1.545454025079372968e+03,1.493825962303418464e+03,1.596699456729130134e+03,1.031952399884481092e-01,-6.885191806290903438e-01,-7.178384778970633429e-01
1.478392574857169393e+03,1.376712988705349517e+03,1.478564816071150972e+03,1.017456954252489443e-01,8.956017409753380676e-01,4.330650471053696382e-01
1.519401023685559039e+03,1.472560225633895698e+03,1.464115152029067303e+03,-1.428122077743952667e-01,8.483288891638508522e-01,5.098458287763367736e-01
1.551829010426671857e+03,1.544161727992171564e+03,1.543021975101160933e+03,-4.600545898100154296e-02,-7.762296163889923495e-01,-6.287694970214007251e-01
1.518067732987374939e+03,1.485004194082425329e+03,1.477135559024515487e+03,-1.275908928561676238e-02,-6.716358519360423607e-01,-7.407715491531435825e-01
1.553428286711268811e+03,1.617337791174329823e+03,1.543552612502253623e+03,1.097796735039707067e-02,9.785582735870654858e-01,2.056773916286272763e-01
1.618798987901722057e+03,1.498548262491882724e+03,1.502566844616972958e+03,-7.570855849388744702e-03,8.430849024597415475e-01,-5.377271886246368648e-01
1.515939807381585297e+03,1.339283733804447593e+03,1.505556656841146605e+03,-1.262769857129053368e-02,3.208049552725577569e-01,-9.470610972378523673e-01
1.440796577021075564e+03,1.431731692366718789e+03,1.503235256147045448e+03,3.421374017517924693e-01,-7.163163132623313611e-01,6.081389131413925675e-01
1.571209424284592387e+03,1.550435646486824680e+03,1.599935151181460469e+03,2.168863626012211276e-01,-2.393439275026842117e-01,9.464009668661594876e-01
1.546456730606706969e+03,1.478558449426348943e+03,1.460795249739033125e+03,-1.561655261520090857e-03,8.188668790308293310e-01,-5.739813548009669031e-01
1.495851298097848257e+03,1.529039009112497524e+03,1.427245283377457554e+03,8.053776712094530598e-04,4.677601215216997121e-01,-8.838550899784486381e-01
1.623467019459368430e+03,1.590437608662201001e+03,1.579771536713936257e+03,-1.275411652446263866e-01,4.054451619457080103e-01,9.051781436948538317e-01
1.562277204137371882e+03,1.636277804209555825e+03,1.551171949202248697e+03,-1.172342955144627802e-02,-3.262829841876867532e-01,-9.451994368540059810e-01
1.479929707280213279e+03,1.516986314703083963e+03,1.411152984028647779e+03,3.105934789479680713e-01,9.356401649466770110e-01,1.676579034031890347e-01
1.671225089434783740e+03,1.429803467662256935e+03,1.587172067509441604e+03,9.881996064750669332e-04,-6.193731131433893866e-01,-7.850961534593096092e-01
1.453014106713204001e+03,1.533844438923968255e+03,1.423282440508683521e+03,3.226368661629824136e-02,-9.647180435992455116e-01,-2.613008818966546798e-01
1.544041569951945348e+03,1.549795813881378308e+03,1.495097254117094735e+03,1.306291555520901759e-01,8.236682654094822364e-01,5.518211778077048990e-01
1.621904180731088672e+03,1.603741239615635095e+03,1.475398916696313108e+03,2.510484527351349859e-01,5.185964998740959508e-01,-8.173324566525126400e-01
1.595180787108502955e+03,1.521521486017231837e+03,1.587304437577888621e+03,1.204670061950670334e-02,5.416679694308893511e-01,-8.405062093148396585e-01
1.553703056517745836e+03,1.514395525693798163e+03,1.564595121631487018e+03,-2.785427488969667315e-03,-9.987153901936068889e-01,5.059457267469661540e-02
1.644788856195860490e+03,1.635149942585574991e+03,1.400877860309370590e+03,1.520911110379871353e-02,7.288675841774125974e-01,6.844857395700912894e-01
1.613782678980542642e+03,1.393372336870046183e+03,1.542948461032549176e+03,7.285853308284782059e-01,4.387969319508218669e-01,-5.259474006135049784e-01
1.660264699795484603e+03,1.481462353899037680e+03,1.554890919053310199e+03,-5.043958860788074795e-04,-8.131950049585984219e-01,5.819910905633995934e-01
1.530181064479730139e+03,1.496739717136068521e+03,1.669555618896586111e+03,-2.383342024757139892e-05,6.712213186587581149e-01,-7.412570005132943507e-01
1.639548319612274327e+03,1.563944548101970668e+03,1.421843966451189544e+03,-2.812096950779109089e-05,-6.070942508291055084e-01,-7.946298319465852078e-01
1.603998235986316104e+03,1.501952106556240551e+03,1.594225575008588294e+03,5.988278795694715285e-04,4.133277979315088668e-01,-9.105821066011897669e-01
1.445371015856742815e+03,1.493984164440954373e+03,1.447604967370895338e+03,-9.686583996018060800e-05,-9.562214979228168543e-01,-2.926438749183953858e-01
