x,y,z,nx,ny,nz
1.551998944988135008e+03,1.548548493233887257e+03,1.539589979376943802e+03,1.577924086711171598e-07,-9.423477800723993880e-01,-3.346351167952879013e-01
1.467078360302457440e+03,1.434415883066182005e+03,1.603870738318425310e+03,-3.149965167148930777e-03,-3.447572011442348594e-01,-9.386866090334086143e-01
1.496940169295952728e+03,1.448039021178728717e+03,1.546121848562990408e+03,-1.568124140640096307e-03,-1.716244038638669034e-01,9.851612076127702622e-01
1.553194779502464598e+03,1.455234691561813634e+03,1.569599590602670787e+03,-3.690750627939273776e-01,-1.805157717037137247e-02,9.292242671095717332e-01
1.461481541600962828e+03,1.387139204560636244e+03,1.465228164601816161e+03,3.243833960048592840e-02,2.290624475152311934e-01,-9.728710856338036450e-01
1.459309695892487753e+03,1.536024877542665308e+03,1.525587769633864355e+03,7.424477378420114761e-04,-2.173586095702452203e-01,-9.760915344459485388e-01
1.627942902481874171e+03,1.685457368121634772e+03,1.429228025532855781e+03,-5.900596491537826206e-03,9.996119765003154134e-01,2.722277352102275491e-02
1.425485669763405667e+03,1.474073140968301686e+03,1.515987742034453049e+03,-4.548933247884355546e-02,-3.340268709044232343e-01,-9.414652251381507853e-01
1.352612351033223831e+03,1.385882944055054168e+03,1.476724502668195100e+03,-9.994612177863623215e-01,1.133984840769852037e-02,-3.080068147122845199e-02
1.442966302783602259e+03,1.391965056351057456e+03,1.615764736557369588e+03,-6.082314618142957083e-03,8.641550989946844563e-01,-5.031888018729878675e-01
1.512839782086713512e+03,1.378169446233252529e+03,1.577251676005030959e+03,5.507184797309475207e-04,9.019997341434031757e-01,4.317362346553575980e-01
1.459355435457262502e+03,1.565490856531657528e+03,1.530687727898967296e+03,-5.910767481653475715e-03,-8.896883227388127646e-02,9.960168722022734178e-01
1.497814259153914008e+03,1.389976757006571688e+03,1.635381899685039343e+03,2.223951216287604893e-02,-4.831905448517673785e-01,-8.752327127482207869e-01
1.493142281614955891e+03,1.639818644295109607e+03,1.474042165261634864e+03,2.348263922901135516e-04,-9.887758705138041115e-01,1.494062339604160516e-01
1.410099525358915344e+03,1.419427796735815946e+03,1.581087668663864861e+03,5.797097904216099075e-05,-6.169470711104695360e-01,7.870046429898482909e-01
1.567056217141054276e+03,1.443068056733799267e+03,1.535354961100791343e+03,-9.574707982665794925e-02,8.414138881579622531e-01,-5.318412973054723603e-01
1.381429211342488315e+03,1.312523578022739230e+03,1.506099867443283756e+03,4.973911479777266657e-05,1.908959753194504061e-01,9.816102710000829124e-01
1.480823066946903737e+03,1.596203290525591683e+03,1.450281647600714678e+03,-5.941930393957451512e-04,-9.045625455037974438e-01,4.263405308041007258e-01
1.498137862004126418e+03,1.464664960606963177e+03,1.510376620732778747e+03,-7.857775965291869877e-03,2.435093535794613170e-02,9.996725900533995901e-01
1.450145668603645845e+03,1.464488144321031768e+03,1.538256757053049114e+03,8.544798631377627240e-02,9.403863893828706688e-01,3.291991499052944747e-01
1.586036824061366588e+03,1.520135303316306818e+03,1.465253161914025441e+03,1.145505365219817717e-01,4.112891532797710581e-01,9.042783901968105553e-01
1.501708843445559523e+03,1.463557041846252332e+03,1.577077144483790335e+03,-1.963089449331856338e-03,-9.945734480621722939e-01,-1.040182805546000927e-01
1.535094087245634682e+03,1.446961778186647734e+03,1.499792966702080321e+03,1.639857078314909955e-01,4.650629436009977996e-02,-9.853658468872851239e-01
1.494562732525078900e+03,1.462133076063259523e+03,1.442083254156820203e+03,1.586875045305023366e-03,-5.189401256264247753e-01,8.548091177815203556e-01
1.567264912937885356e+03,1.428536137363283160e+03,1.640507012975475391e+03,1.911749597685104274e-01,-3.828443129336617234e-01,-9.038154495315185999e-01
1.449163315915234080e+03,1.478551567472220995e+03,1.589356819418899249e+03,-1.729343348118936828e-03,2.976979274082874882e-02,-9.995552855203920783e-01
1.621534544098237802e+03,1.482557381724056768e+03,1.549986694988373074e+03,1.337218655398685410e-02,8.945046190026544330e-01,-4.468586702858987625e-01
1.510970125861819724e+03,1.525490670984320559e+03,1.648185731743115184e+03,7.082783960359587041e-04,-7.787042564138428880e-01,-6.273907708794238536e-01
1.445652550510923675e+03,1.493606724524745459e+03,1.635061672809528545e+03,1.195399360437945924e-01,-9.928126343356763472e-01,5.768604172603870525e-03
1.622142616872829194e+03,1.604630758752193515e+03,1.424135101500005703e+03,-8.267814041951032341e-04,-9.548250337952302047e-01,2.971674128676413673e-01
1.518862410623479946e+03,1.471684104494971507e+03,1.533828999387663771e+03,-1.620313667243818265e-04,-9.190140787537282030e-01,3.942246780685758623e-01
1.579385869436110852e+03,1.558045509651465636e+03,1.691727524424727108e+03,-1.750357638460801890e-01,9.691895216187186302e-01,1.733036426602125590e-01
1.606696053761712392e+03,1.608200744431327848e+03,1.453895329626440571e+03,-1.944869347812879998e-02,-9.929871633590275914e-01,-1.166114991164495795e-01
1.533827242176007530e+03,1.501844830961236084e+03,1.352500417409635702e+03,1.327642230844284840e-07,-9.790240559733598413e-01,2.037446878459752420e-01
1.565590147800704017e+03,1.333702831435476583e+03,1.430664254531689949e+03,2.037951738451724767e-03,-8.862739054587388532e-01,-4.631570049730720506e-01
1.504169767390731749e+03,1.341103024743134029e+03,1.579147552775037866e+03,-5.649536372756067126e-02,1.566039656298613691e-02,-9.982800337865025408e-01
1.531205534476960338e+03,1.332588555519244210e+03,1.464504760860799706e+03,-1.644377730677641216e-07,-9.786342175594110460e-01,2.056090178514851929e-01
1.490988284028923999e+03,1.456443195123127907e+03,1.498778674743834472e+03,6.042660650313708771e-05,-5.872529865499043211e-01,8.094034384266247661e-01
1.607732945952588580e+03,1.456941844186938624e+03,1.500016539487781984e+03,1.125340638116424374e-01,9.285809602129082574e-01,3.536572985421205795e-01
1.366396920649980757e+03,1.360185366970505584e+03,1.449249260285542960e+03,-9.874046184195492404e-02,-9.911464196995852793e-01,8.876427159578868797e-02
1.485694505133930534e+03,1.433028494303593561e+03,1.453520865438841383e+03,-2.846727450630644890e-02,-9.945940164976855291e-01,9.986168749417480284e-02
1.422617818143327440e+03,1.440811116592757344e+03,1.550611979716337828e+03,-1.141236950675934115e-04,9.635848362324427041e-02,-9.953466881492153417e-01
1.494249109772676320e+03,1.528154082493325859e+03,1.686262695926822516e+03,-6.679632896449476625e-06,2.728408019148210184e-01,9.620591960819562249e-01
1.613236600788427722e+03,1.508443700269424880e+03,1.604146044428079449e+03,-1.789678451029091122e-01,-8.801414683954262852e-01,4.396834156867461263e-01
1.607581578643202420e+03,1.431069743563748716e+03,1.574579384266193983e+03,1.293372171519737435e-01,8.729876105858893620e-01,-4.702813158343872590e-01
1.521467922519969534e+03,1.377970523669876684e+03,1.628856159332487778e+03,4.010140714847124023e-04,4.892403845461198997e-02,9.988024217276438854e-01
1.446374226537642244e+03,1.490901226694139268e+03,1.575927164359545486e+03,-1.451052693998517162e-01,9.893995211260244727e-01,-5.748772737726993293e-03
1.447221394877118883e+03,1.486073463990371465e+03,1.663246046349316430e+03,-2.501377538630627820e-06,-5.026363745280233025e-02,9.987359845042915740e-01
1.411449949342354103e+03,1.473263218370186451e+03,1.415451648658555996e+03,-4.276185113539150429e-01,-8.493637635403725739e-01,-3.093923171832094199e-01
1.416451804184341199e+03,1.454527150904848895e+03,1.382998110109706431e+03,4.900849442598169126e-01,4.900131289550700986e-01,-7.209049041735768881e-01
1.564058776642691555e+03,1.411026718578011696e+03,1.507403564778293912e+03,-3.863994676026403230e-01,-8.795504447914435087e-01,-2.776444966203543419e-01
1.430368187052962412e+03,1.625624598857617002e+03,1.569402389608614840e+03,-1.251788934957745328e-04,-9.630333175864410622e-01,2.693822814304935309e-01
1.466982061004009211e+03,1.436237554576302728e+03,1.564083130964430211e+03,-8.921064404840567950e-05,9.784964462300589361e-01,2.062636583516502531e-01
1.405551740426852348e+03,1.300359753711622943e+03,1.509736805801458331e+03,2.688813674990852554e-01,-3.074282909563559318e-01,-9.127927783081306590e-01
1.529868786754338998e+03,1.438991716318010276e+03,1.562407487300718685e+03,9.059052191168562862e-01,-4.065642315975177556e-01,-1.184958208645375960e-01
1.443863831520210624e+03,1.510145115561167131e+03,1.752627640927456468e+03,-2.978917053010339804e-03,2.665779522303157734e-02,9.996401792680396081e-01
1.428389060419090811e+03,1.464485273864570217e+03,1.624696000417217647e+03,-4.506037960859181069e-01,-6.516206981044094793e-01,-6.102021671174912010e-01
1.545077257639890377e+03,1.430459124811354741e+03,1.526312563141203327e+03,5.515234885828750322e-01,-5.071453234356214645e-01,6.622880509708403141e-01
1.457777211799130782e+03,1.461308858660128408e+03,1.423034938849873697e+03,9.624011616023725869e-05,2.379659580050860757e-01,-9.712734906135148671e-01
1.513252092570987770e+03,1.548328519035823774e+03,1.565210055555983899e+03,1.407853985683982440e-04,9.142961148650647907e-01,4.050464103311122721e-01
1.439009317417592683e+03,1.453235195287381885e+03,1.589749818776976554e+03,7.036530415266767369e-02,9.611963951071000878e-02,-9.928795188097263580e-01
1.603551727531331380e+03,1.411658941168369211e+03,1.680080505314278298e+03,1.537956177027931526e-01,3.853977776886716167e-01,9.098436464184654904e-01
1.453044427517522990e+03,1.395427221704002250e+03,1.629105824153951744e+03,-7.555677022378880225e-04,-9.276246069329028288e-01,3.735130757149269232e-01
1.427486451196579765e+03,1.407481290524040105e+03,1.539603307047330645e+03,-1.628827007052087439e-01,9.861316378831980201e-01,-3.183737703986452838e-02
1.464747782836669785e+03,1.514559760717674862e+03,1.691007014659136985e+03,2.162361133106316044e-02,1.225966568112679816e-01,-9.922209830333681424e-01
1.559495895904707368e+03,1.445959449023687057e+03,1.699451475040224068e+03,-7.435313027600701230e-02,-7.101256629836778522e-01,7.001379541134382656e-01
1.572996025735415287e+03,1.446763960684857466e+03,1.651796661578388921e+03,3.169601368804069730e-01,3.699273730187637721e-01,8.733212526442890589e-01
1.499364886375610013e+03,1.513029266143965970e+03,1.465207085502238215e+03,-9.237440405928336030e-06,-9.999740588979337819e-01,7.202877609781361580e-03
1.536003647825880080e+03,1.484972521111915967e+03,1.555348628513688709e+03,-6.636868748714387124e-03,9.891468828781797562e-01,1.467800942416677412e-01
1.533384758394247910e+03,1.498578497176947849e+03,1.559097185097825104e+03,-1.495718936256246407e-03,-9.873164403940841716e-01,-1.587577064347384381e-01
1.581569354081959773e+03,1.457518570037745349e+03,1.495808908732758027e+03,-9.616699810280338306e-04,-5.290710505566781352e-01,-8.485769845180226589e-01
1.554013520059350640e+03,1.453848668027673966e+03,1.575114881069482635e+03,2.406173110011583793e-01,2.728286785396151770e-01,-9.314868876226327643e-01
1.350791107611516736e+03,1.433921050139898171e+03,1.417713867018321025e+03,-5.863672056850480598e-04,-9.603092428494364174e-01,-2.789369360114258845e-01
1.404490798396451737e+03,1.388514159027286723e+03,1.579234234547872802e+03,-1.512982795625196497e-01,-1.550487992995149868e-02,9.883665460241860545e-01
1.507469066189586783e+03,1.443556292624580237e+03,1.546207242277078876e+03,-4.420050757170701097e-06,8.501912051390311253e-01,5.264740398962755030e-01
1.590274781654077970e+03,1.527143230958830372e+03,1.583217151123842086e+03,-1.592876672671650895e-01,1.847503262528710222e-01,9.697910888464806867e-01
1.485996210155483141e+03,1.539424529420380395e+03,1.601259358256475480e+03,-1.055887253725866365e-01,4.748990845228799329e-01,8.736829405416606242e-01
1.498522101529772954e+03,1.336601094866972062e+03,1.620610005109068879e+03,1.050986243639767551e-04,8.073202350885223533e-01,5.901135712478507989e-01
1.387799505856734640e+03,1.360691895133553771e+03,1.504950962303452343e+03,2.584288788325933006e-01,3.536344709156833809e-03,9.660238138117646089e-01
1.545541351308639378e+03,1.418080179095289850e+03,1.683386018386615660e+03,-6.408184254018589598e-02,9.979001484055434190e-01,9.423973092557704975e-03
1.583848709411130358e+03,1.625228482771563904e+03,1.449974880286923508e+03,1.296714229198523728e-02,7.649832002764027639e-01,6.439196817271952700e-01
1.436897852076948311e+03,1.432212596145966018e+03,1.568160551176898707e+03,-2.417145465467550325e-01,-9.702210249421461263e-01,-1.566016436402105014e-02
1.537350744854168852e+03,1.458100395869473459e+03,1.579798912434433760e+03,2.866825640322115953e-01,-9.577249322677402477e-01,-2.400128314630839074e-02
1.442569652120372439e+03,1.530470268947297654e+03,1.559465895645293813e+03,-1.044081987422958019e-01,-2.376325537478126207e-02,-9.942505900070576219e-01
1.408891080042276599e+03,1.454258006002565025e+03,1.571665745092931274e+03,-2.940498129032557625e-02,-9.955763921541267436e-01,-8.923561206540893409e-02
1.512617917681258859e+03,1.529104282562676644e+03,1.515822992933148498e+03,3.362289380249850607e-02,-9.952696193855303797e-01,9.114760414035721903e-02
1.408732886152425408e+03,1.480505871510825955e+03,1.709056237330937620e+03,5.209253977282748971e-02,-3.102858742684441035e-02,9.981601044232889519e-01
1.522143671859816322e+03,1.557691079750292602e+03,1.538957322870777716e+03,-1.738916682075239417e-01,9.796284085226616423e-01,1.004483396744897394e-01
1.411288600814299798e+03,1.426581165674554995e+03,1.592050021008727981e+03,1.359511512554847945e-04,-2.342858662262351788e-01,9.721677398494085187e-01
1.448912342392173286e+03,1.499240455865276317e+03,1.613661936910069244e+03,1.841293879094650088e-01,9.822847282747214637e-01,3.482931389422191937e-02
1.447902436736204436e+03,1.454728939559443916e+03,1.588864920957916411e+03,-3.242590019799160197e-03,9.997722060711247138e-01,-2.109553454264715550e-02
1.531393418531072257e+03,1.506273201854076433e+03,1.443593629684049574e+03,3.230517666628467954e-01,9.048325776014330968e-01,-2.773365510839856940e-01
1.486486688510223303e+03,1.343199619424722414e+03,1.533403496195051730e+03,-3.263781054062792619e-01,-3.882101198502720951e-01,-8.618411890581959556e-01
1.524947990295285990e+03,1.392628565100936839e+03,1.573509525855698030e+03,-2.387883259492249236e-02,9.641215899555726221e-01,-2.643848731214447634e-01
1.514552652523803772e+03,1.487839550302407588e+03,1.477257442064327279e+03,-9.770093453949290713e-06,2.421510828693861639e-01,9.702385546708237607e-01
1.504720608160918118e+03,1.448338683314413629e+03,1.550967937154068295e+03,-6.698590014504489376e-02,-3.891621303312411406e-01,-9.187304966625458036e-01
1.474001120073963875e+03,1.406984012300688164e+03,1.494720154146584264e+03,7.897623557958356158e-05,8.772191319181178448e-01,4.800901877351566593e-01
1.643101394768739283e+03,1.465843073547899166e+03,1.533627286456368438e+03,6.434587836613646639e-01,4.236761091299838800e-01,6.375416443507946340e-01
1.641354851516166946e+03,1.563392602735256787e+03,1.361613643915258081e+03,5.211133054850275448e-02,9.908521735118404061e-01,-1.244844547537027751e-01
1.434241311476924920e+03,1.409196538226566190e+03,1.556236292910706197e+03,-1.289371621940073537e-03,-2.795723139258798895e-01,-9.601237726496255620e-01
1.474315269137985752e+03,1.521935201660657867e+03,1.638281225930482833e+03,-1.206512978344638672e-03,-6.540913939189740844e-01,-7.564145640636267265e-01
1.566737280858608983e+03,1.486739499376007188e+03,1.632336924522183608e+03,-1.811678786411308750e-01,9.747778764145685892e-01,-1.303314674258549688e-01
1.604524294209505570e+03,1.366744392771201774e+03,1.573339534018805807e+03,1.383521559140056534e-02,-9.803804565520981562e-01,-1.966284496715546004e-01
1.546485362793219565e+03,1.586812797151756740e+03,1.483215682645336074e+03,2.141313924837811959e-03,6.095066493609238023e-01,7.927780642522188614e-01
1.454675193963009860e+03,1.356450741515945765e+03,1.484087002788822019e+03,1.716671026229512620e-01,1.081792294279066043e-02,9.850956189224704396e-01
1.605342525656108592e+03,1.645885054159659603e+03,1.476761039138939850e+03,-1.171026803061635995e-03,2.657997806812931740e-01,9.640275438419811938e-01
1.358695174936735157e+03,1.462792609099717311e+03,1.637036183363445389e+03,-4.022736107399980110e-01,1.290702199176489151e-01,9.063756508383344901e-01
1.488489285622389843e+03,1.467892828554032349e+03,1.642483975754676294e+03,1.440397074152561423e-04,-9.219445038005629200e-01,3.873219735110526862e-01
1.471661832477029293e+03,1.551300475697507864e+03,1.605876402176544616e+03,-3.052411701881930783e-01,9.473081617662372222e-01,9.713431254307101914e-02
1.496816071748059812e+03,1.539337551127430061e+03,1.507841925678055986e+03,-1.260868930940806929e-06,-1.293564829358550827e-01,9.915981546578613859e-01
1.563217728820804041e+03,1.517330738643299128e+03,1.494749140310021176e+03,-1.752030625514873485e-02,-5.454710874824970634e-01,-8.379464968536999292e-01
1.427920341364533215e+03,1.524136082356759289e+03,1.523935331830631412e+03,9.919102199275323661e-01,-4.079284718912246782e-02,1.202083991305069599e-01
1.461022183841214655e+03,1.574747349929857592e+03,1.524355097270430406e+03,-7.593321891086218800e-01,6.245539247554459106e-01,-1.826116690030432643e-01
1.650252174598826969e+03,1.351560783077346741e+03,1.519878082131954216e+03,1.913701019729689701e-01,-9.747716757594843129e-01,1.148810872506975667e-01
1.529371300167593972e+03,1.549473922723411079e+03,1.666422061618790167e+03,-1.781166992614566539e-04,-8.446899653218964410e-01,5.352558554177010430e-01
1.529671627732613615e+03,1.601975286332566384e+03,1.510457680924483839e+03,1.939819665992861819e-01,-1.530680924946008215e-01,-9.689897603660927450e-01
1.375861308623104151e+03,1.442008858874626412e+03,1.497911395955892658e+03,-4.734973085473144772e-01,-8.644786032699522949e-01,-1.687514245477106378e-01
1.677447914159601623e+03,1.528183356008321880e+03,1.393164857832550979e+03,-5.800995375364879914e-02,6.886205245080307957e-01,-7.227977715044395790e-01
1.591206361490515974e+03,1.401279214677760592e+03,1.706341009155891243e+03,-3.722744128769639753e-04,1.776209815811616022e-01,9.840989016932729649e-01
1.545858570847952251e+03,1.375120764243534950e+03,1.509742983038817101e+03,-6.311199639639864325e-05,-9.461469339126489242e-01,3.237375101290698165e-01
1.549584602310643049e+03,1.401822092169535608e+03,1.600399135610341091e+03,1.385411651951869161e-01,-3.971113480127353747e-03,9.903487142436687707e-01
1.372316841843086195e+03,1.552284350116940232e+03,1.636932566679570073e+03,3.007715729716520237e-01,9.053631735569372951e-01,-2.997565426459767868e-01
1.540421595524506756e+03,1.537762368954389785e+03,1.695697650023959568e+03,-4.745011848225387594e-05,-5.738132348092719326e-01,8.189861838310861231e-01
1.667154026068437588e+03,1.508397019321503194e+03,1.538237730987204941e+03,-6.747300760267816062e-03,-2.712561561805877375e-01,-9.624835435822178820e-01
1.513070163213186106e+03,1.410442912409728706e+03,1.518909726264511846e+03,7.159044053366508086e-04,9.575661479810159138e-01,2.882126987516018257e-01
1.527228405351169158e+03,1.440345675284425624e+03,1.529905720582464483e+03,-1.899037125171920137e-01,7.020010858653451535e-01,6.863898712947794634e-01
1.567276546960329824e+03,1.444735635367819668e+03,1.622267502231721892e+03,-1.909860289649689853e-03,-1.812873930818342805e-01,-9.834283062548416776e-01
1.573841367230249034e+03,1.485369684499655705e+03,1.564756631540278249e+03,1.576264885246358838e-07,4.833102913465384121e-01,-8.754491203253900178e-01
1.480887872444409140e+03,1.445941812566184126e+03,1.658918531931238931e+03,4.374372098976646826e-03,9.852152161262142105e-01,-1.712654161881981829e-01
1.532276490769315615e+03,1.463126126757167413e+03,1.596438935416139429e+03,-8.389376590607098283e-01,-1.074369114776682205e-01,5.335174919924143833e-01
1.628812474479264665e+03,1.692639706745002513e+03,1.459956173562685990e+03,9.958359381109840869e-02,-2.644787243371187202e-01,-9.592362129406273308e-01
1.454839094527738553e+03,1.362842445273420708e+03,1.487949707368171630e+03,4.304345932796117130e-02,-9.476221851852530964e-01,3.164797856954026933e-01
1.355506117898070670e+03,1.322194018787040250e+03,1.492451529998051001e+03,-3.155780651813867854e-02,9.920775825766426914e-01,-1.215984169167043938e-01
1.455898768518129373e+03,1.509150977439551980e+03,1.533665351990181534e+03,1.259055472484738427e-03,9.947216898597833756e-01,-1.026020199694630264e-01
1.428112764855951355e+03,1.521817795988512444e+03,1.611144372798838049e+03,-2.202778150000109791e-01,4.504442417557145695e-01,8.652038310640679519e-01
1.445597704145252919e+03,1.421231914998719049e+03,1.584958622838491920e+03,-9.302412520375143157e-02,9.594065988991824778e-02,-9.910307270261421442e-01
1.519173483451633729e+03,1.478122377970176785e+03,1.505726287206965708e+03,-3.959825358054083196e-05,9.610389776053832600e-01,2.764128831208452208e-01
1.493735672407632364e+03,1.385571542241751558e+03,1.476813973320583955e+03,-3.044769858370308113e-03,3.141184853844436464e-01,9.493789056621664280e-01
1.516891911148522695e+03,1.481929975027961746e+03,1.405524899764114707e+03,-2.021425291881026774e-05,-6.512337668523515699e-01,-7.588771840704403582e-01
1.381521130136942475e+03,1.330578837413822157e+03,1.648622447917311774e+03,1.044674205852067807e-02,3.653712947612254847e-01,-9.308032458822157462e-01
1.409017427115056535e+03,1.447075283803989350e+03,1.546648433397971303e+03,1.998786175068850701e-01,1.435517297602385313e-02,9.797155032316089418e-01
1.422284413736640090e+03,1.543162237718529013e+03,1.520487033769336222e+03,-1.224703045039738092e-01,1.539630918590186859e-01,9.804572356099553465e-01
1.507280713424047008e+03,1.435068118722231702e+03,1.529580468796398918e+03,2.728514802110540427e-02,-9.919166786543469616e-01,1.239226504913257393e-01
1.520598139929983518e+03,1.490235840164657475e+03,1.514292940181451058e+03,-8.236242634638919063e-03,8.266172766626042057e-01,-5.627042226873396613e-01
1.578834029701191412e+03,1.440630903618625780e+03,1.460297645813883037e+03,-4.748374607568794925e-02,-4.068289673381273452e-01,9.122694148074967924e-01
1.566959110684610550e+03,1.384837727823467048e+03,1.580411283890740378e+03,-2.512209116751504268e-01,-3.541796640128372364e-01,9.008023196777749098e-01
1.488357348354766600e+03,1.552935389266041057e+03,1.472454905344999133e+03,2.838448659419847862e-04,9.458571020301859145e-01,3.245832127069275264e-01
1.588386101070910627e+03,1.333870689787058154e+03,1.660672920431467674e+03,9.719646438877949102e-02,-2.617445216376529937e-01,9.602305206058578957e-01
1.513886053613649210e+03,1.545295408812020924e+03,1.665683536206478948e+03,-7.164899478107856743e-06,-2.463276096971631912e-01,9.691866221990201868e-01
1.443652110578669863e+03,1.568810092642080463e+03,1.525625838216223656e+03,-8.193993762444547191e-02,-9.960113578597461492e-01,-3.531602520792240935e-02
1.510947106714331312e+03,1.533239450663924117e+03,1.615158073807139999e+03,-1.897706986886946862e-02,-9.102364920305927587e-01,-4.136537191843351335e-01
1.512314663633145301e+03,1.509121135684944875e+03,1.399566405960239763e+03,-2.440737001620952862e-01,-9.651012332344751643e-01,-9.490857968844999826e-02
1.535441652099932526e+03,1.462810497400566874e+03,1.672358289611163627e+03,1.226909810411017413e-04,5.003463322834514893e-01,8.658253476986111918e-01
1.249450175247123752e+03,1.394497323944056916e+03,1.471269636560384242e+03,-1.379318240737889079e-03,-2.238151687830504388e-01,-9.746306314208502686e-01
1.510025018673813292e+03,1.484645955962195558e+03,1.571310046235893196e+03,1.564444442701298441e-02,7.565102649342473340e-01,-6.537946699137926476e-01
1.501772590855947783e+03,1.447238103658273303e+03,1.385730508165040874e+03,-3.647367604490259513e-06,-9.795943032290219676e-01,-2.009850767294520946e-01
1.565790496702463315e+03,1.436196643984736738e+03,1.589446937804085110e+03,2.586110271470228213e-03,1.547590297170217677e-01,9.879488624188550450e-01
1.540320373467554191e+03,1.521369579572620069e+03,1.579945772159367834e+03,-2.591523347893022189e-01,8.176298715524299432e-01,5.141220288204061406e-01
1.563571351392772613e+03,1.388307693003874647e+03,1.368738468648990192e+03,2.135734655920843994e-01,-7.961135276943596129e-01,-5.662063456170630671e-01
1.468871753355429973e+03,1.427655921354959673e+03,1.664368050566670490e+03,1.153827556290591555e-01,-9.515681043202391942e-01,2.849648443998508696e-01
1.409616481472228315e+03,1.459470828921638940e+03,1.492870794143548892e+03,2.046218925516749831e-01,-5.151787363878528314e-01,-8.322984745044209598e-01
1.345318342268304377e+03,1.400033120495573257e+03,1.476570657095651995e+03,3.893123741158637241e-01,9.005521104440493696e-01,1.934987641692796911e-01
1.579659766510359987e+03,1.438013416653508784e+03,1.600185041799190230e+03,-2.573408698653921745e-01,-9.536719478866981792e-01,1.558380329409811971e-01
1.461739491868211417e+03,1.456938419837209722e+03,1.596598695601991722e+03,1.455292781829450652e-05,9.415026223945881512e-01,3.370056554604475840e-01
1.520560089139974707e+03,1.385232597695828872e+03,1.662219756115171322e+03,-4.495486862682904206e-03,-9.274869668341537698e-01,3.738284592572491127e-01
1.528745239340295939e+03,1.446095253827540546e+03,1.602037608157654859e+03,-3.942036323978368589e-02,9.278612705343181055e-01,-3.708362139873672692e-01
1.614665235348484202e+03,1.469502690444125392e+03,1.666113984454835190e+03,1.624799059900144671e-01,3.848553015634867402e-01,9.085629736060972794e-01
1.548562146318563009e+03,1.647178064843111088e+03,1.405576256017051492e+03,-2.260619211243196022e-02,-8.274640354370373929e-01,5.610634813783812458e-01
1.376309376643133646e+03,1.331686997872966231e+03,1.420590150385727384e+03,1.331211352083626863e-02,-2.661684825767845486e-01,9.638345949987374706e-01
1.567392648977817316e+03,1.495553012221497283e+03,1.599606515835026585e+03,-2.047223837268950331e-08,2.744728763932223203e-01,-9.615948419809824399e-01
1.522205754243316960e+03,1.406211003387135179e+03,1.668247880139998870e+03,7.221732009064086959e-03,4.499900449287341786e-01,-8.930043706790158353e-01
1.505740605737926217e+03,1.412478790044181778e+03,1.594850619862409985e+03,-3.630501890793241121e-02,7.354128428563215525e-02,9.966311379380611291e-01
1.510094379240762464e+03,1.379007287335060710e+03,1.517659457061496823e+03,1.710644386178056644e-04,-9.890300675955148169e-01,-1.477142380712480330e-01
1.555062726190155900e+03,1.375795871597766791e+03,1.407440095252984975e+03,-3.015795704874757346e-04,-3.269063207327153608e-01,9.450567001586527294e-01
1.552871829537030862e+03,1.508505261599545065e+03,1.379654237886783676e+03,-3.882581745585243684e-04,6.346830932884549581e-01,-7.727724246823176601e-01
1.471890295872669185e+03,1.461856066843733970e+03,1.390222351161934739e+03,5.680803338645867969e-05,8.356849073918378723e-01,5.492091881335768866e-01
1.451324041676110255e+03,1.623658229730606081e+03,1.582554787388060504e+03,-4.625093588265068167e-02,-9.872666787714317049e-01,1.522016948578614193e-01
1.597272119508229025e+03,1.485239323203548793e+03,1.656713345401119113e+03,-7.200582077108929858e-09,-8.036136980833511467e-01,-5.951512616577406822e-01
1.477131065284790338e+03,1.531045464296881619e+03,1.712686298815207010e+03,8.257018321361817015e-02,-9.697371741237894582e-01,-2.297650494885520311e-01
1.605609099217192806e+03,1.493739709563848237e+03,1.645705281824325311e+03,4.854690229290090434e-03,-4.775631206336620749e-01,-8.785840300127336633e-01
1.459153658448264650e+03,1.494311734098687339e+03,1.603138051651342039e+03,1.333583382632029246e-01,7.874879643543371277e-02,-9.879342997768868484e-01
1.489392960552874911e+03,1.487169912372078898e+03,1.581672283512379636e+03,-8.978373611922121911e-03,-9.986671816568065685e-01,-5.082567352171145358e-02
1.611693907216996649e+03,1.411673065512335597e+03,1.524927268610658984e+03,9.716370009577755877e-06,-8.431885179556000143e-01,5.376180085278310372e-01
1.479454538121217411e+03,1.451417970261557002e+03,1.585436886465412044e+03,2.752156337167953500e-06,9.982283990965862275e-01,5.949843047923333156e-02
1.462423237721256555e+03,1.352056978865394740e+03,1.615094010285052491e+03,1.312498038968813036e-02,-9.761580618526416453e-01,2.166637329362359199e-01
1.542968556328752811e+03,1.427073200553121524e+03,1.531951707682068900e+03,2.245061716752211717e-09,-5.435080301936199287e-01,-8.394039677741886862e-01
1.623251342118189314e+03,1.522798534702746792e+03,1.366487576152223028e+03,-2.449980011149266446e-03,2.381112022923662641e-01,9.712348083449382496e-01
1.563131303945479431e+03,1.531049506600868881e+03,1.627573908935766667e+03,1.146483883585315555e-01,9.474728412733460781e-01,2.985815836521137356e-01
1.409707926899991435e+03,1.272093049681963294e+03,1.487363458073834181e+03,-1.124072346357910257e-01,1.896861194500147896e-01,9.753890452991200721e-01
1.542048563940621534e+03,1.522590841879255095e+03,1.442816630488108785e+03,-1.130091395594387538e-01,4.113622377221008986e-01,9.044390768605152786e-01
1.523736684104119831e+03,1.451273265149428653e+03,1.524292670217977275e+03,2.008066457461300108e-02,9.873670395204916517e-01,-1.571721864032620264e-01
1.506547261793664575e+03,1.455609973248343749e+03,1.583365373559926184e+03,1.313180700525991216e-06,1.037394749943064409e-01,9.946045049798342141e-01
1.432649738336704104e+03,1.325198167596572830e+03,1.652804500871863866e+03,1.509868003902219624e-04,7.053454713490345807e-01,7.088636986405739693e-01
1.495251904165741735e+03,1.504731631410757018e+03,1.564237986521627818e+03,-3.473851033885271781e-03,-5.733608180028801904e-01,8.192956149876932104e-01
1.579235311383868748e+03,1.681065677485371452e+03,1.579214084924823283e+03,-4.732508924488312285e-01,-4.293053754358365226e-01,7.692402013794392701e-01
1.563771066830371865e+03,1.453067916379511416e+03,1.604747259908342812e+03,-2.997299555171375595e-03,5.669136431801340414e-01,8.237717750515638482e-01
1.528459655153417771e+03,1.437630466601289072e+03,1.588104270366833362e+03,3.073894005582774036e-01,-2.277084494546551333e-02,9.513113291898149804e-01
1.516353689778964963e+03,1.464501927941009399e+03,1.643970168763473566e+03,1.222724939179421853e-03,2.353752793064976812e-02,9.997222062766421002e-01
1.636177687558600155e+03,1.612592494376103105e+03,1.530834803393137690e+03,-2.744437388327188310e-01,-8.838158558181502533e-01,3.788801488860944477e-01
1.566996940066780098e+03,1.564127637140163188e+03,1.470163386197009004e+03,-1.475548022175676988e-01,-1.393536585655669457e-01,-9.791874887818604600e-01
1.424588424043126224e+03,1.520228365088015835e+03,1.666782362434602419e+03,-1.092496293912769562e-02,5.338114245250795697e-01,-8.455329728823613999e-01
1.607159117893421126e+03,1.650255784859901041e+03,1.474977766993737532e+03,-6.758779487914204354e-02,-9.973435567707863436e-01,-2.716099687368426704e-02
1.502537870530084547e+03,1.581029905580889817e+03,1.591500988397278888e+03,-5.017163748922605783e-05,2.572991669213540167e-01,9.663317940461154665e-01
1.561258104758336913e+03,1.391375461528051346e+03,1.612719512572404710e+03,9.051391227229917957e-01,3.567375046969206709e-01,-2.312174761104086596e-01
1.540346094410247360e+03,1.559736771465946958e+03,1.453860791360291387e+03,7.428532154969298413e-05,8.969387591641343749e-02,-9.959693785979477632e-01
1.565042247722429920e+03,1.521742600617132894e+03,1.442301337364332085e+03,-7.085377032327412772e-08,-9.359222080180141790e-01,3.522067866164423355e-01
1.489855905867177398e+03,1.343967413841312464e+03,1.602397750914953576e+03,9.342218879157915268e-02,-9.109616961353269593e-01,4.017724266492647689e-01
1.339584386933704081e+03,1.303512594412607541e+03,1.486093242510255095e+03,8.325382605558412363e-02,-2.792799450946210071e-01,-9.565937030500734073e-01
1.555187263606893566e+03,1.468700218919394047e+03,1.557197502785951883e+03,-3.504319042991249078e-01,2.241200895055051739e-02,-9.363200213090017154e-01
1.388897726565836820e+03,1.396191122991860539e+03,1.511644615047953494e+03,-3.228567842826221557e-01,-9.462983672781009048e-01,1.681954010919617382e-02
1.630058892547924415e+03,1.569936715001019820e+03,1.431285402492763751e+03,-7.587799676433404621e-04,-1.552856026180739202e-01,9.878693263142157566e-01
1.451796142258803684e+03,1.464069914382698926e+03,1.582220372626472226e+03,5.041548745686891438e-03,-9.931485252200014102e-01,-1.167501162294111994e-01
1.453562483194605875e+03,1.537231057700192196e+03,1.620049779643408556e+03,4.481465162719368983e-02,2.386984081785607087e-02,9.987101069373751638e-01
1.529060993906781505e+03,1.630321701297191339e+03,1.437386009068819931e+03,1.650846809855605513e-04,6.608703360228471713e-01,7.505000810873355688e-01
1.471767666816610017e+03,1.534323314852705153e+03,1.503860375907412390e+03,-1.299643639970149145e-01,9.873955127623231798e-01,-9.032920606138560016e-02
1.499113131101995577e+03,1.505018606751440302e+03,1.435201902008737306e+03,1.096325873929801659e-01,-6.897307688255557290e-01,-7.157179348855443601e-01
1.499708866164739447e+03,1.509013637228754305e+03,1.544637358763888415e+03,1.478737932622504192e-01,9.683953892938135244e-01,2.008574401427951350e-01
1.463658080560840062e+03,1.335072669045617431e+03,1.494007450190318423e+03,6.723994391209520138e-02,9.969018309416169954e-01,4.081089815171817098e-02
1.631847970973095016e+03,1.465847326613348741e+03,1.680238522638374889e+03,1.113773531958446032e-09,-4.636869826939845618e-01,8.859990869522093027e-01
1.503292950899939569e+03,1.398732709931999580e+03,1.589444279342292475e+03,-8.035630865654395591e-03,-1.741926961216231917e-01,-9.846787969964981846e-01
1.379471094343930190e+03,1.468287734533048706e+03,1.390660864139332034e+03,-5.015395109362551923e-02,-9.591008572838454205e-01,-2.785859414024535186e-01
1.450506735721934774e+03,1.533737083416831865e+03,1.751194098975579891e+03,1.139046995494124442e-02,1.756298896242319274e-01,-9.843903692462587784e-01
1.605785206496046158e+03,1.520373878301558534e+03,1.548421062295027923e+03,-9.994542064217502546e-09,-3.458266496452564454e-01,9.382984218227893303e-01
1.587782288053537741e+03,1.456649298920900492e+03,1.585314270991674221e+03,1.052577034283638975e-02,-8.260359695329515528e-01,5.635191081023310788e-01
1.391182763469156725e+03,1.469602834218388807e+03,1.695608667747693971e+03,-2.052838356314865692e-02,9.625357558813886216e-01,-2.703765968387946694e-01
1.562805343040685102e+03,1.524304067267466507e+03,1.455518849519853575e+03,1.828008486176887186e-05,9.785466852170159324e-01,-2.060252035956498251e-01
1.546039288760196087e+03,1.442066969664682347e+03,1.685266150334929080e+03,-8.365463868391579197e-03,1.582863915448695993e-02,-9.998397237541544191e-01
1.699018423590201337e+03,1.554701589892181346e+03,1.344000233494189843e+03,3.630248499277960970e-03,-6.897775691056622360e-01,7.240122419231024287e-01
1.438744236368597967e+03,1.334330743988301492e+03,1.421594527273967060e+03,-1.309069804260132962e-06,-1.482863559657945640e-01,9.889444658992091464e-01
1.526421938822457378e+03,1.631154893348128780e+03,1.638083562275978011e+03,1.614918225399411544e-02,-8.542560910858017220e-02,9.962136664496002991e-01
1.552595677619611934e+03,1.598959226510136205e+03,1.509237939225954278e+03,-8.523601438568072508e-01,-5.193479790705290977e-01,-6.131771195796598128e-02
1.449352065424359125e+03,1.404390652593566983e+03,1.395217541869694514e+03,2.018751082920413637e-07,-9.957203711459149398e-01,-9.241721963465807099e-02
1.584946534549413172e+03,1.647633874084901890e+03,1.372421359989838265e+03,-4.691043330167153809e-03,3.772826318637803045e-01,9.260862863720711324e-01
1.515451380824043099e+03,1.411060409345262087e+03,1.535742890743530552e+03,5.731690837661332447e-04,9.329764291739270909e-01,3.599370140497771819e-01
1.583266122026100220e+03,1.542735923315318132e+03,1.708299142011623189e+03,-1.102761022449339237e-05,4.819323481629181338e-01,8.762084293548926262e-01
1.539044448895787127e+03,1.352711077492782806e+03,1.698691597316646266e+03,-4.062190840583202492e-05,9.970361734782003937e-01,-7.693417397885234099e-02
1.392668542583357976e+03,1.423176442721611920e+03,1.591355459887874076e+03,6.214932107161707836e-05,-9.999480919146734870e-01,1.018870029325921918e-02
1.421269425016277410e+03,1.609861916217049611e+03,1.644896307005475137e+03,-8.011385055908183672e-02,-6.035918478228860518e-02,9.949565516951053290e-01
1.502938220774690535e+03,1.540290162630445593e+03,1.609587459893900814e+03,-5.525228261445575559e-04,2.151958998660681299e-01,9.765707446976690242e-01
1.503357339826884072e+03,1.564042839823267286e+03,1.586275999333934351e+03,-2.088551761678075769e-02,-9.983363449283459978e-01,5.374325584657026894e-02
1.619624774627773149e+03,1.348575335316653991e+03,1.545825217719708917e+03,3.827011590610267678e-04,-9.817262599545967250e-01,-1.902981977197431840e-01
1.369767313609539542e+03,1.410249681049524952e+03,1.603027610242409764e+03,-3.035467369384005076e-01,-9.229687562370096909e-01,-2.366179483985879906e-01
1.348766852126792401e+03,1.483654225596790866e+03,1.424723401235582514e+03,-7.001884817031622799e-03,-4.101033183226788226e-01,9.120121939479408635e-01
1.481692526029481996e+03,1.327365192516739171e+03,1.586655368418807939e+03,2.004963793874590117e-01,1.876540809314916070e-01,-9.615545474710612828e-01
1.485171524328329269e+03,1.398245263458573845e+03,1.544081702587283644e+03,-1.252235363341801522e-01,1.437799426541165881e-01,9.816549261519249558e-01
1.579653945597761549e+03,1.589633034278152309e+03,1.477146867557547921e+03,-4.691842757321338375e-01,-6.141225069950264626e-01,-6.346019711660663143e-01
1.424440206109000655e+03,1.500371954557471781e+03,1.618680638474977968e+03,1.122732774312295878e-04,-9.993807540260558619e-01,3.518658660659001319e-02
1.578788602172198807e+03,1.534813572484401902e+03,1.470607345569851987e+03,3.801283770978475425e-03,3.304626334276742350e-01,9.438114208621015688e-01
1.447669278714103257e+03,1.322353030072940555e+03,1.417886431414600338e+03,-5.848072388299101399e-05,-1.220680522694439912e-01,9.925217313465480862e-01
1.529699488836114369e+03,1.556492249324085833e+03,1.523216914345811574e+03,-2.326036364576323200e-03,-9.956303519623366238e-01,-9.335304926023853256e-02
1.517654366610099714e+03,1.446010015564171454e+03,1.637617206411414827e+03,-1.118795699148675618e-02,3.777967943366182801e-01,9.258209393869484272e-01
1.664027578498921002e+03,1.383979020083529349e+03,1.669486460831621571e+03,-1.538968339197397950e-01,9.874683514487037073e-01,-3.495739401985453049e-02
1.457447355343992513e+03,1.436090487784640572e+03,1.602213476952163319e+03,-7.899002949097466003e-03,-2.516875415187836904e-02,-9.996520092346398156e-01
1.546534917138155834e+03,1.477404460276869713e+03,1.501213402991596013e+03,-9.844476711389175128e-01,-1.195040015990807836e-01,1.287694699490862515e-01
1.505203079620009703e+03,1.559747703141582178e+03,1.567725903128777645e+03,-1.135380206643209558e-02,-5.003211627507555548e-01,-8.657654562769111495e-01
1.630285927368698822e+03,1.348187669201214703e+03,1.512023935118652616e+03,-6.454829341807357679e-01,-8.153890760878652888e-02,7.594097630577274494e-01
1.610431003783097367e+03,1.413581249331475647e+03,1.532435994329385721e+03,4.776308752853876682e-01,-5.221838175357118583e-01,-7.065357794747162412e-01
1.593465155290572966e+03,1.513046918559257620e+03,1.590145116440555967e+03,-2.691914186484625424e-02,1.942625662211100446e-01,9.805801421436440846e-01
1.560170389991126513e+03,1.404384645549402876e+03,1.607505114849566098e+03,-3.748055271542939746e-03,9.995520219953089036e-01,2.969355833798049960e-02
1.412478792168107702e+03,1.441333274897000365e+03,1.491354968998828781e+03,2.500250159571081390e-02,9.957185516469241326e-01,8.899124013130757516e-02
1.442547812169978215e+03,1.427309308528744623e+03,1.505759367514117457e+03,-1.296146557158331597e-03,-6.938425245121240259e-01,7.201255940339468253e-01
1.461248382362421125e+03,1.350825628051395370e+03,1.629448002999026130e+03,6.978151012161416811e-02,9.465615847388031412e-01,3.148836406387489073e-01
1.498790364073489400e+03,1.434779748255620916e+03,1.402653561680336452e+03,3.279816314498786890e-05,9.754617246043256751e-01,-2.201690776567755969e-01
1.489664460764419800e+03,1.483098976946891526e+03,1.629410092857680183e+03,-1.334227192722308710e-03,3.138188608503508087e-02,9.995065767985442662e-01
1.511577390935836547e+03,1.496867368647132025e+03,1.571967251590862816e+03,-2.702061319894399612e-05,2.354481740448641780e-01,9.718869052563811062e-01
1.449868875224685553e+03,1.399730187495968266e+03,1.546727627583792582e+03,4.097113533958624161e-03,-5.743525374455737964e-01,8.185978111322560480e-01
1.536180959918646295e+03,1.487637748669531220e+03,1.501723540336732412e+03,3.492723827026372740e-01,7.690721667494103408e-02,-9.338597767890723933e-01
1.513750124405503584e+03,1.558333139035359636e+03,1.570010733257292486e+03,4.413278793086437752e-08,-5.848442863722999041e-01,8.111455853899923740e-01
1.382295147830369160e+03,1.351343297173325482e+03,1.634204578869404486e+03,1.927459319737974506e-05,9.675945572710656917e-01,2.525089550251643500e-01
1.486931597880542995e+03,1.487048487097150200e+03,1.474486175428984325e+03,3.433037731224303224e-02,-2.433733278950372947e-02,-9.991141673634159615e-01
1.507353093262382117e+03,1.560817670361982437e+03,1.603630119202268588e+03,-1.978708030677641988e-04,-3.848650908459926301e-01,9.229728179612068928e-01
1.431904581010882566e+03,1.397960045668392468e+03,1.714551376516633127e+03,8.709353581036390068e-02,-1.999057606642151361e-02,9.959995446226778126e-01
1.534643710593473770e+03,1.452020175801750156e+03,1.519225602600662796e+03,2.362103512534514992e-04,9.465269328686871653e-01,3.226247193859540507e-01
1.580980496911529599e+03,1.505355009833695476e+03,1.728910813898731021e+03,-4.448097560499698661e-04,8.720997707109102715e-01,-4.893278983159030648e-01
1.533296654579948608e+03,1.419264398818954533e+03,1.605734319936240354e+03,2.551451909648025352e-04,-9.230357957323038348e-03,9.999573667876603400e-01
1.379531950308804426e+03,1.434444996535912878e+03,1.397795992806142749e+03,-3.904585481354114207e-01,-8.650187061397294208e-01,-3.150948432080966644e-01
1.332110109428188252e+03,1.369490927820211255e+03,1.644193198466667809e+03,-6.448543211719797070e-06,-8.576238399865743212e-02,-9.963156193944181505e-01
1.677624146972903191e+03,1.581910418365514943e+03,1.629956315243372956e+03,2.156017850484744786e-03,-5.979020723011204685e-01,8.015662564785609456e-01
1.580586088007514263e+03,1.542978890333472464e+03,1.527376368411498561e+03,1.676949096466587297e-01,-6.142542438606382049e-01,-7.710837445944470625e-01
1.516300670914120474e+03,1.480706529527218891e+03,1.681271712277337201e+03,2.732174405728108463e-02,-9.983140470608157235e-01,-5.121118767148378353e-02
1.544640649263049681e+03,1.378451173137850219e+03,1.634607260989821043e+03,8.417627662473659012e-01,5.378579569928436666e-01,4.630619244838274362e-02
1.550337339248178523e+03,1.377467111838219353e+03,1.546581043779025094e+03,1.996678051065697013e-01,9.691146236564821548e-01,1.447398142153011047e-01
1.448901453289179472e+03,1.609871900383309139e+03,1.468473762841754933e+03,1.671473314184662023e-02,-1.924209885326668701e-01,9.811701080180276202e-01
1.419487953993644624e+03,1.385305054678918623e+03,1.649027206951544940e+03,-4.428410002930360106e-02,9.339952793904608974e-01,-3.545303041503355956e-01
1.416046266851518112e+03,1.522024785736230115e+03,1.595501622441712470e+03,-9.896712958602687030e-03,2.971376325780547001e-01,9.547833693453841031e-01
1.412252273673982472e+03,1.498530539349985929e+03,1.466181696424306210e+03,-4.522616669880548737e-03,5.434123005955797669e-01,-8.394537613828868539e-01
1.507391989153423538e+03,1.575397555518899253e+03,1.567517296413448321e+03,-2.926922225821152260e-02,-2.563548110688014248e-01,-9.661394948299538710e-01
1.450726353090617749e+03,1.359166235840052877e+03,1.556434794239484290e+03,6.312676902049975110e-05,3.653002894220915842e-01,9.308897327627732032e-01
1.481416733704078524e+03,1.534657123012763577e+03,1.555071582335206131e+03,1.865912080216473312e-01,2.897827470568042213e-02,-9.820101734117140380e-01
1.637249345023472188e+03,1.512777287856836210e+03,1.427674418258677179e+03,5.500818686390874790e-01,-8.236951413202768801e-01,1.376090547889160798e-01
1.583337011627877473e+03,1.398851450486978138e+03,1.570013365008810069e+03,-1.433225527346781436e-01,8.230408104965768468e-01,-5.496021016469581078e-01
1.452990882445275702e+03,1.544673844957960455e+03,1.470299934888503458e+03,-1.406431781054965496e-02,-4.727066851518265667e-01,8.811075897853200001e-01
1.636483511634994102e+03,1.426081499806597094e+03,1.710788610463955820e+03,9.922477830129440568e-02,1.767444422407792037e-01,9.792424855509767045e-01
1.557793179928912650e+03,1.528739798298121968e+03,1.644669282367169899e+03,-7.483008702957970456e-04,8.834171025692699741e-01,-4.685868787470724994e-01
1.423074858341210302e+03,1.475387823814050307e+03,1.519347087622008075e+03,1.165820822337252337e-02,1.327081805087813871e-01,-9.910865880472146117e-01
1.500882683379638593e+03,1.474427525382559679e+03,1.606689952097279729e+03,-5.863580274861307445e-06,2.670349299603827498e-01,9.636868506660615230e-01
1.466647018924105396e+03,1.349268823720161436e+03,1.578229882462899013e+03,4.051982480000999539e-04,-9.911733269331397533e-01,-1.325717609095956595e-01
1.525179582765787245e+03,1.382239319096257987e+03,1.511221102683941808e+03,9.076906392943742685e-03,1.916175165310436967e-01,-9.814277034651146536e-01
1.566590274148160233e+03,1.319545940408838533e+03,1.396382131853487181e+03,-2.986021383353449146e-02,2.250683519984034708e-01,-9.738853138632589390e-01
1.527164392047212914e+03,1.407491483382088973e+03,1.441013159686175868e+03,9.712057381627064450e-06,-2.708208766842845009e-03,-9.999963327487512155e-01
1.401566704158693028e+03,1.532604069362368136e+03,1.567126188360068227e+03,2.693924338252302597e-01,-9.629050630184224913e-01,-1.554207872862342459e-02
1.454834170267752143e+03,1.613453436482641337e+03,1.520539629511888279e+03,6.251577480331994563e-01,-6.040369356128134637e-01,-4.942845035903316031e-01
1.513334540958056323e+03,1.484505685874618166e+03,1.565417276895768737e+03,2.352786178193596589e-01,-6.949405153460437301e-01,-6.794863148935281760e-01
1.525222869883202520e+03,1.469693448737225253e+03,1.477117030709989194e+03,1.077054945146353332e-01,2.565615490480442351e-01,-9.605080416120553854e-01
1.431595098902045038e+03,1.445448996964485332e+03,1.425249532808101549e+03,4.251861920066499212e-01,-8.590597341817048926e-01,-2.850141667260469025e-01
1.295666083263655992e+03,1.347655843404795178e+03,1.460755740965059658e+03,1.315351504521418760e-03,1.549226303410333738e-01,-9.879257302341279967e-01
1.464106315664359045e+03,1.448340809716248032e+03,1.524671304224591267e+03,1.318291126511690168e-05,-5.930044073606968030e-02,-9.982401802946617719e-01
1.508049132349484807e+03,1.469966656835270669e+03,1.456882965194857888e+03,1.762454111368493524e-03,7.465659750215085655e-01,6.653090550230693623e-01
1.417637933558007035e+03,1.330206797363456644e+03,1.511063624554935586e+03,-4.297203810081583197e-02,-9.982401512929487408e-01,-4.086568594912945440e-02
1.487400639999977557e+03,1.401227555301102484e+03,1.505093511236045970e+03,-5.655901956803238706e-01,8.217768582304341152e-01,-6.921362457789714817e-02
1.367832115236016080e+03,1.293132012580833816e+03,1.546593551083571583e+03,1.637037608635948799e-02,6.800894772643373276e-01,-7.329463238881218645e-01
1.513135592239845437e+03,1.442454822332389540e+03,1.498310714094850027e+03,8.220660193722564846e-02,9.112882971112775676e-01,4.034795089542496660e-01
1.505200128890803171e+03,1.424696116094488843e+03,1.540369657065491083e+03,-9.340043884569271670e-07,2.990040175153666491e-01,-9.542518522427912986e-01
1.443819011818516401e+03,1.409750429271991152e+03,1.547008209499195118e+03,-1.000186521133281028e-04,-9.343450101572139399e-01,-3.563697405653082351e-01
1.371858150791167191e+03,1.386066723891408628e+03,1.478652977301253941e+03,9.240271340008493484e-02,-1.013256932706086116e-03,9.957212018766548045e-01
1.489202826742477782e+03,1.460742143772919690e+03,1.637230448723157906e+03,6.104599830492439538e-02,4.994131670400615008e-01,8.642105499691442594e-01
