x,y,z,nx,ny,nz
1.527314198776114608e+03,1.313078644385975849e+03,1.522475101003026793e+03,-4.283539062073048465e-01,-6.893048637823147029e-01,5.842702592148500962e-01
1.495628550494908268e+03,1.544760922990054723e+03,1.526739680375592570e+03,-2.123078126837914595e-02,1.728056761882293124e-01,-9.847270952928344201e-01
1.442005961443965361e+03,1.625892847889871746e+03,1.357845382023635239e+03,8.493399768512102654e-02,5.755151786819298065e-01,8.133686096376785413e-01
1.453495041536483996e+03,1.450528549217997806e+03,1.517690166853178653e+03,-5.392520737121502331e-03,5.563192148157437567e-01,8.309511730221542658e-01
1.424218300799532699e+03,1.513633386544354607e+03,1.351161326541372546e+03,1.596473312206161043e-04,-7.404337117983968986e-01,-6.721293721785845943e-01
1.382685121162541918e+03,1.326864523698497351e+03,1.460293662096901016e+03,3.935869853579268725e-03,-9.706152510895784680e-01,-2.406045371160115964e-01
1.515730384053830676e+03,1.469375710545373749e+03,1.553937191814448397e+03,5.336027391779439053e-06,2.413604366091376963e-01,-9.704355411934237896e-01
1.593968757727380762e+03,1.550275821792505212e+03,1.557398402321982758e+03,8.513552352948361435e-02,-5.463465386140918811e-01,-8.332211005356029432e-01
1.564211979461391593e+03,1.376759803190993352e+03,1.442380868442523251e+03,-3.317741910071203004e-01,9.223427596086221092e-01,-1.980144438648918093e-01
1.495226057679265750e+03,1.431720336992250623e+03,1.453507111460328360e+03,1.216086712597508465e-04,-2.904896641062176266e-01,9.568781219459393528e-01
1.453763299022474712e+03,1.544491323403327897e+03,1.481072478384479155e+03,1.290235893604830819e-01,-3.492545744787963757e-01,-9.281024488676733464e-01
1.480795030779944227e+03,1.454868145807635983e+03,1.486583386963610565e+03,-4.382551547012550184e-05,7.414437593927104553e-01,-6.710150145391149401e-01
1.515160345999719539e+03,1.435544273773299892e+03,1.406290445563087133e+03,-5.290135349323920981e-03,9.969798620059734384e-01,7.748012146696871272e-02
1.613339504323891106e+03,1.331683473882658291e+03,1.427216947785168031e+03,8.654569573826350337e-10,5.977863297817297417e-01,-8.016554770760873083e-01
1.516165497312244952e+03,1.385047080852514682e+03,1.521450060857914195e+03,-7.078829852367328652e-03,-2.690537010412873964e-01,-9.630991621447435591e-01
1.504236586892724745e+03,1.326765700729375794e+03,1.570733986044188214e+03,-9.961762543131724365e-03,9.949306134163815596e-01,1.000691649507320369e-01
1.459135229938580096e+03,1.496837500676167110e+03,1.493848352142706062e+03,-2.210896412425038607e-02,8.580747165941375876e-01,-5.130487057261163830e-01
1.461379760336911886e+03,1.624817621294361061e+03,1.618014121441017096e+03,-6.482574398503971976e-06,9.154543138418023140e-01,4.024219169309882216e-01
1.465406465170171032e+03,1.481584164775710406e+03,1.416954860501295116e+03,1.927531291213428657e-04,-8.602112254241229827e-01,-5.099378496449933351e-01
1.449442247691424427e+03,1.500884476598912670e+03,1.609466934526573141e+03,-7.072805484328142933e-02,-4.054571129767315374e-01,9.113737278387279428e-01
1.501828397812218327e+03,1.461470014678552616e+03,1.527967032800196648e+03,-7.475908328408221483e-03,-4.944101590016449776e-01,8.691965862051193037e-01
1.537320040100742290e+03,1.493362068774798445e+03,1.449807421872128316e+03,3.702258666558679856e-01,-2.976782113574854560e-01,8.799548227846243353e-01
1.490129865588698522e+03,1.508737897903560452e+03,1.550500066896977842e+03,-4.142281677346836650e-04,-8.810691418339989811e-01,4.729873103191308270e-01
1.453054180375333544e+03,1.477225889776882013e+03,1.386251779518237981e+03,2.217385825075923744e-01,-8.441957459126584462e-01,4.880220728722155510e-01
1.329310138765065176e+03,1.451776782906151766e+03,1.468465124812609702e+03,-5.471255826156336656e-04,9.588096467751320295e-01,-2.840488723873825783e-01
1.458609405119731946e+03,1.512025344797878915e+03,1.394115452293493490e+03,-4.109838767843087409e-02,1.242085422874579514e-01,-9.914046401712361956e-01
1.543432668545266324e+03,1.304897209291635818e+03,1.458855625562994646e+03,-1.399353346722266665e-04,-8.346898445922447118e-01,5.507202953883908458e-01
1.370665440428522970e+03,1.374973604953102495e+03,1.452199266827763267e+03,-3.165495669313730942e-02,-6.437333244116212605e-02,9.974237002333438129e-01
1.482287846246219942e+03,1.434169758499866020e+03,1.524394711300171139e+03,-1.164272035026210905e-01,-8.952649434186775723e-01,-4.300527727734254069e-01
1.457441866810497459e+03,1.345686776253179005e+03,1.527419541723859538e+03,3.778404515048513351e-02,-9.820583597481147287e-01,1.847531974849382086e-01
1.497388861567613958e+03,1.523403057703641025e+03,1.580164868805978358e+03,-7.875050406618618742e-03,9.851688239296507721e-01,1.714070358478965439e-01
1.473207851338006549e+03,1.519294455807207214e+03,1.519419481668026492e+03,1.875029815100353117e-02,9.789316117802593364e-01,-2.033256643332367331e-01
1.428191665177803543e+03,1.488758531456551964e+03,1.463014368656684383e+03,-4.797469987808342908e-06,8.667823440759053755e-01,-4.986866430688343121e-01
1.594677290963755013e+03,1.415525564259009116e+03,1.503305822963757237e+03,7.726679673090873779e-01,1.839201682760885914e-01,-6.075833967413348802e-01
1.631392968956501591e+03,1.394510169602986480e+03,1.453567743560657846e+03,3.144704262306331505e-03,-7.727079210545925170e-01,6.347539519960410104e-01
1.471698261361270625e+03,1.541011696671507252e+03,1.482817721223691024e+03,6.532967809974295301e-04,-7.749083380957858536e-01,6.320732874856705985e-01
1.641022612040578679e+03,1.373151157229014188e+03,1.407318538332061053e+03,-3.861620048361066090e-03,-6.857858227523974115e-01,-7.277931664988477323e-01
1.539625125615308207e+03,1.441712266410781922e+03,1.549079322763039499e+03,3.424769672758829446e-05,-1.357483958716082864e-02,9.999078570334759553e-01
1.506170438303976425e+03,1.543910524737591231e+03,1.465131303149440555e+03,2.401194261368686834e-03,7.591768800659988159e-01,-6.508799421086620685e-01
1.470698391718957737e+03,1.502119186876893536e+03,1.438165288177220191e+03,9.076394985180923081e-02,7.327664808752987202e-01,-6.743998738974739116e-01
1.443189782903252990e+03,1.589885346779204838e+03,1.445813565517230700e+03,1.804797819880013532e-01,7.481157880783246839e-01,-6.385529076916890423e-01
1.557664000171753287e+03,1.590617284403242820e+03,1.459397588492288605e+03,1.853444042364951402e-02,-1.342144529817947407e-01,-9.907789638102839636e-01
1.356377444803397793e+03,1.420141025667871190e+03,1.579967877711931578e+03,-5.429724748424565733e-03,3.436705349767715800e-01,-9.390745878139478142e-01
1.433264198603884324e+03,1.425128133927751833e+03,1.516625596037936248e+03,4.515201201258879402e-09,4.435190798157098158e-01,8.962649306089277568e-01
1.469273371254623044e+03,1.542349382797618318e+03,1.528987428169658870e+03,1.057217878561684740e-02,6.570167940449461730e-01,-7.538018051043826606e-01
1.571830322540241241e+03,1.458031319425856509e+03,1.410111247566647535e+03,-1.251953860387964024e-01,-9.823955157763695212e-01,1.386548444774928501e-01
1.537643560464044867e+03,1.567407618913140141e+03,1.435685387825971475e+03,3.559696779508199349e-02,-8.650632734919894151e-01,-5.003982301518656861e-01
1.468513730134866364e+03,1.416068329022675698e+03,1.335842623170667139e+03,-5.695221968587214911e-02,-9.220214973332180319e-01,3.829266289098513520e-01
1.515937881884155559e+03,1.447079426310835061e+03,1.455841111087796662e+03,-4.567002443168284749e-04,1.241714499236287322e-01,9.922606726303077052e-01
1.518310096331506429e+03,1.385473594658871207e+03,1.399690232591009362e+03,-3.670464375269241741e-02,-4.568570830753420631e-01,-8.887825238892120838e-01
1.507067235729120512e+03,1.486898992298150233e+03,1.553673204981932940e+03,1.379858978796650315e-01,-3.436774023900761588e-01,9.288948999067400125e-01
1.575326269610971167e+03,1.344895175810481305e+03,1.631916608654477386e+03,-9.089982954573974094e-01,1.956166549732861193e-01,3.680437788532884280e-01
1.444203238914319627e+03,1.498744868136234345e+03,1.626294781721860318e+03,-1.046053999421110298e-01,-6.411359644435281613e-01,-7.602646811473081634e-01
1.282978971049228448e+03,1.610207756412553863e+03,1.779376079116226038e+03,-6.166913949757815011e-02,-1.992128905238405856e-01,-9.780138759152472439e-01
1.370879573853199190e+03,1.358037482269566681e+03,1.581567129891216609e+03,5.340724828009155850e-03,-5.225614850058710736e-01,8.525848761541400256e-01
1.283006677570713464e+03,1.502178541760529697e+03,1.537478628902199944e+03,-6.244511981447042579e-09,9.722769400618029856e-01,2.338323156111170309e-01
1.466042157978942896e+03,1.493052193658884107e+03,1.489047497327924475e+03,-1.078053152282651417e-02,7.725057271601913911e-01,-6.349162792406487510e-01
1.375400619400095366e+03,1.588384825549618654e+03,1.548159853452722018e+03,-3.543066571082766070e-02,8.679917409443083098e-01,-4.953130379666545458e-01
1.671753983272170672e+03,1.563899766467713334e+03,1.463165067727839642e+03,7.289537603778009807e-03,9.999501422391585681e-01,-6.824637529557618827e-03
1.376237427045388358e+03,1.436376051323107959e+03,1.581146709718022066e+03,-1.785945060490766575e-04,-7.945192687819907507e-02,-9.968386827462826227e-01
1.431944067281149501e+03,1.499756510093674478e+03,1.412134924992587457e+03,1.549710039195741906e-01,-5.257636054375317558e-01,-8.363950138191205141e-01
1.426194349905065565e+03,1.570500830998322499e+03,1.404784181215001809e+03,-2.937363290643694169e-01,-9.535015337048581285e-01,6.748180651310176081e-02
1.557674452422525746e+03,1.460121350898750507e+03,1.394242848782967258e+03,-1.593945976954600431e-06,-9.510774037659780467e-01,3.089527019516514761e-01
1.423977182120744828e+03,1.473330989282527526e+03,1.501734831984371340e+03,1.700761274809247043e-03,7.182432005695736921e-01,-6.957900633428600878e-01
1.492936662451137863e+03,1.528753027355147424e+03,1.312673336258626023e+03,-4.688502151970234677e-01,1.771599492227675376e-01,8.653287399024092164e-01
1.235540521149425103e+03,1.657203335945041999e+03,1.728834278237961371e+03,6.513601745713215596e-01,-5.573653897598466189e-01,-5.148531298149714441e-01
1.521717622745742574e+03,1.388363199587108511e+03,1.463927423955781478e+03,-2.408292604985573981e-04,4.322488930476617863e-01,-9.017543104750530558e-01
1.471197974142764224e+03,1.448167694654483057e+03,1.451241277009072519e+03,6.481355306570691635e-04,-7.757568111153725354e-01,6.310316552507030385e-01
1.448218946502896188e+03,1.641425839166236301e+03,1.542502403077714462e+03,4.687420197713969630e-03,-7.318663167469187103e-01,6.814321114411830971e-01
1.431354646785814566e+03,1.317878535046810384e+03,1.433900323138393105e+03,-8.363139790316183320e-02,-9.731132179285195694e-01,-2.146076754861404590e-01
1.297703822944640706e+03,1.572222274456272999e+03,1.586079539891365130e+03,-1.105699022016044392e-01,6.958394461342172210e-01,7.096349497669582895e-01
1.240499302844957128e+03,1.670951857825803472e+03,1.797454465150199667e+03,-2.267607750466710086e-03,-9.999415106792486352e-02,9.949854409524268029e-01
1.384821679020680449e+03,1.385906276784799957e+03,1.578156207276188752e+03,-9.624788831559099580e-05,-9.211883738498575225e-01,3.891169112493046978e-01
1.246227425806079964e+03,1.552790160185753848e+03,1.523136460582182508e+03,1.190027044636815913e-03,-9.722762516095806440e-01,-2.338321500385618368e-01
1.428592427987891369e+03,1.485889561665223937e+03,1.571222360668730062e+03,-2.944000372917954775e-06,8.352556056387847594e-01,-5.498618674179176491e-01
1.448472261537639497e+03,1.353821020963701812e+03,1.399459935474422309e+03,-1.025658041047331909e-01,6.647898829678602350e-01,-7.399558549886123826e-01
1.506478390555704436e+03,1.435747421132805584e+03,1.400092494291129469e+03,4.655817700803128317e-02,9.223849946347493223e-01,-3.834556790899599776e-01
1.524000199815861833e+03,1.510051283635966684e+03,1.509937236850953241e+03,-3.680105759237568560e-06,9.914714855739826804e-01,1.303238016640734798e-01
1.339353270333662977e+03,1.601676330661450720e+03,1.430513754264943145e+03,-2.652194065176521377e-03,4.203141252789452387e-01,9.073747858286761447e-01
1.609753371225699311e+03,1.537126531098909709e+03,1.457105235670663660e+03,4.282175525507339511e-05,8.102623906411263732e-01,5.860672798227385405e-01
1.400754764228761360e+03,1.414371012136802165e+03,1.417057173985042482e+03,4.027507897120841812e-02,-2.854529441631348252e-01,9.575461005520629065e-01
1.615439758714355321e+03,1.408390954221171341e+03,1.475764845199589445e+03,7.238674003507934718e-02,5.619414258448324206e-01,-8.240036369983876341e-01
1.370757920352451947e+03,1.448226365805705427e+03,1.539319687867588527e+03,-1.304026206804528160e-03,-4.582562681041933428e-01,8.888191561048117695e-01
1.436134433837999495e+03,1.351003612543987401e+03,1.352163464134748210e+03,4.922869900691657025e-06,3.004090699266592224e-01,9.538104584672810748e-01
1.431359546107503775e+03,1.442931359064377830e+03,1.447583197573789221e+03,-2.522898205583978259e-01,8.036796672519974649e-01,5.389330560360258149e-01
1.464825708801276051e+03,1.482939140410032223e+03,1.378778594040914413e+03,-6.308858795832050738e-04,9.942831540435174142e-01,-1.067736464127840706e-01
1.524224083976314887e+03,1.449508015264941150e+03,1.412201729852247809e+03,-1.499227190900786664e-04,5.847945414842150580e-01,-8.111814357919225893e-01
1.574575629753045177e+03,1.381672294117257252e+03,1.373236555795242793e+03,1.106431512857078935e-02,6.968954941157657901e-01,-7.170873386219270840e-01
1.494114981615312672e+03,1.486315843719805571e+03,1.552887580319179278e+03,5.283648565007901254e-01,-4.798638623358373323e-01,-7.004007795819705562e-01
1.530340249898504226e+03,1.359940370753035495e+03,1.510550419649106743e+03,2.130568202067529540e-04,-9.369893015555639249e-01,-3.493579874243721295e-01
1.412403762979852218e+03,1.607209199263286791e+03,1.591484742335748251e+03,1.532771243760342426e-02,-8.588329260474560911e-01,5.120264313179496707e-01
1.457719737515510815e+03,1.586968305735442755e+03,1.512306376624938139e+03,-5.975924507300803268e-02,8.624403138000824587e-01,5.026186802743402016e-01
1.473116940889724219e+03,1.464647931441954142e+03,1.475571776781543349e+03,-5.644065312479261192e-04,-8.763349372479570798e-01,-4.817019402118767890e-01
1.484384938368379380e+03,1.346532038327072542e+03,1.512069811346945471e+03,-6.053015506334605833e-01,-5.948790913637693745e-01,-5.288940342440480169e-01
1.550790036121370122e+03,1.382861342823520090e+03,1.418053357485170864e+03,2.316767498806482134e-04,9.328751557372300107e-01,-3.601997919684605809e-01
1.410558743616360516e+03,1.495275334677630099e+03,1.499333409250318255e+03,1.723479328844795995e-03,9.995520502375537797e-01,2.987856229650289255e-02
1.556415159850673717e+03,1.497457734487297103e+03,1.378484870907117738e+03,-7.659240031786733460e-02,-7.136238533808907381e-01,6.963293761571147655e-01
1.474351680766132176e+03,1.651023253506416495e+03,1.555443962793820447e+03,-1.484103710859474871e-03,-5.579166583524231005e-01,8.298956559526269317e-01
1.568776874380239178e+03,1.429118680695568855e+03,1.500781895448509431e+03,-4.396352173117912959e-02,9.649128746874456874e-01,2.588635799400950122e-01
1.445392345053094687e+03,1.686708449417185875e+03,1.588310885654275353e+03,-3.668136521017138947e-04,6.662527463176997067e-01,7.457259171249631668e-01
1.471011236251481932e+03,1.520758511600419070e+03,1.517520489968090260e+03,-1.047626225702522618e-01,7.108814351613053084e-01,-6.954655836597564145e-01
1.413423986725107397e+03,1.564988400508550740e+03,1.542314123113945698e+03,1.291985322434562045e-01,-5.164586873963151747e-01,-8.465093995219497014e-01
1.536543014205176405e+03,1.510962171258392800e+03,1.495942057482518294e+03,-1.375170804946809489e-01,-6.501270317647548369e-01,-7.472776559893712367e-01
1.415209270011651597e+03,1.481411537326092002e+03,1.560062343038712243e+03,9.839347399672121811e-03,5.544229672681503240e-01,-8.321768806019114173e-01
1.626840494118750485e+03,1.424716700340394709e+03,1.444943858674906323e+03,-4.766492211292659709e-02,-5.272594885181725033e-02,-9.974708163739148814e-01
1.393844832600325390e+03,1.433416849978711753e+03,1.543569402436356540e+03,-3.743755773213469640e-02,7.446205432340442520e-01,-6.664373007754668121e-01
1.400392122471413359e+03,1.449813101944477012e+03,1.527882783772813355e+03,-7.345077417914312734e-02,-8.937051700034999158e-01,4.426014605505723121e-01
1.557249307213185148e+03,1.430203040315106591e+03,1.274377963479264281e+03,-2.776536946282492056e-03,-2.803133259743725847e-01,-9.599045421935303857e-01
1.513415361742951518e+03,1.432088230719650028e+03,1.483635742000067921e+03,5.093172774624116217e-02,7.131822768361319349e-03,9.986766725085669538e-01
1.513777207827591383e+03,1.610186901524367386e+03,1.447460475102885084e+03,1.275851412158936216e-01,-5.278437367058788077e-01,-8.397041272741818663e-01
1.450689676828108077e+03,1.519449393583283836e+03,1.560953908252919518e+03,-8.708926872461487251e-05,2.773792634056052031e-01,9.607604991089211399e-01
1.460842383059601616e+03,1.457893870962270739e+03,1.561984008023295928e+03,-5.289631832916211751e-01,-6.722318908586031316e-01,5.179789914993288003e-01
1.389453220093834034e+03,1.401649239224778512e+03,1.548890338015652105e+03,7.546185656800262357e-04,6.364496538906199152e-01,-7.713178777996335667e-01
1.603936798347902140e+03,1.288967790908070583e+03,1.485409825275318781e+03,-1.838088118121998515e-02,-9.823334908528561504e-01,-1.862338743511595951e-01
1.642299364055167644e+03,1.384599361558922510e+03,1.513751702179132735e+03,1.494095934187488406e-03,-8.619848287865772285e-01,5.069318717728393819e-01
1.379726044698436908e+03,1.575981549295965351e+03,1.586294179977715885e+03,7.004678534913162669e-02,6.889336784618470544e-01,7.214317947964873357e-01
1.458772239577128403e+03,1.450897184920426071e+03,1.601102722447924634e+03,2.809943451910885265e-02,-8.971453533033508787e-01,-4.408408293544417988e-01
1.430718087161348421e+03,1.587893472363231922e+03,1.434964344305568829e+03,2.411727324037843956e-01,-5.601858177882472756e-01,7.924819005465080224e-01
1.417255658447278165e+03,1.547483652024693356e+03,1.549176341377340350e+03,-2.041616855896305079e-07,7.201578556782670670e-01,6.938102499277728485e-01
1.391433529452483754e+03,1.593204628850116933e+03,1.484298268671826918e+03,-1.858200550116649238e-02,-7.667372298026734478e-01,6.416920830944362608e-01
1.525109087500538863e+03,1.422335864325222474e+03,1.447361361262732544e+03,-9.381536436651378985e-02,-8.402453769558533292e-01,-5.340284485990367536e-01
1.424047534189316366e+03,1.331163066489172706e+03,1.483669958191492015e+03,1.654587797005363514e-02,2.026739439046044977e-01,9.791064836800711380e-01
1.412208934907973344e+03,1.586989154742463597e+03,1.337994575395248148e+03,-1.498589865442042091e-01,3.808324464409570953e-01,9.124192741770307258e-01
1.499523936091057749e+03,1.411655062569476286e+03,1.503549406988432111e+03,-7.057684150760804576e-01,4.351941205704377147e-01,-5.590143304978155703e-01
1.502379280355858327e+03,1.321175313048267526e+03,1.489518739069157618e+03,3.314618301315080950e-02,9.364744605961238255e-01,3.491660281339778460e-01
1.407483702181513308e+03,1.446650583617820303e+03,1.453190218115879816e+03,-1.925336254224825072e-01,8.689285019580953451e-01,4.559540125566783897e-01
1.474374266103462332e+03,1.548049665570898014e+03,1.584397447630787838e+03,-1.534970516740994002e-02,6.736766977340785667e-01,-7.388667630103418205e-01
1.617578632257071376e+03,1.539584055040321573e+03,1.608256425138778923e+03,1.676806454658614359e-02,-9.274836286372557526e-01,3.734875508249648202e-01
1.500721254042087821e+03,1.365052852817494568e+03,1.439162726915825942e+03,4.155722279137167435e-02,-8.923062043919239850e-01,-4.495137760264376614e-01
1.556018361026052389e+03,1.459529617686987876e+03,1.493707939536599042e+03,1.813738481039927630e-01,9.867290039523538003e-03,9.833647155614368973e-01
1.478788709489715302e+03,1.414317362085860168e+03,1.430758146629693783e+03,-4.408603690534527303e-02,3.622222359490934740e-01,9.310485879555480127e-01
1.458739128881639090e+03,1.394007431574485963e+03,1.454616840826532325e+03,8.292709091730446902e-01,5.518521597910752696e-01,-8.814166400311067295e-02
1.487775894349586451e+03,1.433774243721688890e+03,1.576423073843359816e+03,5.774902295235844396e-05,-8.470203680847531169e-01,-5.315604318557013430e-01
1.456750533262169029e+03,1.483394155410480153e+03,1.540668994541874781e+03,-5.231874370944189142e-06,-8.633349527616069885e-01,-5.046313102778514637e-01
1.573089760447551271e+03,1.425085418963270286e+03,1.477916636332639882e+03,1.159459088399619059e-01,-9.910117098141283387e-01,6.672583633461018349e-02
1.498542137474320725e+03,1.663007129936301908e+03,1.500769617639114131e+03,1.393534908851666067e-02,-9.290113623352526107e-01,-3.697887162932089744e-01
1.516031975517110141e+03,1.361017965428990237e+03,1.485597636717217028e+03,-5.525095332294030492e-02,5.622430697630548257e-01,8.251242710406251346e-01
1.352909967704213386e+03,1.458810442267284316e+03,1.394407328354566744e+03,5.673054142960623665e-03,6.695709579522827193e-01,7.427264292615105568e-01
1.537526100558462986e+03,1.615601993956895967e+03,1.474383005146245296e+03,3.893656894948510083e-01,-3.605053818327819126e-01,8.476026365660971340e-01
1.457907060956186797e+03,1.483529560055696265e+03,1.474700077050099253e+03,-8.587163428347238626e-04,-8.430511550852131109e-01,5.378326993738204997e-01
1.566629196656569547e+03,1.365029459002726298e+03,1.267100111860103425e+03,-8.524370447738210954e-03,9.868209221464890879e-01,-1.615914685941761686e-01
1.477770671821225051e+03,1.350041431175213802e+03,1.440041654089718122e+03,4.159576244695963911e-03,-1.549505735191989420e-01,-9.879134667021883809e-01
1.508799954475736740e+03,1.410977458968535075e+03,1.542076346761597733e+03,-3.031634486376018067e-01,-6.474443926049199272e-01,-6.992193374718712606e-01
1.502346083132156764e+03,1.417232165384228438e+03,1.479723137363218711e+03,2.684735430014516533e-01,-9.321744778146382471e-01,-2.428429525830516078e-01
1.476971867676210877e+03,1.522273041231656634e+03,1.550877663182190190e+03,2.032243112518715422e-02,7.872167528353640753e-01,-6.163414498867550995e-01
1.524914487881259902e+03,1.419393174072245756e+03,1.569449422084661819e+03,-3.066004027335120577e-02,-5.237483978407765361e-01,-8.513210779075403023e-01
1.335969175014779466e+03,1.602406637761588399e+03,1.589302547623482042e+03,1.007622198935989405e-07,-3.191648819999117759e-01,9.476992023305560453e-01
1.367615619507354722e+03,1.445896847195327155e+03,1.438039970293700662e+03,2.170366119972668567e-02,8.818145893660351842e-01,-4.710965729781297351e-01
1.354394700574318449e+03,1.548996552502134591e+03,1.534109996151358246e+03,-2.513617165506999429e-01,-6.167924254322405542e-01,-7.459117852548646788e-01
1.520798380457630174e+03,1.466672653998019541e+03,1.441382909622227544e+03,7.935645967495106668e-04,-5.135537693442615570e-01,8.580570471988048231e-01
1.451891539708072287e+03,1.454330156591819559e+03,1.397262949763347933e+03,7.524846354358092314e-03,-5.963512168858732254e-01,-8.026883597051108765e-01
1.533592583048874758e+03,1.433686796996182011e+03,1.484903248456078472e+03,-8.468462871177032422e-07,-7.567922712719754585e-01,-6.536554582823334014e-01
1.476778659948053019e+03,1.510930002658666126e+03,1.494043216452983870e+03,-1.450432352731926330e-03,9.019917566686329602e-01,-4.317508160360831182e-01
1.289819841391452201e+03,1.702404543581808184e+03,1.518551957502655569e+03,-1.308123002043163341e-01,8.493331156985186583e-04,-9.914067887343290808e-01
1.421761353091580304e+03,1.512227863090456822e+03,1.476584619156342342e+03,5.127477671677849180e-02,6.438247510952919139e-01,7.634530680727728003e-01
1.518957679007198976e+03,1.638313244074000750e+03,1.489585794165572906e+03,-3.939655222758378095e-01,5.872056747425749013e-01,-7.070931075947802791e-01
1.452469777354026292e+03,1.456904037155898322e+03,1.372021438291094910e+03,2.156728192215794771e-10,9.612750573512813812e-01,-2.755907547692604265e-01
1.431308603677986412e+03,1.564996293543367301e+03,1.544213619324684487e+03,2.091754399295105704e-01,8.030184740817155609e-01,-5.580384983258491749e-01
1.551004688047687978e+03,1.430247372023178968e+03,1.521644243246872520e+03,6.105411996924561269e-01,7.049462003809053856e-01,3.609574740140737426e-01
1.411815166410344318e+03,1.479054298096774573e+03,1.510299419190150729e+03,-1.346121687943731531e-03,8.684628433256403879e-01,-4.957524359185192520e-01
1.376411182174175337e+03,1.302747559122984057e+03,1.645033019057968431e+03,1.425824231798062669e-01,9.051857035157003795e-01,-4.003861820180128483e-01
1.427298061991290751e+03,1.620426594140011048e+03,1.537065714932223500e+03,3.677226731564476117e-03,8.421451798906284258e-01,5.392383276349574928e-01
1.374034002315246425e+03,1.503621693194842237e+03,1.534318402299889613e+03,-1.760971367298428680e-01,2.657585729942076314e-01,-9.478196976828628939e-01
1.347103380742241598e+03,1.511231508510074491e+03,1.395827882422581297e+03,8.061362238938499236e-02,-2.384509908559398483e-01,-9.678029597211832424e-01
1.378748618787938540e+03,1.668641317561270171e+03,1.468921639608118085e+03,1.600589899620326328e-01,-8.478079555123331223e-01,-5.055717459494070143e-01
1.355731019301176275e+03,1.394790700415658421e+03,1.506619362728912620e+03,-5.303475316069403492e-04,9.999818140704318514e-01,-6.007516949951472590e-03
1.547439549430982879e+03,1.463437515082752725e+03,1.423273767444360374e+03,6.029872109002177433e-02,1.345041161182673473e-01,-9.890766941861239836e-01
1.417126645269966275e+03,1.370109681533760067e+03,1.443556911304786581e+03,1.609239201136115904e-01,-6.300718029892852234e-01,-7.596795475811490839e-01
1.233015255983639918e+03,1.602174698566985171e+03,1.548883943237918174e+03,9.158993844857132860e-01,1.816893938203361925e-01,-3.579347449911651768e-01
1.469227231167596983e+03,1.518724864408920439e+03,1.485148183776748283e+03,-1.335009745424958140e-05,-3.827832508367163267e-01,9.238381799323138743e-01
1.375672696092163733e+03,1.352166706469600058e+03,1.680401176904076692e+03,5.046581117782822713e-08,-9.357112838560600609e-01,3.527667689344354263e-01
1.519684584057840539e+03,1.546454697906892989e+03,1.523358484803584133e+03,2.555146767155265618e-06,9.800221446898461641e-01,1.988884006446465513e-01
1.589794164454707243e+03,1.392980233978113347e+03,1.447113906833930059e+03,-3.373263641339565577e-01,-8.758373349470295333e-01,3.451374896661478231e-01
1.418841594128480892e+03,1.643498880922385069e+03,1.391021692444781138e+03,-1.306515432615471056e-06,-8.637964604845507210e-01,-5.038409221695424600e-01
1.518068943016899766e+03,1.588248175163152837e+03,1.431731229999833204e+03,-3.383832441637407706e-02,4.599842342898699532e-01,-8.872820701476247240e-01
1.453711512938916940e+03,1.426420802013471757e+03,1.530092176718077781e+03,2.214223931369009178e-04,2.831872047924782754e-01,-9.590646266096705119e-01
1.487118556981678012e+03,1.617150054016641661e+03,1.518208568147272217e+03,4.374566819774201032e-01,-3.519558874572216722e-01,8.275014831874959453e-01
1.393741182222797306e+03,1.583548768314512472e+03,1.456171990283751484e+03,4.818038819049733464e-05,8.728647720448550196e-01,4.879621782492301052e-01
1.489178637707777398e+03,1.399612844898579169e+03,1.372310519262509388e+03,-1.465637765350740706e-07,9.903670497397211170e-01,-1.384669880867610281e-01
1.391903835456658953e+03,1.553501796124442990e+03,1.428511560638648234e+03,1.883436470311725163e-03,-7.818661746298694037e-02,-9.969369616564323078e-01
1.585533363946219197e+03,1.394564081637939580e+03,1.443864759713188960e+03,-7.238220753634168380e-04,5.540139324327009174e-01,-8.325070803014578136e-01
1.574087113334370770e+03,1.493975331326874084e+03,1.254655766356472668e+03,-5.214473773976702892e-02,9.720803109873791259e-01,-2.287811078667366937e-01
1.304442701297600252e+03,1.741202644699155599e+03,1.513635808062392471e+03,-9.233705223041124670e-04,-6.861100991549709538e-02,9.976430607713633325e-01
1.501222109627561622e+03,1.687161225494675591e+03,1.624599506795975003e+03,1.332503441668662335e-05,1.119693817235057065e-01,9.937116570609902944e-01
1.375597613659100716e+03,1.540033634014527024e+03,1.530329544088129069e+03,-4.958528744041744691e-09,-3.688294063802095568e-01,9.294971054227239016e-01
1.403409959283070293e+03,1.533280301153746223e+03,1.433644630745434142e+03,2.766835038003749928e-03,-6.309764996891734645e-01,7.757970104762398345e-01
1.591608770872771856e+03,1.441235917644089795e+03,1.378259106951992180e+03,1.157714709369349077e-03,-9.628346833385442727e-01,-2.700889339773416276e-01
1.543816885578442225e+03,1.494273578942045106e+03,1.576701460705274030e+03,1.213309860917049232e-01,-9.918225514173433233e-01,-3.958305589524191426e-02
1.542644298487212609e+03,1.577018224466480888e+03,1.373874260558291553e+03,2.323471867095036961e-02,4.446419924102957832e-01,8.954069725179072403e-01
1.512568380186517970e+03,1.485418573401500680e+03,1.456687431898642217e+03,1.212511509183095137e-02,-7.548765586958759988e-01,-6.557548038066375318e-01
1.570413322064697695e+03,1.433934138219093484e+03,1.510523469800001521e+03,-6.766582264953726673e-06,6.500149221995743520e-01,-7.599214438822573525e-01
1.252797149781922599e+03,1.527237843250280321e+03,1.461619550417493883e+03,8.875450824758470465e-07,-7.851745220674239967e-01,6.192745513061267415e-01
1.524631924292009444e+03,1.457538303149367948e+03,1.297928788289186059e+03,1.467396155826954374e-01,-2.772800461785325243e-01,-9.495173833110553963e-01
1.418208204167935719e+03,1.436988977414219789e+03,1.600390067899628093e+03,-5.279761420293323237e-02,5.919182924142797342e-01,-8.042668382072216682e-01
1.469299235570925703e+03,1.520035639678620100e+03,1.472349640897877634e+03,9.813302541620800273e-08,6.228997123495073618e-01,-7.823016990617439603e-01
1.491984718196859831e+03,1.517587541408006473e+03,1.460344353075809977e+03,4.832062833802562908e-06,8.189539133140005811e-01,-5.738592927228203244e-01
1.454685926394377702e+03,1.548914797272486112e+03,1.438453927800124575e+03,-4.169073024362212471e-03,5.634832705360112159e-01,8.261169545870353792e-01
1.534806756101641440e+03,1.392059309787867051e+03,1.628108689351653766e+03,6.566300851985404493e-04,-7.705451931793975140e-01,6.373850281462972722e-01
1.356448862000783265e+03,1.529969652908073613e+03,1.605342001219334634e+03,-1.740887071704261269e-01,7.773197690613623534e-01,-6.045387486854089110e-01
1.370653826818389689e+03,1.593338016666447402e+03,1.604890546616508345e+03,-1.808205497767300662e-01,-8.447752553233291994e-01,5.036454077740062374e-01
1.377486328821626557e+03,1.547744668825185045e+03,1.420186966044083874e+03,1.016077817890882621e-03,6.251545122707822255e-01,7.805003544991816478e-01
1.587168658910477689e+03,1.441337386863229767e+03,1.418683805967786839e+03,4.625405304246397314e-02,5.534211210184752927e-01,-8.316162729214713334e-01
1.523558585052171793e+03,1.453483351858307060e+03,1.470552598644767386e+03,-8.830359849486911772e-01,-2.701774672408038813e-01,3.837337429534172784e-01
1.524767786924151551e+03,1.472989308949373935e+03,1.484112899668611362e+03,3.509489208274432781e-02,-5.132375738857947178e-01,8.575287408020351165e-01
1.404196376307687615e+03,1.499147139953262922e+03,1.456950471201384744e+03,-1.316124439254633960e-01,-2.302902407229210080e-01,9.641807764271935755e-01
1.360020453292293269e+03,1.438332704450160236e+03,1.607519368863803038e+03,7.692169010275039520e-01,4.146906581088043442e-01,-4.861450578283501578e-01
1.507758668303927152e+03,1.487639627230573296e+03,1.461676359569322585e+03,-3.616471632228488442e-01,5.133593448633614331e-01,7.782502890293884201e-01
1.633253718830215348e+03,1.406053705646018898e+03,1.298054172228047037e+03,3.895051274189163196e-03,6.914378773777956066e-01,-7.224254219660739551e-01
1.552714793696974994e+03,1.345983704071727971e+03,1.496138893720090437e+03,-3.633334909784182668e-04,4.670669828382972288e-01,8.842218621653188393e-01
1.509813713901177607e+03,1.582115554715791404e+03,1.395612224447613244e+03,-2.935791063039059900e-01,-7.265712767461787180e-01,-6.212129169207830648e-01
1.509557115503331261e+03,1.427874552384916797e+03,1.446806505533844074e+03,9.765733811470230983e-05,5.397652989792572908e-01,8.418155454022437922e-01
1.433162212041771454e+03,1.383277327858350873e+03,1.586568249885775685e+03,4.926498517375777625e-02,-8.476682040532604878e-01,5.282343959578451598e-01
1.576401668802577660e+03,1.536893986316360952e+03,1.562125541701788961e+03,5.429662048862278836e-03,-7.836662787964537857e-01,-6.211583391111753505e-01
1.387829207848005808e+03,1.554606145679760857e+03,1.568441635901886229e+03,5.457672280086407479e-01,-8.636613715047970069e-03,-8.378923210862487814e-01
1.456902311917394172e+03,1.418036829658015677e+03,1.521873733847188532e+03,-5.690200217599551413e-01,-5.112265411817239480e-01,-6.440990905347339091e-01
1.476466061577103346e+03,1.455013805936948529e+03,1.469831084008681046e+03,-2.105249284424237372e-04,-7.793461049505272520e-01,-6.265936517215096035e-01
1.518731672850899713e+03,1.366736413185244601e+03,1.375033450668765681e+03,-1.285204637819093720e-01,6.592344855522795921e-01,-7.408727174406574134e-01
1.417080672884117121e+03,1.429807931928297421e+03,1.435486101792109821e+03,-3.125874131945121769e-03,-4.660285731072563165e-01,-8.847641482104289246e-01
1.354220183504311990e+03,1.579742088281394217e+03,1.575489181132257272e+03,-1.302404629963422635e-02,9.809758699254319536e-01,1.936923252016639896e-01
1.384093016620787466e+03,1.486790123903227595e+03,1.516256730992746952e+03,2.995400002569442374e-02,7.399674453680795683e-01,-6.719753996076782698e-01
1.562177371839488615e+03,1.357594330338681175e+03,1.320787101141683479e+03,-1.740132679207575086e-03,9.080883129432849588e-01,-4.187751041240121985e-01
1.434861506678947080e+03,1.320827793668410322e+03,1.417276733891264939e+03,1.748192633676439638e-03,6.017919916679749237e-01,7.986509516596141944e-01
1.518429792051691265e+03,1.474367638035261734e+03,1.510309467072337384e+03,4.750490530556948643e-03,-7.203000184167840381e-02,-9.973911527953348566e-01
1.460062737687579101e+03,1.351093096940040141e+03,1.619739329620057333e+03,1.918863802691112563e-01,1.555560222305542480e-02,-9.812938603225316303e-01
1.475014632942375101e+03,1.605387878256211707e+03,1.503687903278807426e+03,5.310442702589372419e-06,5.763994716458449297e-01,-8.171680665922953501e-01
1.454931904186071961e+03,1.417692594653426568e+03,1.551920034052454866e+03,1.494907653141868201e-02,-6.662175364436258018e-01,7.456076174811010482e-01
1.324124904830801597e+03,1.573082097114444878e+03,1.615747842409338773e+03,-6.700062428134359038e-01,5.918038104166398750e-01,4.481739445431527358e-01
1.429629076665704588e+03,1.537927606911459179e+03,1.545310575436334602e+03,7.627038310260252486e-05,8.863337316736427107e-01,-4.630469849597378396e-01
1.479014516529324965e+03,1.486997586390802553e+03,1.583534978120246933e+03,1.150465614119170962e-02,9.837940741209584283e-01,1.789325644245874092e-01
1.389417386196530060e+03,1.468292650301540334e+03,1.576773769512164563e+03,9.990141894008321491e-03,-8.414225084312009217e-01,-5.402854424933946076e-01
1.494083504168386071e+03,1.320608580666512353e+03,1.477673614941548294e+03,-9.405656287018004935e-03,-9.156358798368611218e-01,-4.018985807205442962e-01
1.434620147280217907e+03,1.657284541530242677e+03,1.588740821308477962e+03,2.909766726557260208e-01,-8.174891740221620351e-01,-4.970352365041796894e-01
1.362564431540165060e+03,1.535469025094867447e+03,1.491968074677025925e+03,-6.749403549662352786e-01,2.671907199110288289e-01,-6.877969441859119737e-01
1.448599306402605180e+03,1.472363243278633490e+03,1.548345475757540271e+03,1.401024591586252921e-01,9.568378799895496112e-01,2.546224113364922159e-01
1.539705034914178896e+03,1.452210188903892458e+03,1.449826866155206062e+03,1.026964629612319713e-01,3.639148802073923217e-01,-9.257534209814682891e-01
1.380330723455207817e+03,1.455359189451976590e+03,1.565321954572351615e+03,4.150783596869180025e-02,-9.983782915401672176e-01,-3.896006332814463263e-02
1.478696962536261026e+03,1.539405110667424424e+03,1.499915602957610417e+03,1.510137735946697098e-02,-7.767910431233432389e-01,-6.295773373662646444e-01
1.387846309819152111e+03,1.592471099173009634e+03,1.430559446810636700e+03,-1.999973454023823705e-01,-5.501453201655067682e-01,-8.107658037509921645e-01
1.482745363113035864e+03,1.381224939928495814e+03,1.591971197893581575e+03,-1.838056242332142655e-03,8.397877765694699015e-01,-5.429116980446785368e-01
1.378063789226229346e+03,1.488174471447820224e+03,1.505095432688502115e+03,3.285064212811702467e-01,4.491981785956030704e-01,-8.308456700997068900e-01
1.524595245282981068e+03,1.434480974349453845e+03,1.395542897783071794e+03,-1.122567189581973879e-01,6.036714501291972068e-01,7.892903200645833284e-01
1.382063046175220506e+03,1.426888057993633083e+03,1.478922583350766445e+03,-1.465404289450876821e-02,8.172908772614803086e-01,-5.760389578596274429e-01
1.408053110983250008e+03,1.536049976206698830e+03,1.417365961136227270e+03,-2.802460894412825421e-01,9.475622826002901844e-01,1.535833648094626636e-01
1.478951068878351862e+03,1.325956005264953546e+03,1.552436225071191302e+03,-1.726156144032495632e-04,3.237655183128075875e-01,9.461373364134240127e-01
1.350781204151898464e+03,1.536602560170478910e+03,1.606850527338383245e+03,1.957886266272745954e-09,7.023171986976958214e-01,7.118641390134927693e-01
1.459045442906613744e+03,1.342844276121683151e+03,1.429697829120344750e+03,-4.828785129882319505e-02,9.944615459126887602e-01,9.335157801498533692e-02
1.427248331115632936e+03,1.533133265674517816e+03,1.520373947615524457e+03,-3.268119532195510324e-01,-7.732788781477251128e-01,5.433541421977177155e-01
1.483676171219396338e+03,1.404982437818681319e+03,1.605684884783895086e+03,8.040430248324815787e-01,5.871293323146720144e-01,-9.377612358143652682e-02
1.430866281887119158e+03,1.559040267429909818e+03,1.673443579804715682e+03,-3.811583346097695002e-01,7.824929963170919045e-01,-4.923647374378130048e-01
1.488698463425244199e+03,1.369869769416966619e+03,1.502347925037481900e+03,-1.664207105539444731e-01,2.123044982752281609e-02,9.858262600980161050e-01
1.496758171681620979e+03,1.486102100907664180e+03,1.583382116232449562e+03,3.010885031545836379e-02,9.939532175689990146e-01,1.055957310544115291e-01
1.480114873505452124e+03,1.481055782699242172e+03,1.500337751856615569e+03,4.668450309151767064e-02,9.274236988689812389e-01,3.710873750847303310e-01
1.346985912763993383e+03,1.585733986845600157e+03,1.400915807403806639e+03,-8.101207504254170910e-01,2.126942954615238801e-01,5.463199670598588575e-01
1.567927163910282843e+03,1.496924327007833426e+03,1.485873280596142422e+03,5.905874180872267704e-02,8.876498263539251976e-01,4.567163789375383587e-01
1.506303917415613796e+03,1.576471258434178253e+03,1.331236290911213473e+03,4.738442764328890666e-01,-1.766246180646338648e-01,-8.627139421530835017e-01
1.472309508252780461e+03,1.453905192809063465e+03,1.560799585335753591e+03,-1.587182422874545279e-02,-5.440982430854351959e-01,8.388713769505994344e-01
1.437573528059176169e+03,1.718598630795376494e+03,1.566239425323481782e+03,-2.115666192057683980e-03,-9.938531535574103293e-01,-1.106861920952852962e-01
1.614739615596567091e+03,1.481769814246921214e+03,1.482716916616672279e+03,-2.960697142753642708e-01,-5.916400957465459687e-01,-7.498698029617689720e-01
1.400167555965984775e+03,1.389496925566862501e+03,1.375922319434483370e+03,-1.099638286860905034e-01,-4.076618046884934454e-01,-9.064876222976333553e-01
1.522702677448889290e+03,1.450361557728486559e+03,1.435337870651419962e+03,-9.655106248420766701e-02,-7.755188837708033578e-01,6.238977105648471078e-01
1.493051752871593408e+03,1.535403824869389837e+03,1.397212141123122365e+03,7.734692662639122696e-02,4.236475656721676586e-01,9.025188048132283258e-01
1.451977197263742028e+03,1.500206765913375193e+03,1.563058715254026765e+03,-7.715273325652998171e-01,5.194549716045355758e-01,-3.673038355095197272e-01
1.387893463226001359e+03,1.732771771304375534e+03,1.504796557291917679e+03,1.992783231074319455e-02,-9.961909390032471778e-01,-8.489107460283239204e-02
1.478012122714479574e+03,1.550471300144992256e+03,1.509169739295340378e+03,-1.604879675706867570e-02,-5.505434342773084522e-01,-8.346522408145785610e-01
1.510476565106116823e+03,1.552419663527636203e+03,1.409486741270857237e+03,-6.149421516241866496e-03,-1.250519881107077513e-01,-9.921311329076287766e-01
1.530840397448618660e+03,1.343736681775754050e+03,1.400817996224753415e+03,9.482760497391932164e-01,-1.745210025093159589e-01,2.651696686541933357e-01
1.481107192906316641e+03,1.579785508343250058e+03,1.546299253053845860e+03,-4.659900733194707878e-01,8.404847119201150907e-01,2.764754972800944621e-01
1.514624582773126576e+03,1.429495410400294986e+03,1.400570762229652019e+03,-2.015015093177275132e-02,-7.526311519087669488e-01,6.581339685762384040e-01
1.415139121097744464e+03,1.452701407714948118e+03,1.458586593845667267e+03,-6.982346408932005311e-02,-5.492847382015429991e-01,-8.327130119323402635e-01
1.474770681504009872e+03,1.556293126833591259e+03,1.446206430429959937e+03,-2.260966532317439381e-01,6.067696451244305456e-01,-7.620438971299338116e-01
1.319609510533773573e+03,1.604239178894832094e+03,1.320172008686527533e+03,-1.591562370473625573e-02,9.349875303404049376e-01,-3.543233142626089904e-01
1.478271187012221617e+03,1.486509367774053999e+03,1.467455631483693196e+03,-9.167790570046886744e-04,-6.564616964986174086e-01,-7.543588009338246803e-01
1.610090959962564511e+03,1.483036892034198672e+03,1.505626265060399874e+03,2.331337423467243902e-02,1.666256184166956256e-01,9.857445865278936514e-01
1.564084716919664743e+03,1.427717491195798630e+03,1.459295587074941295e+03,1.577352143205229540e-01,-8.994081134680756984e-01,-4.076575126145179362e-01
1.440511293865564312e+03,1.542051653426950907e+03,1.480143558931994676e+03,1.739555963258913873e-02,-6.648288820997718673e-01,7.467931119333095502e-01
1.552176924350791751e+03,1.469166119334583982e+03,1.367719902464210918e+03,-8.692601533649141690e-03,-6.362907907649698602e-01,7.714003294439706337e-01
1.467949377635292876e+03,1.488597334068419059e+03,1.463209060875967680e+03,1.475917767269470382e-01,8.173260903753699624e-01,5.569512810240190293e-01
1.377550607428737976e+03,1.548764736486063839e+03,1.433407399780615378e+03,9.201623365031159300e-04,3.444949717136318035e-01,9.387877117673082417e-01
1.390042584386109411e+03,1.534344110142243153e+03,1.439682130155676759e+03,-7.947541254590640911e-03,-8.603675288552277145e-01,-5.096121582925150495e-01
1.463816637400890613e+03,1.352781257074396308e+03,1.454775727453648869e+03,1.920846296737666048e-02,5.133118015240463183e-01,8.579871965050346327e-01
1.479595611201772954e+03,1.413913975422037083e+03,1.501052031393482366e+03,-8.770937418018869280e-01,-2.831343972954225019e-01,-3.879967540587456742e-01
1.562131177336718110e+03,1.471018368887489260e+03,1.276526123994852469e+03,-3.346810772415050787e-06,3.861807464066160378e-01,9.224231301813868855e-01
1.452509723068133098e+03,1.490458117722277393e+03,1.542546639622330531e+03,-1.962783055488431516e-01,3.062389105507147269e-01,-9.315001644850022799e-01
1.485876590213826148e+03,1.521719761649665770e+03,1.595854534481423343e+03,1.125384894433126803e-09,-9.217503485205100766e-01,-3.877838250911431195e-01
1.405563094193940515e+03,1.614925931136873032e+03,1.459075046786603025e+03,1.152915244047769856e-02,-9.804117070587063942e-01,-1.966213704210141855e-01
1.502280808192357199e+03,1.346850645018199202e+03,1.415861318062308783e+03,-7.657633026435448076e-02,-1.817888303376138104e-01,-9.803514098565507817e-01
1.532512724413186334e+03,1.463239476996696567e+03,1.493133632073125000e+03,-3.986856236387737761e-06,-6.007827028823656823e-01,-7.994123741233082336e-01
1.508205529659189096e+03,1.408868872154174369e+03,1.533278073494356704e+03,-9.285550552252724854e-01,-3.665487492815778792e-01,5.854505799554870354e-02
1.511930970608845882e+03,1.555034868144872689e+03,1.415089955152283437e+03,1.072172703024617570e-02,-2.757665574753157545e-01,9.611648403617885084e-01
1.420228644765336185e+03,1.509270741943263147e+03,1.481590414354086988e+03,-4.810045549658541475e-01,1.684929419373539239e-01,8.603747710267869442e-01
1.468645630186718108e+03,1.525722156385343169e+03,1.550753165789810510e+03,1.591948528247867481e-06,4.959237846884722578e-01,8.683660517188172001e-01
1.422234737219500403e+03,1.614948527505024003e+03,1.484290861513750315e+03,5.536236324185420088e-05,7.829288258684524715e-01,-6.221112847065668472e-01
1.459311823364387919e+03,1.527480057627798033e+03,1.485721814821226644e+03,-5.983321865014123997e-01,5.165428584320642669e-01,6.125210771877743765e-01
1.418821417059610894e+03,1.519272863589255167e+03,1.510142545360487475e+03,-4.172029431868073263e-02,8.698532928966195010e-01,4.915431475250882642e-01
1.525020505213778961e+03,1.290118556928967337e+03,1.397164141254017750e+03,1.525585662895484196e-01,2.809849113369656259e-01,9.475090308026805630e-01
1.357859882212170533e+03,1.537322348404243030e+03,1.388889755009717874e+03,1.226874096460702293e-02,9.064104738786061821e-01,4.222197660440638045e-01
1.466805497532337085e+03,1.400114738093537426e+03,1.446949885847736368e+03,-8.733934388996854314e-03,-2.523213061584235750e-01,9.676040909631354880e-01
1.511326042075744454e+03,1.266288644378379104e+03,1.423457195287992590e+03,-1.588521183531456328e-04,4.168337130935786394e-01,9.089827448277687516e-01
1.543704561703218587e+03,1.412909651742420010e+03,1.321791328773109854e+03,2.471444158817967182e-02,-9.808417896019340221e-01,-1.932319335603197852e-01
1.638165368291287677e+03,1.381952923933786906e+03,1.405126931483931685e+03,1.760970060656113709e-02,-8.387134328051335519e-01,5.442882288611209374e-01
1.435397000497933732e+03,1.550152773539785585e+03,1.560342205479457334e+03,-6.313447194311871957e-03,7.529507975260552044e-01,6.580465309454963663e-01
1.577908428967238024e+03,1.411945284017788708e+03,1.438127536887727047e+03,-2.371061778622467198e-02,-7.313412532503820174e-01,6.815994262749609511e-01
1.487353631113430993e+03,1.588576076121295046e+03,1.529717561588045328e+03,2.887749862436355119e-01,8.185912742812626042e-02,9.538910265731059823e-01
1.477505669573827390e+03,1.579988785219965848e+03,1.537389311709533786e+03,-7.513678544446873028e-07,-9.809094057543465972e-02,-9.951774552191493539e-01
1.424292828789717078e+03,1.529597116722615738e+03,1.553894025048720096e+03,-2.033857098106357411e-06,-8.005558942161643543e-01,5.992580915028358213e-01
1.549208716203069571e+03,1.520533781528244845e+03,1.387789394053055275e+03,-3.241793490216709865e-03,-9.858134730466117102e-01,1.678132507722324418e-01
1.374243397184924788e+03,1.460510164248822093e+03,1.482332735268751321e+03,1.520325671649563892e-02,-6.295295810716290408e-01,-7.768277592497525585e-01
1.411858303971357145e+03,1.496412842928677037e+03,1.528156538232085040e+03,7.340118670924679067e-01,2.804583202552393129e-01,-6.185221981198725238e-01
1.414686428941489567e+03,1.659456950710406772e+03,1.524366962307682570e+03,5.043095580826047891e-03,-7.576888615770487334e-01,-6.525964727372027818e-01
1.489875233537990198e+03,1.535938908316400330e+03,1.370869073405127665e+03,1.078501804173149885e-03,-9.816597933022377376e-01,1.906381049204652067e-01
1.419649531208671988e+03,1.570836473239207635e+03,1.584856138218314754e+03,6.650872943061949226e-03,8.512120554036504139e-01,5.247797658299984125e-01
1.467638125207055282e+03,1.470919507813241125e+03,1.393262241279218642e+03,-7.246342871773809842e-04,8.474574361521706178e-01,-5.308628531132494333e-01
1.560104897310901833e+03,1.336683199919388016e+03,1.504219764498402810e+03,-2.187344531465489628e-01,9.373706824382438407e-01,-2.710930517588774347e-01
1.488235162366075201e+03,1.670352583239196520e+03,1.457886281897508752e+03,2.934973726284482720e-01,-3.741558434274531164e-01,8.796969347958926155e-01
1.488946454497443028e+03,1.520732181195942530e+03,1.456311305187767175e+03,5.707048346816733907e-04,-9.995745943846094939e-01,2.915998211307709032e-02
1.513035645890645583e+03,1.416475570941809792e+03,1.452456127991644280e+03,1.416923579922344792e-03,9.942445217519838563e-01,-1.071252691652981037e-01
