x,y,z,nx,ny,nz
1.447910185841653856e+03,1.494337928567824747e+03,1.488369534527387259e+03,-2.501857705459629207e-03,9.008529496114265900e-01,-4.341171545613166649e-01
1.565759215750446629e+03,1.505361294438187770e+03,1.429624294326835297e+03,4.115846906601494659e-02,-6.305341537985276190e-01,7.750694558023277780e-01
1.505408329545740798e+03,1.365179970248263544e+03,1.495193369364840692e+03,7.322288616548661882e-04,-9.084908494747702123e-01,4.179041041453227523e-01
1.699315013989605404e+03,1.431311121314648290e+03,1.665995116403108341e+03,9.808071349875191469e-02,7.781661620279937130e-01,6.203528011657545305e-01
1.331391408108789392e+03,1.368179649481641945e+03,1.430800751001353319e+03,1.954888373928890741e-02,-9.788681542213119036e-01,-2.035558345906841593e-01
1.663891751768561335e+03,1.343918136603280345e+03,1.465987377053312002e+03,4.192322036236682574e-06,1.634653993428958341e-01,9.865490678116786150e-01
1.549616160641088982e+03,1.256845508066002139e+03,1.636260898403240617e+03,-1.387254103931884240e-03,8.339210510797756548e-01,5.518820128361255906e-01
1.384512174526081026e+03,1.500678966193956740e+03,1.598530602002625756e+03,3.298010854175141282e-01,7.976890001299069555e-01,5.048994980480562278e-01
1.372105349384484043e+03,1.463716916199706247e+03,1.502358876239403344e+03,-6.490341481439638321e-03,-3.689006172019801411e-01,-9.294461846150385842e-01
1.518470699566813209e+03,1.447245756847390112e+03,1.503162056184250559e+03,-6.270429149142120462e-02,6.487703882881349360e-01,7.583964366405090418e-01
1.399401720209990117e+03,1.320924349796676324e+03,1.563233955647296852e+03,4.466557837148528269e-07,6.049217819829169063e-01,7.962848973090050908e-01
1.489272410083638761e+03,1.559254026674566603e+03,1.512266894793027859e+03,-1.599559476061017393e-01,-4.146979380064685361e-01,8.957899949422393204e-01
1.329479518990302495e+03,1.359058137966897903e+03,1.588405603141612346e+03,6.165793007442905587e-08,-6.767431540031736414e-01,-7.362191952875400958e-01
1.590824735330377962e+03,1.376302495835494483e+03,1.507971048702846019e+03,1.750473513773036704e-05,7.849542577333473714e-01,-6.195537208022189324e-01
1.394788205499914284e+03,1.480887700563039971e+03,1.735028517526571022e+03,-6.586608468833173857e-01,-2.838514145709110092e-01,-6.968459393790308321e-01
1.551953001282536661e+03,1.497872544574817766e+03,1.591869462410832057e+03,3.041141734710727240e-01,-6.489044785515697411e-01,-6.974507489491439394e-01
1.535446767338865584e+03,1.476250752304914158e+03,1.552601004747361685e+03,-1.224199253676659356e-03,-9.997552177522133210e-01,-2.209085587776180026e-02
1.414163082812239509e+03,1.566938263871685422e+03,1.380462064733944089e+03,1.302318410676287815e-07,9.881180515616676541e-01,-1.536968320361759566e-01
1.492485938926006384e+03,1.500578817993768780e+03,1.524282547714692782e+03,-5.725935770784985462e-09,4.124503738037303413e-01,-9.109800706651947078e-01
1.391290323830018906e+03,1.580422498604686552e+03,1.415047770722357427e+03,1.358190602572303969e-05,-7.775383769765558117e-01,-6.288354889350593613e-01
1.751150365248742901e+03,1.379489519147315605e+03,1.502203280917725579e+03,-9.743644464447794029e-02,1.132901858215553670e-01,9.887727105111473458e-01
1.509201424028872680e+03,1.505780102092163133e+03,1.615964831073267078e+03,-2.079126022542420946e-02,7.280367707108438280e-01,-6.852227258280075839e-01
1.600725359093469024e+03,1.515068695741422289e+03,1.530000956946799079e+03,-1.833452398313076270e-01,5.567389603283932065e-01,8.102013657626480070e-01
1.490853871026610932e+03,1.607522682663328169e+03,1.534740906197673894e+03,1.876431140865735536e-01,-5.498219146765770393e-01,8.139323828656014337e-01
1.429039301605977471e+03,1.424900607189310676e+03,1.470235481636494569e+03,5.694629285576152666e-03,1.247931719773217873e-01,-9.921664353449669571e-01
1.545325223888059782e+03,1.347376459950265144e+03,1.530751162890918522e+03,1.696627906769388738e-01,5.380545856458562870e-01,-8.256584041388903561e-01
1.422001999997500661e+03,1.425569537643970079e+03,1.468104390848110143e+03,1.273315735562648501e-02,2.569408380856021967e-01,9.663432477270306187e-01
1.500727263152734167e+03,1.404630050584377386e+03,1.562109063365300017e+03,4.528292286951923068e-02,8.461110302422076845e-01,5.310796375298746375e-01
1.454180687266893756e+03,1.537781645888067260e+03,1.509956915967498162e+03,2.776133481894505484e-01,2.394878140251949228e-01,-9.303635933550262749e-01
1.430447088220078058e+03,1.497206867200459328e+03,1.625318405102382940e+03,3.128512966305273279e-04,9.862655517960082774e-01,-1.651670774233823524e-01
1.558061287651640214e+03,1.430135986718420554e+03,1.472953630574786303e+03,3.947531621714422956e-01,-4.317030186539206338e-01,-8.110502109245393276e-01
1.666540322315750245e+03,1.391220748554566399e+03,1.523984548385259586e+03,-1.980375787734872661e-01,5.891536324965322979e-01,-7.833767386830400303e-01
1.524423552602860354e+03,1.491279903078407642e+03,1.528033291926428547e+03,-2.319563075529240857e-09,-9.969768250921317021e-01,7.769948667277747079e-02
1.388470959145121924e+03,1.440120538147347588e+03,1.421901486320632785e+03,-4.584482542364032298e-02,-9.927520922188434183e-01,-1.110924631871354623e-01
1.368598094132071765e+03,1.416378678357567196e+03,1.651299437795484664e+03,4.601442252803417676e-01,8.101646740243593214e-01,3.631810745401769513e-01
1.549709894812705215e+03,1.481098670260577137e+03,1.456405031569091307e+03,-1.870248286018974105e-07,5.567575244365515763e-01,-8.306750622134070339e-01
1.508782207016527309e+03,1.395810753983499126e+03,1.412416789773448727e+03,1.214019695893301612e-06,-7.939827908639871534e-01,6.079402337486474739e-01
1.602334331762984675e+03,1.453418730892153008e+03,1.586330210973103476e+03,-6.851389312145986232e-02,-7.451813469827428538e-01,-6.633329530170548605e-01
1.474836049774460434e+03,1.600956658594972851e+03,1.333599505088692467e+03,7.433190616417973962e-01,-5.381964094699762668e-01,-3.972674130023547967e-01
1.361014793339478274e+03,1.480958361096934595e+03,1.463249267347059231e+03,-2.470725234149211968e-01,5.940624374724002843e-01,-7.655357526319287453e-01
1.566100403089215888e+03,1.579902517247870719e+03,1.623549803551499281e+03,-5.799778128429668167e-03,8.060159679396452503e-01,5.918653748953198734e-01
1.442630246373043747e+03,1.637559535109900253e+03,1.540266449126540692e+03,1.684588148610122182e-01,-1.590763399566435810e-01,-9.727879243502263185e-01
1.466374441882198425e+03,1.371207504937372505e+03,1.591076997811946285e+03,-1.340763041142197833e-02,-8.090807749698705198e-01,5.875444962050997422e-01
1.394710569108276104e+03,1.525972087415827900e+03,1.440069393033625147e+03,-2.080108806571939056e-02,-6.893091179134475111e-01,-7.241686645365617014e-01
1.397058194318140977e+03,1.473959361940434519e+03,1.588613591861395662e+03,-9.485032370034754412e-02,9.675433110263141900e-01,-2.342292837844497932e-01
1.593647483383917233e+03,1.496380728085975079e+03,1.462061541204789819e+03,3.917418627098598512e-04,2.439942181097675689e-01,-9.697766073005247289e-01
1.535328279537365461e+03,1.336356807424848057e+03,1.639845104208303383e+03,2.015699414749263133e-05,9.904943410515219815e-02,-9.950825137631275075e-01
1.357846207543495666e+03,1.426567077718400924e+03,1.568053242900542045e+03,4.785228609659722757e-03,6.115620629365011718e-01,7.911819921889048368e-01
1.564014514102808107e+03,1.468730056763883795e+03,1.527154768969847282e+03,-4.318575400660862215e-05,8.926447348898460810e-01,-4.507608849583414345e-01
1.476050868389204879e+03,1.284518165285972145e+03,1.443026692387835055e+03,2.162326479165898804e-03,-6.392846329838065556e-01,-7.689671529883167489e-01
1.645141883516097550e+03,1.231351502673641789e+03,1.599649615485651793e+03,-2.493410267617558185e-01,8.722154894120193180e-01,4.207959035009072868e-01
1.485206048981345702e+03,1.379987520406305066e+03,1.588316912878659423e+03,2.414005364032785830e-02,1.608954560657909483e-01,9.866761930986392981e-01
1.509247608045067636e+03,1.341338573522367824e+03,1.398781203296226067e+03,-3.485819212128151712e-01,-9.140719271426270831e-01,2.072755562369729132e-01
1.492918973475887697e+03,1.327238262087779503e+03,1.500188224703032120e+03,9.787134663684532443e-02,-5.884846036024421467e-01,-8.025628142584024793e-01
1.448023943126860104e+03,1.440453038890177822e+03,1.578579456423844249e+03,8.448135818692875665e-02,-9.964144256947263800e-01,4.603518908472091845e-03
1.393606596301028731e+03,1.476119938055695684e+03,1.407573393741485233e+03,-9.315373484754245644e-05,1.079574151174054891e-01,-9.941555149188430196e-01
1.495591411559312064e+03,1.551450073446218994e+03,1.482045953506906699e+03,-5.203528935765628499e-02,-9.572934314232901531e-01,-2.843969317965430732e-01
1.430771766927629187e+03,1.433791949490576599e+03,1.485370057585809036e+03,1.114689887172187338e-01,9.653146288245588735e-01,-2.360981404663422545e-01
1.561057292626674553e+03,1.585719252476670817e+03,1.460192063060771034e+03,-6.261768430584485623e-01,6.550378498687617901e-01,-4.228805699682414709e-01
1.459303381820505592e+03,1.439641190733590747e+03,1.451004418534627348e+03,-9.270061041041809721e-04,6.919885321583519877e-01,7.219078971870389605e-01
1.565809837068079560e+03,1.439310093793392298e+03,1.456566058159736940e+03,-3.370038430573147128e-03,-1.041925984070550190e-02,-9.999400391350214967e-01
1.431424103090956351e+03,1.515107691759146519e+03,1.398783064170985426e+03,-1.048934078717861235e-01,2.175920111152078174e-01,9.703870823974741766e-01
1.496335541992629032e+03,1.601936642072476616e+03,1.674072033276540424e+03,-3.886625525355251053e-05,9.371229318200521297e-01,-3.489994400373790939e-01
1.429095254516087834e+03,1.490552227772720471e+03,1.672048050901559463e+03,-1.286220128012345110e-03,1.454959004456184146e-01,9.893580184095649432e-01
1.381668750222167546e+03,1.521196448916741929e+03,1.525906199562250094e+03,4.104940880260982212e-06,-3.638858842212273625e-01,-9.314435373374411187e-01
1.448004515813041962e+03,1.502970442650114364e+03,1.614485888624511745e+03,1.552875245979007750e-06,9.891133614401304008e-01,1.471555578909426731e-01
1.429916787622105630e+03,1.495230992738044279e+03,1.555386628293385229e+03,3.986036589890603471e-02,9.901300993777519821e-01,1.343634531284766120e-01
1.463242580635655941e+03,1.394753880128083892e+03,1.585319627952130986e+03,2.304824933467280491e-03,2.225698484322011783e-01,-9.749140220300932524e-01
1.478876386417327922e+03,1.441738966793705913e+03,1.495934591931838440e+03,8.787874931622197128e-03,-4.696914755930660657e-01,-8.827868887842605927e-01
1.532028097427057901e+03,1.415152323397094506e+03,1.529985797835337735e+03,7.337773053609843469e-04,-5.713932304020626907e-01,8.206760858106939560e-01
1.527213705769223225e+03,1.482885910491542290e+03,1.543203577423986417e+03,-3.444079312957643579e-01,-9.212012235071312949e-01,-1.810289553345998392e-01
1.469053278962565628e+03,1.537711862780937281e+03,1.537946971875432382e+03,2.793941475633136551e-01,-6.092503277405395684e-02,9.582416452486552938e-01
1.471991091599400761e+03,1.605537557156408866e+03,1.592559576225903129e+03,2.448826678671283119e-01,-9.691772556061045707e-01,2.698010737742095183e-02
1.471315940777092919e+03,1.456591163126509855e+03,1.709598791788863991e+03,-3.173897621987804699e-05,-6.450025977814454192e-01,-7.641803765131792714e-01
1.538691239048435364e+03,1.580483399861055659e+03,1.651981256128173072e+03,-4.060403519462855194e-07,5.630502444271511253e-01,8.264226656199360477e-01
1.502085617815380601e+03,1.558395834612372482e+03,1.454734729112988589e+03,1.352266140553203162e-02,-7.555927357327307803e-02,9.970496145155418599e-01
1.517107173005919549e+03,1.533436486794955954e+03,1.592834166366674253e+03,-7.523375777883257529e-06,7.344548504264779565e-01,-6.786575518097611726e-01
1.443218641907678148e+03,1.358783254996195865e+03,1.560979199839629928e+03,-3.822137562000704758e-01,-8.775572905268699264e-01,2.894923943984919479e-01
1.513745282007948390e+03,1.400002010607817965e+03,1.456317664443108924e+03,3.816462906950394973e-02,-9.203417598508714104e-01,3.892486431095016353e-01
1.592935478304207436e+03,1.436097885467773949e+03,1.520996423782189595e+03,-4.928942692798780195e-02,-8.879062666839407925e-01,4.573762280404361502e-01
1.403040437130836608e+03,1.518451047770656714e+03,1.553114515810091234e+03,4.465241199732731197e-05,-9.104548961228988713e-01,4.136083656455747937e-01
1.542070792939068951e+03,1.499808317296905216e+03,1.445776734472100998e+03,5.349595407868308252e-06,5.650971098001317250e-01,8.250243974979890593e-01
1.433823296491894325e+03,1.485857549680018337e+03,1.529916259139638896e+03,-8.550544741970092759e-07,8.081990815850238485e-01,5.889093686845140452e-01
1.507783467589358906e+03,1.503925249675911118e+03,1.534178615414373553e+03,-1.486913231621467442e-02,8.918522174481433584e-01,4.520824384301968535e-01
1.417817271685721835e+03,1.555963659986914536e+03,1.467908790581499488e+03,3.352541382297853645e-02,-7.045769358023826201e-02,-9.969512325301330691e-01
1.574254175696609764e+03,1.407934523240020553e+03,1.424360091871096074e+03,-9.510027713194021959e-02,-8.977984001592947960e-01,-4.300162438336938564e-01
1.556417687815522186e+03,1.372934334503321224e+03,1.456749815900912154e+03,7.236801484715050803e-01,5.384459740579629061e-01,-4.316977828632340142e-01
1.552078380008834756e+03,1.323598077796689040e+03,1.576899149402139301e+03,2.384572185992410789e-02,2.273313463423601022e-01,-9.735254698872285450e-01
1.779638422957710873e+03,1.430116301998139079e+03,1.464288821981198453e+03,2.070088018250167416e-01,8.945709941879107507e-01,3.960935398673195995e-01
1.538033512825449634e+03,1.380088078762623809e+03,1.517615049822790979e+03,-6.806365566874453613e-03,2.075497662339153282e-01,9.782007809872251825e-01
1.524136229332622861e+03,1.471535830122810012e+03,1.521221301761920358e+03,1.248458505105359828e-02,-6.594709281569939296e-01,-7.516263899384161284e-01
1.548231452694259588e+03,1.481777402221452348e+03,1.484490182580082319e+03,3.035838704312377931e-07,-6.594817754907686957e-01,7.517205516649463348e-01
1.556942738875854275e+03,1.433145458677298393e+03,1.447346243313486411e+03,-2.480467450611897606e-01,4.340920589580696265e-01,8.660467057925299583e-01
1.412311858702629934e+03,1.494584734539556621e+03,1.436812371303034979e+03,4.899094491224521885e-04,4.694165708774746260e-01,8.829766944684126484e-01
1.528640967998805991e+03,1.544904745671843784e+03,1.414484433539451629e+03,-6.788359339805082326e-01,2.667362671625296278e-01,-6.841297673080821706e-01
1.737025664037664910e+03,1.501588737898294767e+03,1.415035903137449168e+03,-1.832803303030378361e-01,6.542641414546843115e-02,9.808810859916073932e-01
1.471740320497065795e+03,1.547597227875297222e+03,1.715100355288085666e+03,-1.727996895833517621e-01,-3.623699290558901609e-01,-9.158757021539147836e-01
1.503098411291864522e+03,1.462831983364540974e+03,1.581546373056663924e+03,-2.967289874865497163e-07,-9.136035512456128771e-01,4.066061376213064293e-01
1.414350235577500825e+03,1.368429697358813883e+03,1.592268894672324905e+03,3.596179966014903528e-01,8.514606084182595458e-01,3.816932391755685772e-01
1.584158813819828538e+03,1.522891381582428039e+03,1.539100322213348591e+03,6.000236419024871509e-02,-9.844120741652656603e-01,-1.653256922841105092e-01
1.557886289700038560e+03,1.440731551579785219e+03,1.563132694010080058e+03,-3.806284557309843608e-01,8.260634083349934764e-01,4.156214913810640232e-01
1.398125378008011467e+03,1.418450618733680130e+03,1.547104967083030488e+03,-3.702027902088834144e-01,6.448799483192428905e-01,6.686402219260578761e-01
1.597354245586933075e+03,1.388167276161625068e+03,1.499953541784384697e+03,9.192664495298677463e-02,-4.847956352012902093e-01,-8.697831247141238897e-01
1.439033199896161932e+03,1.546813355568930092e+03,1.466210121777649647e+03,1.174295165140893799e-01,-7.762219289575296166e-01,-6.194270139868933711e-01
1.551558298040839873e+03,1.488338722557857636e+03,1.368152906163992611e+03,-1.553874754850476624e-02,6.461223174729362473e-01,-7.630756831324309042e-01
1.421378386395060261e+03,1.478037686678725095e+03,1.580021765862532220e+03,8.805418857221300097e-05,-6.350857889129715161e-01,-7.724416048914303223e-01
1.547205600297505043e+03,1.420865965398344088e+03,1.419902080098428542e+03,4.779114467069716516e-10,-7.093882436806202563e-01,-7.048179337443994941e-01
1.635135320285348826e+03,1.466240435210810801e+03,1.426073810214348669e+03,-7.704881594576307472e-05,2.775044974030765541e-02,-9.996148791423078439e-01
1.482599689740817439e+03,1.655079409297909933e+03,1.431073326405948364e+03,1.415524723750587469e-09,5.043779131711947361e-01,8.634830170333813726e-01
1.562277746853541203e+03,1.229360684764868665e+03,1.557536022752089593e+03,-7.273953409838512573e-14,9.993785662353360522e-01,-3.524884890892061168e-02
1.449534339798034580e+03,1.478606904831127167e+03,1.484605321462199754e+03,-2.201948839078539295e-06,9.315217677108584837e-01,3.636855733679694724e-01
1.639317937461662495e+03,1.447638113371823920e+03,1.458964604714213237e+03,2.542588380109192928e-06,-4.704213403580291275e-01,8.824419315339058212e-01
1.427981813603498949e+03,1.553114478210162815e+03,1.507790270659113048e+03,2.443816980588400453e-02,-1.612993728595781273e-01,-9.866029029815620577e-01
1.497430477684934885e+03,1.562722409051708837e+03,1.570956925538514270e+03,2.357728632023014803e-01,-6.166308570995306104e-02,9.698498960344924535e-01
1.543660752177676159e+03,1.553021324077987856e+03,1.610183854669941184e+03,-8.509261172161117215e-02,7.255530517837610605e-01,-6.828850682784520787e-01
1.600601006429209065e+03,1.418918321898821205e+03,1.459737590330642888e+03,1.512400659401857278e-02,9.624860037010689595e-01,-2.709094998409801724e-01
1.454318890521218236e+03,1.450754925007610154e+03,1.601941666234624790e+03,1.734242196684781514e-03,3.835017301631062914e-01,9.235385294430911163e-01
1.568529433051758588e+03,1.216469754461022148e+03,1.482808418183277126e+03,4.118539711400852343e-02,-4.868366412144848332e-01,8.725215457715416179e-01
1.550087790261296050e+03,1.499676018860087424e+03,1.603048902742478504e+03,5.155852135614137426e-05,9.991449277080218794e-01,4.134502118817405536e-02
1.448380444874373097e+03,1.444828216229080226e+03,1.542639852076897114e+03,-2.966990081400935897e-01,-6.189580575249817862e-01,-7.272280396090252674e-01
1.449549545027724662e+03,1.406464033049646559e+03,1.555726372091427493e+03,2.214487671038443614e-02,-3.756924377075292476e-01,-9.264797875209453970e-01
1.457358796350519924e+03,1.435679040757228904e+03,1.494569679154852565e+03,5.933496252196511500e-02,-9.270834644095844457e-01,3.701291831791162501e-01
1.484326394148283725e+03,1.601859898914069163e+03,1.471125964784484495e+03,-9.775393377703814682e-03,-9.751171103687977793e-01,-2.214747451749681240e-01
1.428553710564576249e+03,1.636767639540346863e+03,1.564376450951682727e+03,5.663698872259414487e-05,-1.895525220763562002e-01,-9.818705811698118513e-01
1.532974899912068622e+03,1.448348062544802588e+03,1.624072448536916454e+03,-1.962299066748789123e-01,7.204965464819984566e-01,-6.651154412836028929e-01
1.422192786788620879e+03,1.501652575588697573e+03,1.538707072076316763e+03,5.206697984300631365e-08,-8.258043158273337125e-01,-5.639567642656186930e-01
1.564260588640094284e+03,1.340043210026090492e+03,1.416980784841287914e+03,-9.389573194845063364e-02,-6.901006145819413851e-01,-7.175964975356913245e-01
1.460510451695203074e+03,1.510718452848948118e+03,1.547825542737463820e+03,2.717901047025811020e-02,-9.101185590224519784e-01,4.134555718729077678e-01
1.553869262806708548e+03,1.353268793564234784e+03,1.703762514670376731e+03,-3.040045177977296969e-07,-9.964631833892015900e-01,-8.403049535594805941e-02
1.548923130247187373e+03,1.395646130184657522e+03,1.488125848636048659e+03,4.014736672537715058e-05,-9.997506336742172373e-01,2.233089465718000183e-02
1.476584783537328576e+03,1.413292923902897883e+03,1.501370825298864247e+03,-1.798341068941305097e-03,-8.858267331795174337e-01,4.640126773633495572e-01
1.531994208934137987e+03,1.605634908363640307e+03,1.587507213118979053e+03,-9.996980295258857609e-08,-4.132948957033162340e-01,-9.105972376333979490e-01
1.482018224693010097e+03,1.506245077701215450e+03,1.644644597423345886e+03,-1.548792841991428887e-02,-5.398622169172417884e-01,-8.416109022692497277e-01
1.564021618133315769e+03,1.345194952643234728e+03,1.452997723016326063e+03,-1.421846289865093087e-02,-9.894092495181706637e-01,1.444547412883708248e-01
1.518658653851228337e+03,1.410868527801777191e+03,1.548745455128323783e+03,-2.884807103693608104e-06,6.377125548712757608e-01,7.702744298957535651e-01
1.608629596899964326e+03,1.545331564586439299e+03,1.320525086946552392e+03,7.335394716757681621e-02,8.886606015381718349e-01,-4.526605060183084839e-01
1.446099496832398700e+03,1.414774085279483415e+03,1.651208453106845582e+03,5.086073690299422288e-06,9.955819675600021679e-01,9.389646342374478871e-02
1.445584340543284043e+03,1.441904459678763487e+03,1.395521130437546844e+03,-2.101424393813693808e-02,-4.991565279296867330e-01,8.662569839123309690e-01
1.436391837473666101e+03,1.531823605267357379e+03,1.484894995478151259e+03,-3.433218535515088904e-03,-9.629068404903265987e-01,-2.698122116351002187e-01
1.459492777701753766e+03,1.197253725922080775e+03,1.537194332981782281e+03,2.420087877282412619e-02,6.983514836373957424e-01,7.153457365274997759e-01
1.482796848011131942e+03,1.500691350269110444e+03,1.525644124364906020e+03,-1.040926633799846811e-02,2.246190355263104899e-01,-9.743910590997511001e-01
1.371930003345671366e+03,1.511017628866015002e+03,1.510597835805983323e+03,-2.098557453881460810e-01,-3.537002181688060631e-02,-9.770923844162633376e-01
1.477347455004542326e+03,1.363336019232790932e+03,1.557481045551130364e+03,-1.188785847216762555e-05,-9.760516174522739785e-01,-2.175390537983434569e-01
1.537413790954827391e+03,1.559126301582681663e+03,1.535559968403278390e+03,2.696506940889669135e-01,-6.328118590561586654e-01,-7.258358314489763430e-01
1.478098159224982510e+03,1.407633828635353439e+03,1.531216282911636881e+03,6.767997777368234442e-03,2.154268032401933930e-01,9.764965369379435822e-01
1.479366794597082389e+03,1.587359591143138687e+03,1.568503390078901020e+03,-7.293296422521174105e-02,-7.822781924712058910e-01,6.186449808357834534e-01
1.602631629565542198e+03,1.433895286257759381e+03,1.461314732293795487e+03,1.731452144538427607e-01,3.145437082406452589e-01,-9.333182685011349733e-01
1.541761329230221463e+03,1.486886347867726045e+03,1.564340213388026768e+03,5.715219469210285341e-01,5.910182790059052005e-01,5.692627320214236342e-01
1.513202119718140239e+03,1.568939959643053044e+03,1.465076266520324907e+03,-3.244212480401902646e-05,-3.298131659156593454e-01,9.440462247878534940e-01
1.479593887407063448e+03,1.228452501591868440e+03,1.526006278318142904e+03,-5.535040454859458947e-01,4.756234890707585206e-01,6.836779711785732072e-01
1.530397324962487346e+03,1.375043888478512599e+03,1.561415360087857380e+03,7.264696536883702427e-02,6.760061504101121388e-01,-7.333062818702700270e-01
1.546953538602685057e+03,1.462457644488882806e+03,1.475765167267883498e+03,-1.794299417524434754e-06,-3.914662955079983853e-01,9.201924469794484640e-01
1.442518106031147909e+03,1.570510061605542660e+03,1.512942857062240819e+03,-9.324975486157244253e-01,3.436805575636033283e-01,1.110495212886369598e-01
1.468578873622341007e+03,1.418631516479244056e+03,1.462599370138067570e+03,-8.433406761808655283e-02,4.449268382899166374e-01,-8.915872776169063707e-01
1.441729071475033606e+03,1.570256646595547863e+03,1.524416946578301577e+03,1.130511275971689679e-04,-5.700854849307795957e-01,-8.215853741947215516e-01
1.525486490192196698e+03,1.591074872886990079e+03,1.406369674862940201e+03,-2.678330268364997768e-07,-8.249378613311528774e-01,5.652234292227382717e-01
1.420896245375071430e+03,1.548004787015728652e+03,1.337573680996225448e+03,1.543424034200419915e-06,-9.450973052856929124e-01,-3.267890505193518647e-01
1.576286267278423793e+03,1.400337735468033316e+03,1.590657550491040411e+03,-2.974148210783855717e-01,7.093225343697561192e-01,6.390664804526818843e-01
1.393803169555352270e+03,1.393899567541393708e+03,1.596752099320887510e+03,-3.118565228923426051e-09,8.831086457177695914e-01,-4.691685409940939966e-01
1.530134077999402962e+03,1.619443137346495178e+03,1.490942461262437973e+03,-1.386782846709247886e-04,7.276682094849268312e-01,-6.859292657944652261e-01
1.521918883886669391e+03,1.384896828136224713e+03,1.531696064270671741e+03,-6.209927479471218786e-02,7.499472903281656500e-01,6.585762991479521267e-01
1.500261272520253442e+03,1.474952447918077496e+03,1.446144054137609601e+03,1.916537673951860686e-05,3.980098298604566320e-01,9.173811503225575148e-01
1.495878038495986402e+03,1.530930042582832812e+03,1.632126499494441759e+03,7.465467099271287654e-02,-5.480374852107691153e-01,-8.331155951624156231e-01
1.468129610490494542e+03,1.438460908325601167e+03,1.449610620094216301e+03,-4.415713268288426474e-02,-6.005407102572467570e-01,-7.983739743735061012e-01
1.565791635089723968e+03,1.328779321391035865e+03,1.505302171290066553e+03,-3.316331076623799112e-01,-6.226860199370845006e-01,-7.087182814610507586e-01
1.393388676530800922e+03,1.470190529684403600e+03,1.538212278300311027e+03,4.152808367413097254e-04,-5.941532271969029999e-01,-8.043517701561501143e-01
1.478843400683689424e+03,1.598312171222295319e+03,1.711225447566128423e+03,2.336526399742133990e-06,-8.970979769057126907e-01,-4.418316645807745524e-01
1.410946440375594193e+03,1.484459560563109108e+03,1.513281292439015488e+03,3.089096228227454781e-04,-5.659251824735911374e-02,-9.983973114212935096e-01
1.515373841512576064e+03,1.388350616182842032e+03,1.599904115769786586e+03,2.306296104264552171e-01,-3.156114881053561083e-01,-9.204343384351021395e-01
1.645898841872876801e+03,1.360802957913904265e+03,1.503137706416569472e+03,-2.102992482756068455e-06,-7.093696020259677715e-01,-7.048366957793112952e-01
1.499796884002251772e+03,1.491841192136033442e+03,1.445749380095190645e+03,-3.398998691254945075e-03,-8.046762386032914049e-01,-5.937041332474920496e-01
1.594139101163790656e+03,1.502606399420958724e+03,1.575080644136994124e+03,7.323383634801179654e-02,-9.210895584889745580e-01,3.824013996526928194e-01
1.513898066445982749e+03,1.581796468178241867e+03,1.427319521839548543e+03,-6.207572375971669443e-01,-7.333087036337411213e-01,2.773423825269709653e-01
1.353806304980254936e+03,1.355853987054461186e+03,1.482999136980226240e+03,3.188254012156225420e-03,-6.593257036680328920e-01,-7.518506843243591975e-01
1.529477199941865820e+03,1.415170794107985103e+03,1.492796043245810097e+03,1.771349737130321412e-09,-6.789466844238746246e-01,-7.341875780138394925e-01
1.490757004753654883e+03,1.504856921158292153e+03,1.502600923155523105e+03,-1.973490085552057072e-02,6.175822105905283133e-01,-7.862587022414055937e-01
1.493664368684304918e+03,1.375664674914577290e+03,1.570090435331212802e+03,-8.028445015969913265e-03,7.022205394774976295e-01,-7.119142209610352934e-01
1.432624313517811743e+03,1.502139709863771714e+03,1.351332107158761119e+03,-2.263150755652684754e-02,8.689503628783079581e-01,-4.943815143382445099e-01
1.453158232296945698e+03,1.509864204129606605e+03,1.635118468833876705e+03,5.665883223783753087e-01,1.982173326013867698e-01,-7.998047024123136062e-01
1.417746587214325700e+03,1.590206975527097711e+03,1.502330735688678487e+03,-3.032173714191072154e-03,-4.850454132993270995e-01,8.744837065147937905e-01
1.689563150861787790e+03,1.396943706428061660e+03,1.497847673167718540e+03,1.759143912964469337e-03,9.407251997262714438e-01,-3.391651574272632752e-01
1.451097528912203188e+03,1.498996839815943986e+03,1.466279211812072617e+03,3.543210292437662614e-08,9.474661842523698363e-01,3.198559514816837202e-01
1.591492002483310443e+03,1.461252399212228511e+03,1.582144087885357749e+03,-1.017736362591215582e-01,-6.377112551874125623e-02,-9.927614872227210618e-01
1.412213760274946480e+03,1.459478670950487185e+03,1.538490341242270460e+03,1.970239078509013349e-04,7.931035648299189500e-01,6.090867726651550962e-01
1.518305833624933484e+03,1.561379571520969648e+03,1.643250242536226096e+03,-3.857318084336500662e-03,5.959245576333442873e-01,8.030311592377341601e-01
1.352578267070982065e+03,1.480318805949460284e+03,1.411805411452080079e+03,-9.562379869808668859e-03,-3.158330057844739858e-01,9.487666063623708679e-01
1.562473253856061319e+03,1.321666023806876410e+03,1.456486635849298636e+03,9.507200340571994823e-12,4.187134843311517973e-01,9.081183942852750768e-01
1.519469278677784814e+03,1.477058215343423853e+03,1.393994458418576642e+03,1.965823343201851536e-02,2.232621918569157871e-01,-9.745601815924853639e-01
1.555750364348353060e+03,1.483708642053156836e+03,1.530629359467214954e+03,-7.959605836043334715e-02,-6.165871092375703189e-01,7.832527077613835598e-01
1.463223191629065241e+03,1.417428977788647899e+03,1.539323152616742163e+03,-1.876348966353297010e-01,4.613670270417330466e-01,8.671410565319357389e-01
1.479933683580696879e+03,1.349137910586997577e+03,1.505042941125746211e+03,6.681564904549533066e-05,9.116313310878869647e-01,-4.110088949336700992e-01
1.423417027335187186e+03,1.561670861482361488e+03,1.544978831032839025e+03,-4.083781501626214672e-01,2.807552859185144176e-02,9.123809791770342015e-01
1.561523731378800676e+03,1.153022417311522531e+03,1.520200288630825526e+03,1.684633787879322381e-03,7.570986151368246375e-01,6.532984379033085487e-01
1.418403821803686924e+03,1.379292298190280007e+03,1.658415490855174767e+03,-2.894939901433291067e-08,-2.448326854263288901e-02,-9.997002398526613209e-01
1.584979929574329390e+03,1.407070008803504379e+03,1.553856979284187446e+03,6.731048855615325843e-01,-9.634150621367221223e-02,7.332449298929226700e-01
1.470521256386141431e+03,1.405417341973283101e+03,1.584616808327171384e+03,-4.928612312318230576e-02,6.014196358880850024e-01,-7.974116249690178515e-01
1.465639935774524474e+03,1.469929441800058157e+03,1.513280958115160274e+03,7.490083084399376216e-08,4.565065390820313151e-01,8.897200569703598294e-01
1.310626015084078063e+03,1.490414678490144524e+03,1.518856955968240300e+03,-1.711663432115652916e-01,-3.564169254862495362e-02,-9.845972540606894308e-01
1.550233519385400086e+03,1.580718161738638628e+03,1.481540266903997463e+03,3.878919274389514560e-01,-6.965953780307853060e-01,-6.035683324478202660e-01
1.475044404614101722e+03,1.494061036773256774e+03,1.559909663108578798e+03,1.159678634274466152e-04,9.951523904440039425e-01,-9.834483385028031099e-02
1.492933642375529644e+03,1.546239673411561398e+03,1.470921818320159218e+03,-1.148308976677169923e-03,-8.303897129054369497e-01,5.571818429268133865e-01
1.436599751525730881e+03,1.385720095565831116e+03,1.506656399318977492e+03,-4.324551703220497809e-06,9.404633110503908267e-01,3.398952199567304988e-01
1.506033783522258091e+03,1.571227018962146531e+03,1.542534685503637547e+03,-1.655969794004326663e-06,6.455790245655960158e-01,-7.636934745290097082e-01
1.683940197894857874e+03,1.422241079877739139e+03,1.477234473576468645e+03,1.223313710185650605e-01,4.715331996053316321e-01,8.733220925492933828e-01
1.511843115922345760e+03,1.356860287730105711e+03,1.570349213999408676e+03,2.708858896243592773e-01,3.674495205086609761e-01,8.897200035294107190e-01
1.579960157326084072e+03,1.634600025877484995e+03,1.522415788289179318e+03,-1.920076417526931922e-01,7.357597617454707528e-01,-6.494541080821780721e-01
1.518630906456686262e+03,1.563143234208750300e+03,1.423433818066315780e+03,1.275851091784691548e-04,-5.635911235680453324e-02,9.984105539187739797e-01
1.549544935048050320e+03,1.387019829942398474e+03,1.565561390788574045e+03,5.570942534252277568e-03,-4.060334676204429005e-01,9.138412267847182413e-01
1.491779919068068239e+03,1.498947628117804015e+03,1.521947521280769934e+03,1.235491365144333539e-02,-7.406772141279067689e-01,-6.717474380899329800e-01
1.507987463706058406e+03,1.585467729186314273e+03,1.439456533150914083e+03,1.091535608008661375e-02,-7.763679349773035254e-02,9.969219544663642241e-01
1.474104487056672497e+03,1.467574052117646261e+03,1.570047086095792565e+03,2.909428667748862885e-01,9.436783116804053906e-01,1.575547280687910612e-01
1.611518872121058848e+03,1.244575909117440006e+03,1.512844662283448542e+03,-2.491509725377563829e-03,-2.025898558241378267e-01,-9.792605080857919031e-01
1.420480527804906387e+03,1.486947985679491012e+03,1.467283529887064333e+03,-5.793513491309981722e-02,3.029553848136258831e-01,9.512421116387924647e-01
1.447571799047851982e+03,1.449423838196910538e+03,1.472520667203564926e+03,-6.631667667112923989e-06,9.671850987246881637e-01,-2.540727942164138220e-01
1.488209804549343517e+03,1.421834091335812900e+03,1.441825247735205721e+03,1.612092993970806742e-01,-9.051446831230360868e-01,3.933505617156292100e-01
1.415268198288222266e+03,1.516706737442495296e+03,1.638376547181512706e+03,-2.203026958913714972e-01,4.233823823226186001e-01,8.787571226009027736e-01
1.556308617850571636e+03,1.622735910147152936e+03,1.548610928874534466e+03,-2.222102663897889731e-04,-7.439913465718135388e-01,6.681892148552363020e-01
1.559459149243943330e+03,1.428836879173739362e+03,1.499875167864583318e+03,-6.237649268740853847e-02,-5.942724536770991328e-01,8.018412710509591479e-01
1.537717229549578178e+03,1.423901152988093827e+03,1.493831650788526986e+03,1.153710693878289700e-02,6.530424657668540966e-01,7.572334072587066922e-01
1.551076476027606077e+03,1.470590058798310110e+03,1.548543720346089458e+03,-1.305969166543587828e-02,3.289056103590452806e-02,-9.993736315554594407e-01
1.547551254375682447e+03,1.447847311632585388e+03,1.440272667583069733e+03,-6.140264511292767291e-02,-7.010058758768021869e-01,-7.105071971200103143e-01
1.760511408196902721e+03,1.401904548688985869e+03,1.495803959656958341e+03,-8.520675189920466576e-06,-6.452037603028232260e-01,-7.640105415624153240e-01
1.404877874509625599e+03,1.508478488586413732e+03,1.528129654526690729e+03,9.526572140639263443e-05,-9.381310264074178562e-01,-3.462804762273021253e-01
1.518368119706786956e+03,1.421636035530533945e+03,1.589020554981166697e+03,-6.306168951942509038e-01,-2.653517431507440572e-01,-7.293221400056526527e-01
1.434678702109998994e+03,1.546413663128083499e+03,1.535240628108525470e+03,1.004429243750342313e-05,-4.432617606256362697e-01,8.963922196595490721e-01
1.588812910319425782e+03,1.340123330054792177e+03,1.437435079528772803e+03,-7.103078990749229701e-03,1.407330572045648598e-01,-9.900220971668803882e-01
1.727877490384089242e+03,1.386391768906067227e+03,1.723519067757837547e+03,4.408406589689290583e-03,-5.729404696038069567e-01,8.195851293438095597e-01
1.476342212829886876e+03,1.354888401932313172e+03,1.594560340150037746e+03,-3.171333224862834654e-03,-8.077762548630299522e-01,5.894806737502377159e-01
1.509554984507560448e+03,1.518920556857393422e+03,1.543658370991451193e+03,1.649575538128601881e-05,-3.600809394364494209e-01,-9.329210667481221408e-01
1.515268424663017868e+03,1.415280619309986832e+03,1.582440291470049260e+03,-1.711207184194234732e-01,9.269123429898498134e-01,-3.339928264808805225e-01
1.620527546171251515e+03,1.460396239174135644e+03,1.523220493423823655e+03,7.616714556259877866e-02,7.786898381775286815e-01,6.227685780897268542e-01
1.586873084235967781e+03,1.374576671860816987e+03,1.510644179220340220e+03,-4.767601680326529562e-06,1.408958034309606977e-01,9.900244302807956753e-01
1.493355330881487362e+03,1.476088239701246493e+03,1.398714336673764819e+03,3.496287192068924942e-04,6.896883620900051692e-01,-7.241062359608322341e-01
1.514838228247834650e+03,1.326045706818595136e+03,1.385290673456199102e+03,2.333124546873209179e-02,-4.651921561991914644e-01,-8.849022040856406868e-01
1.623354133132109382e+03,1.458249995881732957e+03,1.439060950108204679e+03,1.260362287420035109e-02,9.991354234040970006e-01,-3.961760201679016824e-02
1.406634350738158901e+03,1.410805435874110799e+03,1.582248651311791036e+03,-4.394209587498413248e-03,3.173131367635174671e-01,9.483106369536293823e-01
1.500795666368329194e+03,1.496082187691567242e+03,1.596136610156063171e+03,6.007980280210803992e-01,7.833397637433163752e-01,-1.594382139405303711e-01
1.643436407263530100e+03,1.356519296103728720e+03,1.478689314017674178e+03,4.681803667477905107e-01,8.212816400645158721e-01,-3.260423467662496577e-01
1.577081188626124231e+03,1.554363669419390817e+03,1.640134813765818080e+03,9.696140794427731135e-01,2.353597221811016826e-01,-6.674082799290352586e-02
1.420167132757588206e+03,1.499263550450370303e+03,1.457907067890611643e+03,-1.125379511792094639e-01,9.914036052870222049e-01,-6.673905129892310217e-02
1.568887473126924988e+03,1.408254798097688081e+03,1.565473110870584605e+03,-1.731877655324212117e-01,-6.863122732762599876e-02,-9.824946577490336619e-01
1.547407525254584698e+03,1.576680414955461174e+03,1.572280278982045957e+03,-2.201638111144595122e-01,7.960381206715921865e-02,-9.722094061363184547e-01
1.618984565075355704e+03,1.426165728021395125e+03,1.544478137782921067e+03,-1.207629817419502522e-03,7.912596791352192183e-01,6.114790771604978747e-01
1.386256253652401256e+03,1.419410227387432542e+03,1.466780169453367762e+03,5.656112628473369874e-06,8.932406982739569123e-01,4.495787527397866468e-01
1.438526805677128095e+03,1.589991207628278289e+03,1.600824376085483891e+03,-2.093310048826029876e-05,3.790799326241377498e-01,9.253639307015832927e-01
1.491061420285396252e+03,1.478433204145341506e+03,1.511066791885734347e+03,5.827725236644866469e-02,4.171223866971519589e-01,9.069799757286204356e-01
1.492884896411750105e+03,1.463075982017601291e+03,1.652801520206472333e+03,4.787722513911752964e-01,5.673379309456447750e-01,6.700035846233511894e-01
1.369404615767260566e+03,1.414107681834322420e+03,1.718849373322256497e+03,-1.127658914058958170e-02,6.359266030646576473e-02,-9.979122266474645953e-01
1.467179832198237818e+03,1.476790676829887161e+03,1.519059537873361933e+03,9.929934770756904537e-06,6.372186510029080875e-01,7.706830676195179919e-01
1.436685482250152063e+03,1.411337483436194589e+03,1.516157836854912375e+03,-8.540920327518303824e-11,-7.491657291216174963e-01,6.623826011525930646e-01
1.598032357648141669e+03,1.322833675991340669e+03,1.423773512205196539e+03,4.566049425109972720e-02,9.135796419617876474e-01,4.040883035398539214e-01
1.614564459979116236e+03,1.565332296234170599e+03,1.527998211730789080e+03,-9.259933322341800110e-01,2.140313252248631226e-01,3.110095504648187070e-01
1.518435273592232534e+03,1.521022221819747529e+03,1.446110031175392351e+03,1.085933446962739773e-01,7.770262282457683911e-01,-6.200304235324516355e-01
1.478376603350807727e+03,1.449192902330360994e+03,1.539481931152684638e+03,8.046178821593636954e-01,-5.825851417411255229e-01,-1.148242845910789622e-01
1.481305828951229159e+03,1.448698908697607067e+03,1.541644144169210676e+03,6.609696956600237365e-03,4.541546560440508362e-02,9.989463185727635031e-01
1.431202767581432681e+03,1.451535577486255534e+03,1.572433624836866102e+03,-3.088843354048489065e-04,-9.219006556808462260e-01,3.874262325213580493e-01
1.527077205754598481e+03,1.588493681941971317e+03,1.387623436376452219e+03,1.402280495448938276e-03,8.486825819647936253e-01,5.289006605015572626e-01
1.501909020550115429e+03,1.431416007504513573e+03,1.543476032927778533e+03,3.225206346444475097e-02,-1.057128468766145440e-01,9.938735324011435113e-01
1.462998027599965781e+03,1.368613294601752159e+03,1.597823717770267876e+03,-8.879359420501107136e-12,-8.413769643212269944e-01,5.404487060855976965e-01
1.475746532666630856e+03,1.386600913300392676e+03,1.380470933242877663e+03,5.123404191792845647e-02,7.929400326708978541e-01,-6.071418100712776544e-01
1.521622212870825933e+03,1.472047134231231212e+03,1.561544390025890380e+03,-1.107784444926240286e-01,9.553435807540745506e-01,-2.739466717223952297e-01
1.500581841652125377e+03,1.545629376055987905e+03,1.470418521283729206e+03,3.653023528810189213e-01,3.910731150961406222e-01,-8.447579591981316804e-01
1.387501749344357677e+03,1.512789087513530376e+03,1.668530506371931097e+03,2.380112557770175941e-01,9.604687760182024636e-01,-1.443965803526641167e-01
1.475779413202801607e+03,1.621069810025165452e+03,1.557990694368379309e+03,4.548730876187958249e-06,-9.366298621241062605e-01,3.503205694170508089e-01
1.437541726601817800e+03,1.416814918937935317e+03,1.497132514538910073e+03,-5.819191263175473201e-04,9.729702763577215974e-01,-2.309296487991730484e-01
1.407825356724431003e+03,1.628127466007896601e+03,1.532635728973338018e+03,-5.961176557297859918e-02,-4.841850525072726175e-01,8.729325703247656776e-01
1.628092292243185284e+03,1.441193925542354464e+03,1.633798598163000861e+03,9.195858015205896629e-01,8.741813038796902857e-02,-3.830404993224694188e-01
1.522006904074967451e+03,1.584671966907475053e+03,1.503965210821804476e+03,3.820957246402192919e-02,4.310813285937146189e-01,-9.015036975575833056e-01
1.483365080545457886e+03,1.463122457114594908e+03,1.582367466012465002e+03,-4.743971604088731608e-07,-7.690088351058589344e-01,6.392381493065826259e-01
1.477400389094897264e+03,1.327325532605781063e+03,1.569961853750875434e+03,7.458676114006325035e-13,8.838237617263710044e-01,4.678200062073521459e-01
1.512000248055579959e+03,1.256887608310881433e+03,1.510534862073921204e+03,3.452863209934024477e-12,-7.216175718198267752e-01,6.922919037810981724e-01
1.526357476579809600e+03,1.417881548368175118e+03,1.588895645097445140e+03,7.584495772420491999e-01,5.035104464275848013e-01,4.138012434969851050e-01
1.400088753206336605e+03,1.507615036465045478e+03,1.540998713565860953e+03,-1.557340688723948818e-02,-8.878477767006167642e-01,4.598736722249885944e-01
1.663912146519849557e+03,1.422968765490840724e+03,1.399516213804745576e+03,2.402974273718301926e-02,3.019239322871672404e-01,9.530291236768364538e-01
1.653051588805158190e+03,1.525868461279104167e+03,1.521467821109189572e+03,-5.056493335864311600e-01,4.492230215010428740e-02,-8.615687658063821974e-01
1.483404239669293702e+03,1.390903272180282784e+03,1.556731037949523625e+03,-9.347608917636095471e-01,7.289225230276094591e-02,3.477194196238284629e-01
1.531997378739623855e+03,1.384961424771494649e+03,1.558208333275966197e+03,9.008476280601663503e-05,9.718289239586432871e-01,-2.356873658941461835e-01
1.581622506432498085e+03,1.315671092537539153e+03,1.532645740611297242e+03,1.499676539591089652e-01,-3.107417793794981509e-01,9.385889671810895285e-01
1.525036571894338977e+03,1.435677026758402235e+03,1.476234287240097728e+03,-8.686403338231027393e-02,-8.984770500492768042e-01,-4.303412950662605652e-01
1.575197797447093990e+03,1.486535320888260912e+03,1.572835222688949443e+03,5.398403949642265748e-02,-4.135338280522499882e-02,-9.976851312965495655e-01
1.558947075355301877e+03,1.523198033665110188e+03,1.425011149591578942e+03,-6.718819015252384823e-09,5.555675561091549808e-01,-8.314714009506887216e-01
1.371084020150811284e+03,1.646492737143534441e+03,1.414412047721449426e+03,8.938445324954334793e-07,-6.786431283221522337e-01,7.344681779221778894e-01
1.481427986570586427e+03,1.486602943716420896e+03,1.425000661208425299e+03,7.188027074397484312e-03,-5.845109342042721368e-01,8.113539918324349509e-01
1.531177139002552849e+03,1.368583497442809858e+03,1.538208211889569156e+03,2.892815111772688644e-02,5.846284218140288536e-01,8.107852801328770953e-01
1.515975952328254380e+03,1.562438570817298569e+03,1.471973132995057313e+03,-1.447549346258124040e-09,7.973534829964817883e-01,-6.035125708329357463e-01
1.490305834272477341e+03,1.477245122727587841e+03,1.396811176778783192e+03,-1.514050153353745731e-05,9.881833992047333037e-01,-1.532761211244075272e-01
1.420385046871957456e+03,1.463610251835370946e+03,1.504208895137172249e+03,-7.299454192386723994e-01,3.595899183453759029e-01,5.812699678779601475e-01
1.481666980634074662e+03,1.558929874783364767e+03,1.580817134003386627e+03,-8.319748522095693792e-04,6.327160317552890101e-01,7.743834521589969544e-01
1.632524233795036935e+03,1.410046513159691358e+03,1.580003680439406253e+03,1.180357365966867023e-01,5.824275617910467107e-01,8.042671820683807704e-01
1.415975815492191714e+03,1.462796934262911918e+03,1.551061543034041051e+03,-1.020184050683691267e-06,7.011382168785671443e-01,-7.130253858252891819e-01
1.466836750765112356e+03,1.438558968325953856e+03,1.401417534386401485e+03,-1.894793399399618931e-03,-3.366845113242461496e-01,-9.416156060688072316e-01
1.464964416893653834e+03,1.349348972775227594e+03,1.572098407684025915e+03,-1.982884927136282505e-01,-2.280728594639173656e-01,-9.532389230582800632e-01
1.529488327216533435e+03,1.279439665109380030e+03,1.489039616319708557e+03,-1.560813430917541907e-12,8.402694156544806559e-01,5.421690779781502822e-01
1.574880069938527413e+03,1.482843953013970349e+03,1.416245537341747649e+03,-9.694075552649145111e-03,9.841235673908940162e-01,1.772197195714969031e-01
1.558665087648885674e+03,1.399290185997982007e+03,1.502934811851629092e+03,-7.462372047535576272e-03,-8.568832270314337141e-01,5.154565434986935202e-01
1.623504074648084497e+03,1.589655176484495314e+03,1.573984852546639331e+03,4.414547348238071953e-04,-6.163370355940434031e-02,9.980987384539009577e-01
1.505595843676478353e+03,1.355983146532920955e+03,1.587439519231678560e+03,4.042971098449898298e-02,8.371438422901793519e-01,5.454865954222387625e-01
1.440831721087423375e+03,1.385647044137065222e+03,1.601698362393050274e+03,-1.798529040700158838e-03,-8.549767608204476010e-01,5.186631891220591095e-01
1.443695666992353381e+03,1.448660892498075327e+03,1.487404938815479227e+03,7.719336752119247127e-04,9.604131354107483531e-01,-2.785785588463269291e-01
1.561253108710605829e+03,1.373440451666340323e+03,1.581698338286258604e+03,-1.224343791619790251e-03,8.552313668978896999e-01,-5.182449324945177516e-01
1.562516146105243024e+03,1.415519464894540761e+03,1.474414507609949624e+03,1.559995669061701312e-02,-2.788505607031595557e-01,9.602077932128985083e-01
1.528415964808812987e+03,1.422482288422595957e+03,1.476511890228467109e+03,5.400842711966361009e-02,6.303374763159430572e-01,7.744402854653855695e-01
1.567371773680743900e+03,1.525095258613545184e+03,1.506695798125916099e+03,1.991957325908471910e-01,7.852438532691214945e-01,5.862705442205485840e-01
1.519092321372135984e+03,1.582103562693055210e+03,1.521801016531471078e+03,-1.284108894676303132e-02,-5.644299510303689704e-01,-8.253810858109825732e-01
1.462503991321790409e+03,1.516238776033542308e+03,1.519948853568871982e+03,-3.240973770911675933e-02,-4.746714904487808195e-01,8.795661345554177668e-01
1.389765674142489388e+03,1.467118618722954125e+03,1.560641978721403575e+03,4.688487497881018394e-03,8.577390023074021874e-01,5.140640252008348288e-01
1.455478693776895170e+03,1.382245165232236786e+03,1.365179112697028813e+03,-2.806310323505758963e-05,1.918539009373419757e-01,9.814234967166758361e-01
1.513591951249524755e+03,1.476495397763722622e+03,1.572833484577177614e+03,2.553051839209702356e-02,4.325570270362261716e-01,-9.012450338238832126e-01
1.483012406569266432e+03,1.384650283452159783e+03,1.528647272948201817e+03,-7.824347458846757641e-01,-6.220740267918315469e-01,2.863168914644406357e-02
1.528249236238336380e+03,1.551059038689919589e+03,1.478910398900583914e+03,7.592533839634851281e-04,-8.771207543597645540e-01,-4.802693055002125733e-01
1.568573916233287946e+03,1.488607145581781651e+03,1.451541565992888764e+03,-1.397768185251594328e-09,-7.880820132246300069e-01,-6.155702562923375254e-01
1.452709580004670670e+03,1.611049940216846380e+03,1.541216760617139471e+03,1.016585908560236782e-03,7.122221864697740878e-01,-7.019533628762703037e-01
1.626970828820560882e+03,1.522492402491530356e+03,1.484402113224554341e+03,-7.521920060778145185e-03,8.463191304172187346e-01,-5.326230845620962828e-01
1.484829216843990707e+03,1.429331321602459639e+03,1.490888419097226915e+03,4.441354389602513580e-02,-5.723857978036658301e-01,-8.187807616152549262e-01
1.553830141751850078e+03,1.392997200931596581e+03,1.613404656812294434e+03,-1.170808234151786593e-02,5.439951083116382202e-01,-8.390067001764009991e-01
1.542420112425594880e+03,1.377906790429288776e+03,1.603704994028133569e+03,-2.540028417939054275e-02,4.242744223116163838e-01,9.051773528628246357e-01
