x,y,z,nx,ny,nz
1.561964657549201092e+03,1.655321051681384688e+03,1.402020783573313793e+03,-1.002101256623757651e-03,2.959758890130357867e-01,-9.551948853066658529e-01
1.556163150780571186e+03,1.587945968776828749e+03,1.643548271703218461e+03,1.499785914753380134e-01,-9.051237743469237040e-01,3.978157553579957928e-01
1.370356967012849964e+03,1.572228379031168515e+03,1.589397544304428720e+03,4.963266227615348910e-05,-8.803395237606044255e-01,-4.743440949791100647e-01
1.477752787961643662e+03,1.507201986044165551e+03,1.424748235603742387e+03,-1.865616979153192703e-02,-1.926087717120393561e-01,-9.810982664281336918e-01
1.600555499126009636e+03,1.544695043291493675e+03,1.544047917486944243e+03,-2.300907352049633571e-04,-1.180572970533120963e-01,9.930067581193592341e-01
1.453304411709583064e+03,1.550211397032356217e+03,1.695532367208861842e+03,-4.426240425675535828e-02,8.413984924943030963e-01,-5.385994953559886111e-01
1.528345059846523554e+03,1.509045037046678317e+03,1.514664359720444281e+03,-1.174704501079246524e-02,-9.784540776021245501e-01,-2.061301165703112170e-01
1.536190635600588394e+03,1.518377074762792063e+03,1.361463489698786361e+03,1.468723315283979309e-05,-5.694160647005390707e-01,8.220494784654003295e-01
1.527905767793370160e+03,1.578415874252068534e+03,1.513260360382945464e+03,1.396755012283038098e-04,-4.014052323975664249e-01,9.159005513125375586e-01
1.550746252790368544e+03,1.551565224945147520e+03,1.509778909260619002e+03,-3.195844563909376428e-03,-7.504496416394998981e-01,6.609199058438697261e-01
1.530941368895462119e+03,1.624338578384723860e+03,1.649198344982038634e+03,2.461792434698019116e-01,-6.771403809384279882e-01,-6.934527270024948287e-01
1.601903471318067659e+03,1.665923790005940873e+03,1.488265027328348197e+03,1.014343151799404659e-03,-6.396725557364630887e-01,7.686468581510965681e-01
1.617338331542211336e+03,1.554181996126767672e+03,1.622684674680632270e+03,-2.214720094287519515e-03,7.231450209962146936e-01,-6.906926766828269670e-01
1.459382758493758729e+03,1.467058746961826955e+03,1.412513589363097026e+03,-6.817189982935651683e-03,-1.408063013921061757e-01,-9.900136925361244788e-01
1.687739230677425212e+03,1.642607801693409328e+03,1.382924826826140588e+03,-9.642431821959910332e-01,2.104438373894166880e-01,1.610853093654591728e-01
1.602075418072678076e+03,1.563070577680112137e+03,1.454461073531046623e+03,-3.571567133262532404e-03,-4.907604023007772209e-01,8.712872496724556326e-01
1.467910890721222358e+03,1.669150115257499237e+03,1.513928660012997398e+03,1.141309222868624046e-08,-6.259237475158193620e-01,-7.798842621157017208e-01
1.555721565754431140e+03,1.668386117445561922e+03,1.348247715012092613e+03,-2.099560949262482545e-01,-9.433977303716214458e-01,2.567472697673603976e-01
1.521239345936844984e+03,1.486374509015964804e+03,1.548121445947830580e+03,-7.724616112361344308e-03,-6.515701232385782138e-01,-7.585490787080165775e-01
1.581339207571069210e+03,1.598328089616404668e+03,1.635208944055593292e+03,-8.133087550327823545e-02,7.547844214385119876e-01,-6.509114884864154460e-01
1.557112345766759518e+03,1.475956556503228967e+03,1.545003028819158772e+03,5.116801508976441537e-02,-9.309792165939478892e-01,-3.614685774751281722e-01
1.494885944318034035e+03,1.636801805372578883e+03,1.517777665008473377e+03,9.078714605614566277e-08,9.099686833925658691e-01,-4.146769769890680246e-01
1.445720312354768566e+03,1.666879781468141573e+03,1.433037885214444941e+03,2.060231907653147232e-01,3.287737174710633203e-01,-9.216627840849038744e-01
1.586957575448327134e+03,1.628264055961353733e+03,1.379072783916876006e+03,-2.165323586379509779e-02,1.127945426787478264e-02,-9.997019112155611786e-01
1.615887082724939319e+03,1.570003365762031081e+03,1.548959920480777782e+03,1.045108553276423435e-02,8.200028464150684870e-01,5.722640183362679434e-01
1.476013819637387087e+03,1.745157140991760343e+03,1.427787259506815417e+03,-1.426437855773362295e-01,-8.031019337376401612e-01,-5.785153709825089363e-01
1.591830366077869257e+03,1.455875675766257473e+03,1.448906261731325685e+03,5.610208180862473644e-03,7.370468269217022028e-01,-6.758183931270425049e-01
1.521535181079597578e+03,1.595706139680773958e+03,1.453846361395256508e+03,1.058386524173432464e-06,-7.928605972631380672e-01,6.094030466829155612e-01
1.439148907813990718e+03,1.591436473591858658e+03,1.449139872952246833e+03,1.844799743933139531e-03,6.398988056199640395e-01,-7.684569703503562055e-01
1.555062801202039964e+03,1.426542616477711817e+03,1.345461845644888854e+03,3.259786166100498567e-02,-2.809080916778806669e-01,-9.591809127818491376e-01
1.527969054541111063e+03,1.565310293992473589e+03,1.251863399841829050e+03,-2.605200200120655896e-01,-4.273698830919520075e-01,-8.657276143215510977e-01
1.467350051230255076e+03,1.528771367242286033e+03,1.450173739059470336e+03,2.155462459251701601e-02,-9.364158715424635293e-01,-3.502295157208256682e-01
1.442198940582932210e+03,1.556421045437635485e+03,1.558967186992458210e+03,9.300403225015750897e-01,-2.695720749961886265e-01,2.497116234848020533e-01
1.485087724487658534e+03,1.630797975119359762e+03,1.511515523715813742e+03,2.371941489673437889e-02,-6.471810363079126549e-02,-9.976216499351799882e-01
1.384009954203203733e+03,1.551777590888577606e+03,1.662566225907203261e+03,4.813586697663443091e-04,4.521279806638847099e-01,-8.919529457289936403e-01
1.530005567788856069e+03,1.511856131700072638e+03,1.656758069586579268e+03,2.729945244727244313e-02,5.312461811703110826e-01,-8.467775592728234990e-01
1.634625530577371137e+03,1.665628419722773742e+03,1.341347734757307080e+03,-1.717467895567893754e-01,7.759251144602116179e-01,-6.069952693611733174e-01
1.478308648277622751e+03,1.572499634358095136e+03,1.574312646014201619e+03,-3.419562568531403167e-07,9.306895998673381243e-01,3.658098805372227424e-01
1.401642791064645735e+03,1.550801427193506242e+03,1.517507827426076119e+03,-3.452490273173538515e-01,8.946125096189863068e-01,-2.836751077723252412e-01
1.569606599320342184e+03,1.484819852996454529e+03,1.466998059769971178e+03,-5.138415898043440302e-03,-2.563856558572107924e-01,9.665609096961901292e-01
1.590400892732651755e+03,1.467790573850147894e+03,1.496983025366290576e+03,-2.225579300735444285e-02,-5.527297841279319446e-01,-8.330633021658699899e-01
1.560825267478813203e+03,1.496286734841205998e+03,1.582211795108044726e+03,-1.308551844699035356e-02,-1.394823662806541353e-01,9.901380907245831420e-01
1.463237935539315458e+03,1.603653055772895414e+03,1.514047095205688720e+03,7.914755397163683115e-04,-4.339356834644662181e-02,9.990577419712197704e-01
1.396177051868807439e+03,1.579719970066195629e+03,1.548320838050981138e+03,-1.818296108518518972e-01,6.413928847886065654e-01,-7.453543854838537985e-01
1.488809950904212201e+03,1.630549135581371047e+03,1.565722335346316413e+03,4.682417054873911910e-01,-8.301454644959371798e-01,-3.026684869937470435e-01
1.534809015262490675e+03,1.637307318301930081e+03,1.484421774964918086e+03,-2.382162593265482742e-02,7.950369762467408563e-01,6.060930098082009110e-01
1.629216956791755820e+03,1.553735986759749267e+03,1.457496466874996713e+03,3.201026628200857697e-04,9.356302424077298507e-01,-3.529815108845474891e-01
1.578693724320065712e+03,1.514683764793579712e+03,1.498535992837652884e+03,4.308279644681920484e-01,5.472625809090072568e-01,7.175590098166189090e-01
1.439723336640611251e+03,1.560920993635186505e+03,1.521895722018930428e+03,1.052077922560733930e-02,7.737875844374442202e-02,-9.969462578023906563e-01
1.350722184753336251e+03,1.483819193281604157e+03,1.377059928485652563e+03,4.150163266696080700e-04,9.556846525851082630e-01,-2.943920389119405456e-01
1.530705106535737741e+03,1.660915520191043015e+03,1.672693397122506212e+03,-7.475028577753073389e-01,-4.756941521072021173e-01,-4.636319135572515293e-01
1.573571636181962504e+03,1.554872875285848750e+03,1.546619637113883300e+03,2.474650714579171296e-02,2.793951461219812971e-01,-9.598572616319366313e-01
1.581612335022956813e+03,1.492573154243787485e+03,1.437959919977863365e+03,1.006608531422921171e-01,5.129277389727706638e-01,-8.525095467130835436e-01
1.430847227200693624e+03,1.557168589706224338e+03,1.449610607620040128e+03,-2.562968567061313808e-03,7.165988940071772451e-01,-6.974807927820052544e-01
1.491283071524603429e+03,1.545007418016745305e+03,1.433095180274769746e+03,-4.370669060099225279e-04,4.141569628449972562e-01,-9.102053719351074212e-01
1.565319245997317921e+03,1.544710114681957293e+03,1.556344923691146278e+03,3.880368575509709041e-04,-5.771866109150129986e-01,-8.166121880108320186e-01
1.571718482958623554e+03,1.529390308523448084e+03,1.420071628643999702e+03,8.615758215904977257e-01,3.861347337102248867e-01,-3.295255241604093666e-01
1.456334044280270291e+03,1.485689587815262712e+03,1.520794074312608473e+03,-2.896964020180145451e-03,-9.002080497219012989e-02,-9.959356717537657389e-01
1.547048777522425553e+03,1.617984509427654302e+03,1.451698673960967426e+03,-1.609159042118407049e-03,3.612424051367240652e-01,9.324705546762386277e-01
1.489404118764844952e+03,1.533141917717613524e+03,1.619047635595492920e+03,-5.821954604165848618e-02,7.945980188341179584e-01,-6.043380452392501656e-01
1.541901128503513746e+03,1.463859019569053316e+03,1.512452468958329064e+03,-2.327885383651469992e-03,3.236075276729561412e-01,-9.461885377571626066e-01
1.518443877804026670e+03,1.531656226800865625e+03,1.482471929686822932e+03,-2.392951318638127101e-02,-5.529447621637729737e-01,8.328742212329010020e-01
1.470387967317014500e+03,1.596884182916731561e+03,1.509407785203354251e+03,-1.100359589344362399e-01,8.979390510148462790e-01,-4.261426385659342619e-01
1.529076183112787248e+03,1.688990712057105839e+03,1.468818106685785096e+03,-8.805196325229910359e-01,-4.022173187394519345e-01,2.508114934520009887e-01
1.476050996478807519e+03,1.489856039135283481e+03,1.453568644993235239e+03,1.688549993294961860e-01,9.411521866128221836e-01,-2.927807214202114428e-01
1.560202895449946482e+03,1.448637592662144698e+03,1.536319363394694847e+03,-5.232303530101862360e-02,-6.997498801212082009e-01,7.124692310880822443e-01
1.622616849054135173e+03,1.416077312201228324e+03,1.607958199123083205e+03,-3.309653513544600582e-03,2.099459786617983159e-01,-9.777073857946251279e-01
1.562138456172927135e+03,1.561795547464790388e+03,1.579493120160660965e+03,2.792920309972967696e-01,-2.248325762201045519e-01,-9.335128676625920052e-01
1.541568351742317191e+03,1.641796346362258191e+03,1.405878458781732661e+03,2.949754628624682851e-01,-7.931609666547553283e-01,-5.328087436260472431e-01
1.539062658467616529e+03,1.622727411914870800e+03,1.401298201950166003e+03,1.957495815556273000e-01,2.463965604275982768e-01,-9.491948358109865147e-01
1.581090857074890209e+03,1.528376310379152301e+03,1.770681391969296101e+03,-5.696806128647544445e-03,-3.956305959429097241e-01,-9.183920611339095874e-01
1.602796293852519284e+03,1.595740052617374204e+03,1.420134731718492731e+03,1.683422635074203755e-01,7.395796241055481168e-01,-6.516769613275387174e-01
1.500910246258729785e+03,1.628370318255421125e+03,1.483470856570491151e+03,-1.035019981241510088e-04,-9.586222178993695220e-01,2.846812825547722081e-01
1.528524769975687150e+03,1.593180470223278007e+03,1.499489059564198442e+03,-1.574120878061904902e-04,9.633371699975273872e-01,-2.682936304174767805e-01
1.502916394376021799e+03,1.668772461552083087e+03,1.587626115252326144e+03,-1.983846903518848848e-02,-6.482157235610217505e-01,7.611982730370588923e-01
1.486487696066742956e+03,1.640699737922664553e+03,1.550130201806757896e+03,5.370193844228352692e-02,5.022779683159555031e-01,8.630370469174177828e-01
1.515835946782673545e+03,1.520848434354937808e+03,1.419273535335895986e+03,-5.444505310112900398e-01,3.142097869179447979e-03,-8.387870686309516488e-01
1.630302066764747906e+03,1.523550835651183888e+03,1.392044775032339430e+03,-8.366075217954568877e-02,1.055011563555153797e-01,9.908937302013782755e-01
1.486162862506639158e+03,1.645115862644456229e+03,1.449611458626434569e+03,4.661702074661089529e-05,6.988277401129785460e-01,-7.152900023594911394e-01
1.386593517949696434e+03,1.594414262910355546e+03,1.510863152993694257e+03,1.071067944671758119e-03,4.338849660321372204e-01,9.009676404093263091e-01
1.541209462144103327e+03,1.592623333859125296e+03,1.600090941795513345e+03,-2.942925742557042645e-01,3.921812010738405796e-01,-8.715421884580405454e-01
1.477708566474012287e+03,1.572837675421769745e+03,1.422733089214438451e+03,-8.690749825007829665e-01,2.750479248218567485e-01,4.111657984833539392e-01
1.554006021407537901e+03,1.600882646945181250e+03,1.526241318934245783e+03,-7.293846959051184485e-03,2.600002133029944568e-02,-9.996353328526168536e-01
1.397541230022754007e+03,1.525553200055195930e+03,1.497076338416802628e+03,-6.481245984279566663e-01,-2.580913750736313350e-01,-7.164658728964011791e-01
1.692584683541734876e+03,1.680721296958455241e+03,1.396993987383898229e+03,9.440529308990219803e-01,9.650109014781875494e-02,-3.153594825928800471e-01
1.503423964045131470e+03,1.561877943652864133e+03,1.517807140250296470e+03,-1.685186259490494276e-01,-3.451455666049678683e-01,9.232962745301098728e-01
1.512006279695919829e+03,1.519203216410695177e+03,1.494697051463694834e+03,5.658178230506047401e-02,-9.882092682272946016e-01,1.422706719631907368e-01
1.527267385769633165e+03,1.608018144946793200e+03,1.531183736377013929e+03,2.122833721714037622e-04,-8.809637180373052212e-01,4.731837723735433654e-01
1.559278977569588733e+03,1.677403768315313982e+03,1.391418624367174061e+03,-5.874790007324709462e-02,-1.186158323850806419e-02,9.982023778172740558e-01
1.464406881416868146e+03,1.512640009133912599e+03,1.489515129968447354e+03,-9.510470690334084098e-01,2.197288757485451605e-01,2.173216363946390839e-01
1.458507360149954593e+03,1.506222131399144700e+03,1.494553905262825992e+03,-2.937225735704652093e-06,5.163319532219996510e-01,-8.563885298585727224e-01
1.542458883624304463e+03,1.620680603597496201e+03,1.436397302735211042e+03,-2.429102951277042205e-03,-3.422093937814110198e-01,9.396205778220330096e-01
1.595847621049322925e+03,1.756820506624803102e+03,1.435001738600126828e+03,-4.172764293973459937e-01,-5.674096546616458348e-01,-7.098779227910624323e-01
1.627420822497424751e+03,1.587282417670887298e+03,1.491003789341743641e+03,-3.603327644138495933e-02,3.059620963334677146e-01,9.513615498831811124e-01
1.453566088605614596e+03,1.496195583710516303e+03,1.720227994097052033e+03,9.949901569369995480e-02,9.384911965098470255e-01,3.306572544939860303e-01
1.487669908226098869e+03,1.558778536905058672e+03,1.507821996211323722e+03,-1.579649542774256123e-03,3.734706176020528012e-01,-9.276406645330201872e-01
1.576959065018577803e+03,1.462505343119609279e+03,1.334397536483534850e+03,5.996760112470131965e-01,1.094484234932073669e-01,7.927229806998934425e-01
1.529196033724037989e+03,1.638736423576560128e+03,1.454130172577186386e+03,9.208348646601759798e-07,-5.196743023931312822e-01,8.543644535158074760e-01
1.622944279551095406e+03,1.486574966327991660e+03,1.397651619413224807e+03,-3.089903073418247964e-02,9.935411864624340561e-01,-1.091840679884522186e-01
1.588632641810314226e+03,1.657215123712689547e+03,1.484870850566078616e+03,-8.297478231239296953e-01,-2.590725433420045798e-01,4.943682507073095533e-01
1.565073011911895492e+03,1.495892447516691391e+03,1.572976183748836775e+03,-3.484545346005309824e-02,9.447655659047221599e-01,3.258892754508707079e-01
1.610804745371705167e+03,1.628880124242970851e+03,1.557969578930175430e+03,2.503761018591507126e-01,2.266923013851106783e-01,9.412345128131132110e-01
1.498672188425500281e+03,1.610162102254504362e+03,1.426195710593748800e+03,-8.006336046087077912e-03,-1.656896090964128931e-01,-9.861454517567856959e-01
1.346344733361989256e+03,1.505296921779178547e+03,1.367002560657841059e+03,-1.736251966024294352e-02,-8.761371917251813413e-01,4.817490676555175044e-01
1.507065116999797283e+03,1.465137991479351058e+03,1.420313463894623283e+03,-8.890715138426383835e-01,3.648066945792125537e-01,2.765283328408654206e-01
1.416089700411695731e+03,1.510260354306648424e+03,1.590909390843231222e+03,5.171977470538044224e-06,1.724650893119435147e-01,-9.850156308109400127e-01
1.512428281472767594e+03,1.670314141098487653e+03,1.568777035705011485e+03,-2.123821702408453470e-04,7.239444514341361048e-01,-6.898582362569440907e-01
1.472706534926767290e+03,1.609507413900235861e+03,1.452096437889729032e+03,8.547128562606296593e-04,-9.956751907457315198e-01,9.289878362704551140e-02
1.395098716942689407e+03,1.523853787150061180e+03,1.532831776590258187e+03,5.931580485946068987e-02,7.247261137145109000e-01,-6.864792024483599153e-01
1.434395286249478431e+03,1.505408835724178289e+03,1.408876921087565051e+03,-5.870631326513374437e-02,7.214599784994865095e-01,-6.899630919160359976e-01
1.575101872561127266e+03,1.602750933261941555e+03,1.435955478964198392e+03,5.317966255814870731e-04,9.346531055287462531e-01,3.555605286274326482e-01
1.510842024315001026e+03,1.574369384423256406e+03,1.501799869740720396e+03,5.697880422433367585e-04,-7.396295996184161226e-01,6.730139156881441709e-01
1.614411624646465725e+03,1.586484583407114087e+03,1.661984036995993392e+03,-2.582780326525320747e-01,8.975155686173248437e-01,-3.574328775289952742e-01
1.501755903245104264e+03,1.487114530711279031e+03,1.507437155393161220e+03,1.494415764912418731e-01,-8.546294405581374987e-01,-4.972682722103807795e-01
1.482607683621651631e+03,1.542723160569508309e+03,1.394937324338508915e+03,-4.164499491919680385e-01,-8.911282633816723919e-01,1.801661955539159143e-01
1.389641719885796647e+03,1.558534214057533291e+03,1.555351766404443651e+03,7.668178211815012311e-07,-7.158751741620061892e-01,6.982282828831336552e-01
1.560338962756891988e+03,1.506910400977748395e+03,1.441592684344983354e+03,7.832998497488422235e-05,-9.962049454962828010e-01,8.703849971800756147e-02
1.477329682309900591e+03,1.479762985535769076e+03,1.532481448386442480e+03,-3.822232064308052324e-04,8.767676971279639853e-01,-4.809139831387183039e-01
1.513101104532245472e+03,1.620657925430090472e+03,1.477356676484144373e+03,-2.793844258270398173e-01,1.272471600535086123e-01,9.517103040650616297e-01
1.551744939762806325e+03,1.535578531890302429e+03,1.440723787715773597e+03,-2.608738451570738123e-02,3.855074666569180963e-01,9.223358615606870314e-01
1.470363043826167313e+03,1.605676590114807141e+03,1.502610662510761813e+03,1.825031549336205428e-01,-9.708830937514574266e-01,-1.551728607291677497e-01
1.463804627204964845e+03,1.556407005087913149e+03,1.652419798768319424e+03,2.028641640258102274e-07,4.535846128789187137e-01,-8.912132174510430938e-01
1.552839979820873396e+03,1.665994713014275931e+03,1.506220407228037402e+03,-1.676420533728400742e-07,8.245728418965349027e-01,-5.657558028042168896e-01
1.527352807701037364e+03,1.593618759702927946e+03,1.362944402612790554e+03,-6.687113025544917377e-01,3.953241299812234461e-02,-7.424704587782741116e-01
1.501338373763259824e+03,1.595075775861463399e+03,1.525681997813326461e+03,1.052325019904067939e-02,9.459526390680514929e-01,-3.241340245105983064e-01
1.663110881416646180e+03,1.517446364493068813e+03,1.426378699650115323e+03,-6.261664902321860578e-03,6.164167125338048114e-01,-7.873952171950676648e-01
1.661424018730969010e+03,1.564932846888059430e+03,1.378431544165061950e+03,2.624068569034084070e-05,-4.188282658385881763e-01,-9.080654618726931027e-01
1.479281636726061379e+03,1.655612581591631624e+03,1.519990588031074594e+03,-2.741146413046773311e-01,1.299870591720999058e-01,9.528717268710396038e-01
1.463061287528858884e+03,1.578964913588452191e+03,1.466878330051919420e+03,1.541707800279746021e-01,-6.791191498617418221e-01,7.176548967830087555e-01
1.561817333053936864e+03,1.438222628115923271e+03,1.473006714909578932e+03,1.769575555443879122e-01,2.523428328004698740e-01,-9.513196719662582179e-01
1.484413197934314212e+03,1.617967666017930924e+03,1.544782859613689197e+03,1.852175100738819209e-04,5.441632713883780559e-01,-8.389793202256968785e-01
1.438706619449027812e+03,1.608478495431825195e+03,1.747661310244852984e+03,7.730026519296713527e-02,-4.569336848176706878e-02,9.959602326789390725e-01
1.553008798144921911e+03,1.586698936457710943e+03,1.528965550170638153e+03,-1.706091561850839669e-02,1.354414217970228707e-01,9.906384539375903131e-01
1.493255430945795069e+03,1.599487441139138809e+03,1.335254018870032041e+03,-1.032537286294787828e-03,8.190943013465615818e-01,5.736579637452448033e-01
1.545428601492659709e+03,1.768228056541141768e+03,1.425329224208264577e+03,1.958579269491620978e-01,6.122719058578076634e-01,7.660044293268966076e-01
1.491013944424329566e+03,1.612409286357198653e+03,1.353094177123319696e+03,5.479438420515469338e-02,-9.952332050340280123e-01,8.067492210888264903e-02
1.526463679117912079e+03,1.549459585106792701e+03,1.485960541217148375e+03,3.672264245433140561e-01,4.049878100468141118e-01,8.373348355530296772e-01
1.624181430504943364e+03,1.635225544854022701e+03,1.501440946386815313e+03,-9.272371905070056833e-03,-7.668233843126718297e-01,6.417911812969345764e-01
1.470326830811400896e+03,1.556633960656201680e+03,1.537958415550312793e+03,-5.171246071969183734e-05,-8.167530338861542782e-01,-5.769874166423250017e-01
1.457994357428217427e+03,1.542500104069606778e+03,1.341393864201013685e+03,8.841991196264391284e-02,9.017056308700286404e-01,4.232125641161922913e-01
1.487549734375412754e+03,1.613097992473792146e+03,1.462866508148426192e+03,7.435044942406500157e-01,-3.555583039921270117e-02,6.677850327527397045e-01
1.693070799099611577e+03,1.612235706294520469e+03,1.414485363306494946e+03,-1.458493808750334494e-04,-7.885877709492277177e-01,6.149221952713095352e-01
1.519979040532031604e+03,1.646498364455539104e+03,1.427505848289208643e+03,7.473189064554572122e-08,-7.117953283955492649e-01,7.023869378585186896e-01
1.405814990942404165e+03,1.445422900791158781e+03,1.440593031923418494e+03,8.604548517365122372e-04,6.052574728214742406e-01,-7.960293029852673063e-01
1.467102154047604927e+03,1.386717136053471677e+03,1.579511894181740445e+03,-9.644220857971183688e-04,-4.323994456629126626e-01,9.016816451943813204e-01
1.546491387220736215e+03,1.434781790321010021e+03,1.470110709324187610e+03,-6.097019034858566951e-04,-8.284043439858956859e-01,-5.601302269373494847e-01
1.485303335712042099e+03,1.568601963516512114e+03,1.429528884038742490e+03,9.924372264981467476e-05,-3.041364681551174676e-01,-9.526284684433983241e-01
1.437831426764728803e+03,1.481479495618866849e+03,1.625435412271159294e+03,1.836169474175392835e-01,-5.305201494353479763e-01,8.275464867088498933e-01
1.587174660220818851e+03,1.527174418835334109e+03,1.474741503044260753e+03,1.046299245482905232e-01,5.127165861338636166e-01,-8.521586009612620582e-01
1.526108472484070489e+03,1.535300018011333123e+03,1.473378951821877990e+03,4.409316579762342925e-02,6.835492719214211199e-01,-7.285713318444793085e-01
1.451647875832250975e+03,1.492488001810266269e+03,1.655133657923362080e+03,-8.600311559647441911e-05,-6.886601026784163748e-01,7.250843092926623212e-01
1.504297658024389648e+03,1.590594730187730192e+03,1.457839986027428722e+03,-2.178794925626866275e-01,9.324370569808659859e-01,2.882527736024191878e-01
1.510682699196222075e+03,1.485575351652816835e+03,1.587167364121076844e+03,1.631806780122596915e-03,-9.269287618015918939e-01,-3.752338041163136850e-01
1.448331875054212560e+03,1.536771297887720038e+03,1.588959165569021252e+03,4.264313847140037417e-03,5.219577847869706355e-01,8.529606594255632057e-01
1.540115716140995801e+03,1.583685189853902102e+03,1.470005472438547031e+03,-8.846727446222707458e-02,-9.659345148665225977e-01,2.431955064116123333e-01
1.482418600313974139e+03,1.666150416590319082e+03,1.399433740122275367e+03,1.179159261954739453e-05,-5.152633054652439037e-01,-8.570319281695338853e-01
1.430768090350878992e+03,1.510778756663231434e+03,1.286694440706961814e+03,3.044865704765080394e-02,-9.712732458113112477e-01,2.360109346092987559e-01
1.487452512388884543e+03,1.522874776738096216e+03,1.549720595195268061e+03,2.890841645782725043e-04,3.682186357673017385e-01,-9.297391853116727667e-01
1.668799567707407959e+03,1.594322940606376278e+03,1.485079006602422169e+03,-1.227891347227408634e-05,-8.718342941483397945e-01,4.898009426247505460e-01
1.456034233015665905e+03,1.511454889707202710e+03,1.648316289745724816e+03,1.272669532433837614e-03,8.746052826449954853e-01,4.848339714600544137e-01
1.482003581294728974e+03,1.474131424662568406e+03,1.602037886773020091e+03,-1.068149981796697942e-02,1.173068092347365060e-01,-9.930382762355154380e-01
1.583095101651484583e+03,1.528588331719205598e+03,1.456482122965453982e+03,5.735137819676526527e-02,7.918749009680738082e-03,-9.983226496644526105e-01
1.521796466601934981e+03,1.595607045709313297e+03,1.390929151275063532e+03,4.196087002387210996e-02,-6.947836720935771648e-01,7.179936868657024185e-01
1.472000947591950762e+03,1.524140986569006373e+03,1.497838664111762910e+03,-2.705118485659906147e-02,3.615155421265999758e-01,9.319735759123026764e-01
1.434303522630180851e+03,1.555088041395035589e+03,1.619924610492951615e+03,7.625908724915389687e-03,9.199853854648277762e-01,-3.918784710178036534e-01
1.609710008827496040e+03,1.637727767716059361e+03,1.421052465573196741e+03,-1.778249797271040612e-04,-8.875143318869180842e-01,-4.607800766890794986e-01
1.456890461235116163e+03,1.418089280473202280e+03,1.614026207825998881e+03,2.801310561540326823e-04,9.884035356072540246e-01,1.518498347897393463e-01
1.537882951387130106e+03,1.509169969191899099e+03,1.377606807812310535e+03,-5.231116473935111255e-01,-5.124728047965581013e-01,-6.809741762395956632e-01
1.340689199149228216e+03,1.597919416002403977e+03,1.410738883735011314e+03,1.584448809918416745e-01,-9.003585753647689316e-01,-4.052772575097260965e-01
1.487362167984840653e+03,1.570126801974282671e+03,1.501231812341390878e+03,3.024290920197808541e-01,3.247985924688135961e-01,8.961263965704662215e-01
1.594311512563855786e+03,1.593917940583339714e+03,1.567443694334101565e+03,8.015139643433701673e-05,-9.182232420158408237e-01,3.960632164158549018e-01
1.486990167249928163e+03,1.528302547762455561e+03,1.593394380341866736e+03,-1.726232720795914111e-01,-5.315941714998790868e-01,8.292218296474669348e-01
1.514055134204163778e+03,1.474485660518878149e+03,1.498338475763831184e+03,1.035235573048506391e-05,-2.849442902726626592e-01,-9.585440789728124633e-01
1.521867465729160358e+03,1.510481943217172784e+03,1.434170780848973891e+03,-2.662004453427077935e-03,8.865147191150563044e-01,4.626927344627778660e-01
1.527389437046617331e+03,1.552737268615173662e+03,1.638774463124138038e+03,3.894044097985610255e-05,1.713775061814293288e-01,9.852054348503546111e-01
1.593717301050011201e+03,1.298975797190616504e+03,1.520266046053343189e+03,1.690520820776197919e-02,-9.663254436215362730e-01,-2.567671142204419610e-01
1.429014369164677419e+03,1.510113309173928428e+03,1.408627250854414569e+03,2.341446746666950014e-04,-9.846164078830637045e-01,1.747297184331380315e-01
1.531220331181824804e+03,1.497075656524275246e+03,1.345789095492413253e+03,2.634028602026574489e-03,9.911782859167266313e-01,-1.325091220275174120e-01
1.458946007747079420e+03,1.553252262235828084e+03,1.683326521233658923e+03,-1.730929552549216642e-03,-8.282593992316715781e-01,-5.603421914038551055e-01
1.528626607753968301e+03,1.581685429068654912e+03,1.441065906121764556e+03,1.669406923610103691e-02,-9.867482582293211069e-01,-1.613975927135883059e-01
1.519131723120091010e+03,1.577963359008875159e+03,1.593186704321136858e+03,-2.213571877753553387e-04,-3.810570284093137694e-01,-9.245515086250515324e-01
1.537025315908943412e+03,1.570111453187534835e+03,1.456269915553730470e+03,-3.067122686817236321e-02,9.864214835020058691e-01,1.613441437676099433e-01
1.478607020285724047e+03,1.483695645683184921e+03,1.540770784507417829e+03,-6.078266298946863279e-04,5.435079232519133274e-01,-8.394038169493752699e-01
1.668187179394981285e+03,1.442917363764940319e+03,1.588304967646440446e+03,-4.034442801217188457e-01,1.293144678687259685e-01,-9.058203360694085937e-01
1.469559719058209112e+03,1.495361556122497404e+03,1.510811684736000871e+03,-1.362256014121975001e-01,5.346649991639100818e-01,-8.340119448718592565e-01
1.619090359132348567e+03,1.648143442323188310e+03,1.482878775814397841e+03,-7.248958300292713819e-01,-5.185094021684053534e-01,4.535129937158763891e-01
1.573514063544431792e+03,1.584518545883353454e+03,1.565492763096648559e+03,-3.119604094861774118e-02,-9.245116678965363821e-01,3.798749569954520955e-01
1.512603405572525617e+03,1.597572835753657955e+03,1.468987839922061994e+03,-2.995309608386775846e-02,5.382546504580841829e-01,-8.422498105047196981e-01
1.566821604852841801e+03,1.642252746730971467e+03,1.393977031833841465e+03,-1.326662695235733269e-01,-4.846194534444709379e-01,-8.646060642129922424e-01
1.542101046274168084e+03,1.694910690178383675e+03,1.437227730298435517e+03,3.729669389122540202e-01,7.879038755466374333e-01,-4.900032095578681357e-01
1.610334297582338195e+03,1.434558102473327153e+03,1.532949456983092887e+03,3.849693756352232654e-01,6.551812753583207138e-01,6.500277503636830989e-01
1.586803955717163944e+03,1.581185814107891929e+03,1.575918370627018930e+03,3.754571836134701791e-03,-5.898372117364523159e-01,-8.075134468485926087e-01
1.654006291299995382e+03,1.538343941114000245e+03,1.437955186541532839e+03,-3.061202030558132781e-01,-7.278473753315040096e-01,-6.136192789540665382e-01
1.543916007838651694e+03,1.596725515105326394e+03,1.366413105946088990e+03,-8.374730792278227767e-03,3.269009243846047186e-01,9.450215074381365099e-01
1.380858410525927638e+03,1.474286929162887873e+03,1.471779654185244453e+03,6.304037215683494250e-04,3.532398647841872297e-01,9.355325758723728180e-01
1.498985783412933642e+03,1.525188405763436094e+03,1.377469876935453158e+03,-9.819050833409722918e-04,-4.924468160874983513e-01,-8.703419840428777698e-01
1.542357434849832316e+03,1.495306247111057246e+03,1.442330111011291592e+03,1.769480078630001063e-01,3.795534108455050348e-01,9.080906402055132220e-01
1.596354928087167309e+03,1.476739394443719902e+03,1.458630984273906051e+03,2.203829821981907397e-02,-8.960200660311610221e-01,-4.434662948647711822e-01
1.630860299215327132e+03,1.522892715875194199e+03,1.385086628400134487e+03,7.530231346098623657e-01,8.999319019248262774e-02,6.518108502175434804e-01
1.588073609575604678e+03,1.548145762574676382e+03,1.597060910489657545e+03,-2.426317217273597001e-03,6.538360520456537595e-01,-7.566323612099301599e-01
1.433628976774313060e+03,1.563816830940354066e+03,1.392987054464469111e+03,2.643813877787447991e-05,8.597280149432745544e-01,-5.107521312953294812e-01
1.580308707915751938e+03,1.551086043632922838e+03,1.536259119341192445e+03,4.501837926003111889e-02,3.805631426851071031e-01,-9.236585083018694631e-01
1.577871541624093197e+03,1.553475330822442857e+03,1.438481559059151550e+03,-2.819116735785494321e-02,-7.756284390756795766e-01,-6.305598961082334863e-01
1.481834133274607439e+03,1.567176628300553375e+03,1.453887027766202891e+03,-1.954139639327205080e-01,-1.999792526834276163e-01,9.601154520141207405e-01
1.576048661172630545e+03,1.447522828272265542e+03,1.529236544028412027e+03,-4.488716845991373439e-01,-1.337263639760307744e-02,-8.934961574404840512e-01
1.482338491465642164e+03,1.477994768246974445e+03,1.596019333493817385e+03,-2.503781412789714798e-04,7.055770360784870965e-01,7.086331797689716661e-01
1.430986839326154040e+03,1.511784740033345543e+03,1.607342584676501474e+03,9.745600948091922566e-01,-1.351919033821291360e-01,-1.787617712639238132e-01
1.446736802100501336e+03,1.578912802266339895e+03,1.565508906756614579e+03,8.883855368338831188e-04,-5.698153847896285651e-01,-8.217722543552961056e-01
1.600552559064537263e+03,1.610558190144873606e+03,1.617311811986398880e+03,-1.915647618365456245e-02,5.146808459859343321e-01,8.571678109888565267e-01
1.694268728466850007e+03,1.598158262321907614e+03,1.455256882739811090e+03,-3.323548074993879631e-05,-8.139237836196115961e-01,5.809716631245783747e-01
1.423796234482984573e+03,1.638437982755207031e+03,1.693113146043664301e+03,1.308310386155610812e-05,3.307876918698567925e-01,-9.437051990617859598e-01
1.592334386904401072e+03,1.362863301256943487e+03,1.636228947565584576e+03,3.706761256351397971e-01,3.425107551112625548e-01,8.632992485327638521e-01
1.502464044808194103e+03,1.531055974868891781e+03,1.474886406618573346e+03,-3.807026579216743478e-02,-7.694274624685141228e-01,-6.375986471611879702e-01
1.424377617319573801e+03,1.482312940688062781e+03,1.557513047599861466e+03,1.218725382568820181e-01,2.683925459091615617e-01,9.555692155564784462e-01
1.402114216590571004e+03,1.531864145796724642e+03,1.572065946257283713e+03,3.096054718624271021e-02,-7.302405009729856511e-01,6.824882821387128207e-01
1.692301812776346878e+03,1.576958608761094865e+03,1.495663572676045078e+03,-3.234289755680704315e-01,-7.701773742003431567e-01,5.497458594958704037e-01
1.463925940407939379e+03,1.544185342382435238e+03,1.467990580094513916e+03,7.631501220604549745e-06,-7.658045923612166739e-01,-6.430733443863390075e-01
1.598670846027970356e+03,1.635661431191805832e+03,1.620654511452011320e+03,5.250841445593784629e-01,-6.158702568345933992e-01,-5.873588918870964459e-01
1.601135326824817639e+03,1.488454914387223198e+03,1.549555349372436922e+03,-7.998003430427121085e-03,9.257252294784231728e-01,-3.781121942601794461e-01
1.618454700534866561e+03,1.599363847999440168e+03,1.608234047836898299e+03,1.969651746543285564e-02,-8.164261332808947502e-01,-5.771138675302651677e-01
1.554046115014189127e+03,1.474613600769589766e+03,1.386639838208113360e+03,-7.378147482425974346e-02,4.792710321997482592e-01,-8.745602161469185898e-01
1.409958689297435285e+03,1.454545316580753251e+03,1.540570410936402823e+03,-2.027982022006111795e-05,7.689594150905509906e-01,6.392975970018396348e-01
1.513832868748791270e+03,1.610889931704832406e+03,1.415076521003553125e+03,-1.844867413164270694e-05,-9.328638540697928860e-01,3.602291346208666423e-01
1.638613135480932215e+03,1.668404462575623711e+03,1.517736417406601277e+03,-6.615292381258021381e-02,6.082887925576260235e-01,7.909541930604024884e-01
1.588427739867663149e+03,1.507424781571819267e+03,1.563796352598439626e+03,2.904015081919010446e-03,4.214008033496392108e-02,9.991074918775090241e-01
1.474191766673906159e+03,1.462827009617411250e+03,1.554566854842751582e+03,5.958039916815939252e-01,-6.014932248544544446e-01,-5.321874706815896694e-01
1.438290629011627288e+03,1.477679015095065552e+03,1.543680401863242651e+03,4.163744584887794226e-02,-9.649923295955360469e-01,-2.589519780286725914e-01
1.534741451548983150e+03,1.571260774987591049e+03,1.515532987380016039e+03,4.144922240962730653e-01,-2.936230143372618451e-01,-8.613836088614788000e-01
1.665788609248812008e+03,1.626933757404472544e+03,1.649017698626565107e+03,-1.106262089272529170e-01,9.233348657451883046e-01,-3.677153350048088520e-01
1.444029950569678249e+03,1.576599478502537522e+03,1.617339796825989197e+03,3.167491595496417514e-08,-8.509885635616029065e-01,-5.251842197623218800e-01
1.562953754929169691e+03,1.595282256242703170e+03,1.515733423771798243e+03,1.776303906388039186e-02,-7.631028197884840436e-01,-6.460329410131340211e-01
1.471672790524824222e+03,1.428237662630073828e+03,1.560780344306449251e+03,1.395131347541134770e-01,-3.052530052768754332e-01,-9.419961188882449710e-01
1.504920352600307524e+03,1.600389209433445330e+03,1.521849905288669106e+03,3.094044059684129544e-01,-8.934023398963997220e-01,-3.257317495040533695e-01
1.613370042344956573e+03,1.604523716910427993e+03,1.439855061617564388e+03,-9.071762403440092239e-04,-5.762167337528655287e-01,8.172964289500157520e-01
1.470979569873956734e+03,1.528165415637944761e+03,1.519678961027938612e+03,-3.453745874077579492e-01,2.527657997963435668e-02,9.381244527659718946e-01
1.487578815524918355e+03,1.428939806230855083e+03,1.393311639985573720e+03,1.715822037260914066e-03,-9.227256024541035107e-01,3.854536528954528585e-01
1.504551901104176750e+03,1.700791696844167063e+03,1.491646784712894259e+03,6.371426904904949062e-02,7.817711743435705740e-01,-6.203017998402229338e-01
1.502158698801956461e+03,1.548270247048996680e+03,1.581128733969718724e+03,-2.704913732568251308e-02,8.164541892452860106e-01,5.767763006866344355e-01
1.540836466782395746e+03,1.613600736125876665e+03,1.431120833869774287e+03,-7.953236116430427716e-01,4.457417431286860854e-01,4.108219215130406443e-01
1.475151802666497133e+03,1.516546677312240490e+03,1.596628859302755018e+03,9.027682471883062554e-03,7.428839349929009517e-01,6.693593654223792822e-01
1.553658551767352492e+03,1.480250313299270829e+03,1.526923555073954049e+03,-1.928385975333606972e-03,9.588561321312467634e-01,2.838858911637477389e-01
1.313806270285025676e+03,1.494620050071979449e+03,1.531878676906282863e+03,7.472459943337762811e-02,-5.726238698334856075e-02,9.955587643512011642e-01
1.453513873345205184e+03,1.570808905882902764e+03,1.585224421546424082e+03,-9.010786536957501262e-05,-5.748629043895369106e-01,8.182497375724594457e-01
1.712638926383888929e+03,1.653536607269058095e+03,1.479558158844528862e+03,-1.601012559671657751e-05,-9.698579100091916372e-01,2.436711598369384890e-01
1.565902530870308738e+03,1.594638582213006430e+03,1.421655255659088425e+03,-1.113426072921892655e-02,8.184318813495959910e-01,-5.744956778153988974e-01
1.482026722052705509e+03,1.593457711518949282e+03,1.632717831657585748e+03,-1.573838999049598786e-01,-2.832517097553517993e-01,9.460437500302908420e-01
1.484680163483692695e+03,1.503662401310865562e+03,1.505680456878428913e+03,4.177037904380795919e-01,-2.182709108392952568e-01,-8.819758233279670900e-01
1.557282549205248415e+03,1.573136699995124445e+03,1.301956285044011111e+03,-8.896744310014857715e-02,6.070073356889578164e-01,-7.897005055639857440e-01
1.622759851264860572e+03,1.565541959946086081e+03,1.455553573725078650e+03,1.960769310813631483e-01,1.262858218819108425e-01,-9.724226078662120409e-01
1.496071743007713621e+03,1.559249371947588543e+03,1.543852659050795864e+03,5.170791770939984350e-02,-9.757558742502986382e-01,2.126658531880317171e-01
1.509485699437174389e+03,1.657611894441730556e+03,1.424279443596220744e+03,-2.097778753492965002e-05,3.115173439022766444e-01,9.502404664125829736e-01
1.502986844113300322e+03,1.555862252105572907e+03,1.562963981972109650e+03,-4.188913348209644225e-04,9.804149374519804949e-01,1.969425676462021324e-01
1.614589264604256414e+03,1.452892290829715193e+03,1.307761224519225834e+03,-6.286590318572028019e-03,9.885406493093522595e-01,-1.508239485135263735e-01
1.483691357207616647e+03,1.460509267085794818e+03,1.475080055028356583e+03,2.806701623414761347e-07,9.025862693311187401e-01,-4.305090317459722704e-01
1.627462454227503031e+03,1.622583646863064359e+03,1.627626211686509123e+03,-1.083525505122897349e-07,8.112279527924004530e-01,-5.847300305339543369e-01
1.437566841404883917e+03,1.548810101130252860e+03,1.635872643371725644e+03,1.906235629560387723e-01,-9.159747810730319850e-01,3.530621159005258858e-01
1.611848589239172725e+03,1.573023818333243526e+03,1.576417841048453738e+03,4.452188228411123501e-03,-8.824266207430844222e-01,-4.704289925418284057e-01
1.537826065350091312e+03,1.615380992256610170e+03,1.499227367946161166e+03,-5.529001913983348391e-04,8.333485773337412361e-01,-5.527475399829545610e-01
1.626435799092497064e+03,1.598425965252162996e+03,1.409901492133229794e+03,8.836540591151577362e-02,-5.605033768656484394e-01,8.234242646171522351e-01
1.451103891943975668e+03,1.542231951695043563e+03,1.374586285712947301e+03,-4.784561521543265888e-02,-8.277678833480582865e-01,-5.590269478317947405e-01
1.472451866366934382e+03,1.621788079419583710e+03,1.683197269844712309e+03,-5.125500316788373506e-02,-7.261440526387770156e-01,6.856294476374196201e-01
1.539484727910944002e+03,1.496432752897065029e+03,1.526610617637685209e+03,2.792106627565041962e-04,5.155501978535476093e-02,9.986701166933641405e-01
1.535377805135784229e+03,1.497680120373769796e+03,1.515712829090833566e+03,-3.152220633593291884e-05,-5.909179315311712255e-01,8.067316760864621239e-01
1.554297990623560281e+03,1.700082778284340975e+03,1.494374144532111359e+03,-2.935229050439641236e-09,8.040808668983978613e-01,5.945199403619032541e-01
1.532015365879544106e+03,1.468500613106549508e+03,1.555247113533824859e+03,2.648999677303903386e-02,4.438073089226303725e-01,8.957306250306602546e-01
1.541615361078472688e+03,1.541565527218091120e+03,1.662746020121172933e+03,6.979987631670311332e-01,6.949789120957041710e-01,-1.726326688653292418e-01
1.555451905761105309e+03,1.631495206714366532e+03,1.400765690177713395e+03,-8.141493888853890137e-01,-2.015003457245490293e-01,-5.445717429783103469e-01
1.488596835563912691e+03,1.594335417711886066e+03,1.378256384755689851e+03,-3.143577726686000440e-01,-4.641688044641176791e-01,8.280860533333407325e-01
1.532739100639505295e+03,1.507675354641041395e+03,1.399538892704273167e+03,1.051643129016011924e-01,-2.368568617898254014e-01,9.658360597508304224e-01
1.382239799200244761e+03,1.631531962813024847e+03,1.424632627721337940e+03,-1.797315105198196011e-02,-3.056810157596538957e-01,9.519643283471334039e-01
1.516887246700659489e+03,1.546437038324478635e+03,1.666749128743166239e+03,-1.872555335017455150e-02,7.612223529474790862e-01,-6.482205512206731246e-01
1.441320775521689256e+03,1.625345957708669630e+03,1.418260399366910178e+03,9.573967771963350082e-02,9.842319828719762187e-01,1.487323703907079409e-01
1.643222179233701581e+03,1.601448881141089032e+03,1.421493955543801803e+03,2.036047323546484253e-02,-7.682024982475227359e-01,-6.398830930848952159e-01
1.577231856393086446e+03,1.468642757696060244e+03,1.453794062815625693e+03,-3.291186909879791761e-02,-8.279557161968165158e-01,-5.598268847504914714e-01
1.535599732807419059e+03,1.524987564554841356e+03,1.484934772496249934e+03,8.141798224212584145e-01,-5.056168340799567229e-01,2.854169473893409248e-01
1.667142539773318731e+03,1.574895320004287896e+03,1.493657097911474011e+03,5.499690842148043102e-02,-9.164432795161729928e-01,-3.963673239480278720e-01
1.502563583384127696e+03,1.464171777497199855e+03,1.613296777756658457e+03,2.252052157548020683e-02,-5.779174051839237602e-01,-8.157844684066061225e-01
1.658518368144632859e+03,1.515219995943841013e+03,1.419657892451006546e+03,2.647931892921277786e-03,-1.939771612208557594e-01,-9.810024716489702534e-01
1.528070830374557772e+03,1.533377559621196951e+03,1.476724569016975238e+03,-1.024234653978100401e-01,4.909130695638559971e-01,8.651669156106793768e-01
1.565367387489482553e+03,1.563919685357896697e+03,1.384039020951226121e+03,-1.485933903274541581e-03,-4.601673140666797668e-01,-8.878309721253775377e-01
1.502898716812557268e+03,1.623125356574069656e+03,1.467421062279370062e+03,4.969411599685393622e-05,-9.670205697068021689e-01,2.546982828650925512e-01
1.622559767218536990e+03,1.677500962524268289e+03,1.520602886252692770e+03,-7.524634822583167910e-03,8.966877867372570199e-01,4.425995853895778875e-01
1.489257334579973758e+03,1.405599702437109954e+03,1.606604595581372905e+03,-1.921537283799909235e-01,7.479399894914386948e-01,-6.353445654046434576e-01
1.375894269915094583e+03,1.394178781560027119e+03,1.507835772094455251e+03,-1.632705131265288490e-01,5.159977748923247898e-01,-8.408858637470187913e-01
1.551718097949874164e+03,1.600649745167393121e+03,1.650520197631039764e+03,-9.235164955898936961e-03,-6.840675341341789784e-01,7.293602131127122634e-01
1.445404757714267589e+03,1.546235355153113915e+03,1.453756052735836192e+03,2.060253332385879668e-02,5.675745570446140142e-01,8.230641881507476665e-01
1.596176796294010501e+03,1.692851989970682553e+03,1.380149529724924378e+03,-7.857013957845927071e-03,-8.994865748892367785e-01,4.368777505500775482e-01
1.511912466044135726e+03,1.519792127811502723e+03,1.565827300110995793e+03,-7.785078956999834376e-02,-8.709972856320277179e-01,4.850803881677425711e-01
1.560138475144131917e+03,1.602411274290409438e+03,1.447291559536539125e+03,1.273358111711797190e-04,6.603176993318156107e-01,-7.509863645464737170e-01
1.467465639384010274e+03,1.512918606009333416e+03,1.498025016005824227e+03,-8.639771971914162984e-07,9.927273320281584379e-01,-1.203845681285939662e-01
1.558815927763221680e+03,1.476557041349378324e+03,1.464037763717113194e+03,-6.498597071052034102e-02,-5.097944454833147621e-01,-8.578382405588893533e-01
1.545440118351681804e+03,1.559491719008497739e+03,1.524466670133430398e+03,-2.608013891318090582e-01,6.011817554436078570e-01,-7.553562949685802552e-01
1.471900454522328118e+03,1.431817970238233556e+03,1.504331637652783229e+03,-5.884184727445182506e-02,-5.999986369717541512e-01,7.978341134856087313e-01
1.486184891187452195e+03,1.552525838428222187e+03,1.399816605851777240e+03,-3.264355257351769096e-02,-5.669220932604148722e-01,-8.231243761720395957e-01
1.467179724674982708e+03,1.515921214998442792e+03,1.406368456497568332e+03,1.110175394551632562e-02,5.914134211118454720e-01,8.062920788325507182e-01
1.440848644427271438e+03,1.505643008987924304e+03,1.433053663347721567e+03,5.918096968978774249e-03,-9.738700139260630939e-01,2.270290115908440709e-01
1.514549261369906617e+03,1.493656404133950673e+03,1.448379237224670533e+03,-5.136641017989998330e-04,-4.505063739677052093e-01,-8.927730636414052956e-01
1.566599099288469461e+03,1.347164482795726826e+03,1.497681712791728842e+03,7.648643840613144305e-03,2.755214735788892311e-01,-9.612644879762889394e-01
1.567009371663316415e+03,1.573607634317258771e+03,1.367967245813838417e+03,1.280971410149051059e-06,-4.352204194466626763e-01,9.003239342009241586e-01
1.623370046408829921e+03,1.640285094711383636e+03,1.558200667041098313e+03,1.389939635403275309e-01,7.250460649303571703e-01,6.745286367741213374e-01
1.589138190795424862e+03,1.699800834042994211e+03,1.600619528211476108e+03,1.340006883261849260e-02,-9.560083183223964109e-01,2.930333316427755630e-01
1.498456150895138535e+03,1.634772543777984538e+03,1.525687671215147930e+03,7.683294740104758584e-05,-9.449651111349032240e-01,3.271711063564416988e-01
1.470823429796916571e+03,1.602771830455117879e+03,1.736571221687377147e+03,-8.701490520872720569e-02,-7.243418713683573706e-01,6.839278175758772838e-01
1.502768973537629790e+03,1.445175710334226096e+03,1.639409064373357296e+03,3.871433898564661993e-03,6.388280458126953665e-01,7.693398078110229577e-01
1.571000343411116319e+03,1.668886411206650337e+03,1.568526702270845817e+03,4.152176842999928397e-01,2.130117038365828275e-01,8.844321843268636574e-01
1.283128376631757419e+03,1.577548662869319287e+03,1.400688995247788625e+03,-3.879781573352056919e-03,3.150413854671502145e-01,9.490700041292431388e-01
1.654554687778498419e+03,1.573567140366979629e+03,1.560276690619694818e+03,1.554126291982040921e-02,-9.495886282301784220e-01,3.131132483348237350e-01
1.520478388168494575e+03,1.439674093397815568e+03,1.524428288204492219e+03,5.570140825865716426e-03,5.915818389127314170e-01,-8.062257136806113555e-01
1.389482646456902330e+03,1.393558519240083342e+03,1.531301052902586889e+03,-5.946882858357718156e-07,6.615717438460037014e-01,-7.498818758605945156e-01
1.488005619729582349e+03,1.623325993377647137e+03,1.337255431753219682e+03,3.182996207073212194e-06,-5.833223346962745914e-01,8.122407610027682079e-01
1.469337350097624267e+03,1.517353489336582470e+03,1.571830175780875152e+03,-5.624861443167331054e-03,7.341556369469948162e-01,-6.789579233448104212e-01
1.474711542572356393e+03,1.503302147085751585e+03,1.590277316699547328e+03,-8.896139365327250179e-03,-5.963534285512138711e-01,-8.026726898055053239e-01
1.455483881321839817e+03,1.466420077990205300e+03,1.545954968228194730e+03,4.476759018110890685e-03,8.425510926560122460e-01,5.385978229559175157e-01
1.616641334503774942e+03,1.608553772633033986e+03,1.379956317352350879e+03,-1.137238981224959929e-02,-9.106482237515683975e-01,4.130260056316931716e-01
1.452683367296198412e+03,1.483637765075732659e+03,1.543752350204963250e+03,-3.721233585569716507e-02,-4.527590282227731966e-01,-8.908560514600172286e-01
1.585983890109116146e+03,1.633445677642845794e+03,1.670833965687609634e+03,-1.348845695092534824e-01,5.100709408687406077e-01,8.494903108273696990e-01
