x,y,z,nx,ny,nz
1.500403119843728973e+03,1.490761581171510670e+03,1.475658409488861480e+03,-4.039664224643470486e-04,9.989024845218781312e-01,4.683655866039426741e-02
1.536139619903043695e+03,1.556358579888736358e+03,1.448681803018498840e+03,-2.612340431560132223e-02,2.302986600513926840e-01,9.727692917262020789e-01
1.480944920969206123e+03,1.597208179249360683e+03,1.458023725832709260e+03,-1.209519743855571450e-04,9.998567576745051033e-01,1.692481914958084838e-02
1.604523107791306757e+03,1.539218116394028357e+03,1.531292338942975903e+03,-1.065305576870572285e-01,9.643384181715397574e-01,-2.422863089761723154e-01
1.490311942078293214e+03,1.446169151950892683e+03,1.334598037046997433e+03,-1.412753645532907609e-02,9.754567919392174158e-01,-2.197372516742523985e-01
1.623744345400125894e+03,1.466545989596123718e+03,1.475883980234365254e+03,6.519585406256463989e-01,6.660962202456793824e-01,3.623063436923192882e-01
1.517129997028656135e+03,1.496204321403534777e+03,1.394473424976722754e+03,-4.110783914951799400e-01,-8.955340367955434422e-01,1.703917397833999703e-01
1.469565045403328668e+03,1.426110136335749758e+03,1.466689093634838628e+03,4.489375982229407147e-02,2.440095447425749409e-01,9.687331378679783223e-01
1.553288804426557363e+03,1.574295995420341796e+03,1.587052288133361799e+03,5.901779820725798313e-04,-8.204890126116887172e-01,5.716619909294701207e-01
1.545300497822307761e+03,1.441938866621318766e+03,1.443178974771048615e+03,-5.772141791960632567e-02,5.767292647810764450e-01,-8.148936084289956083e-01
1.466616535970717678e+03,1.426535568843539295e+03,1.487722394476316140e+03,3.521513043370858703e-05,-9.622101106892282374e-01,2.723081005907054264e-01
1.461523064829052146e+03,1.577456421209450582e+03,1.260730510506916971e+03,1.175603098880702128e-02,8.809737547478185826e-01,4.730190685172434573e-01
1.430023695182085476e+03,1.508603618272571111e+03,1.455399215537190685e+03,4.014599862873956537e-01,1.475194220789477761e-01,9.039180823059230763e-01
1.445724262361921774e+03,1.355093276325097349e+03,1.425609144978052427e+03,-1.209225280357588026e-03,-9.830841331920924242e-01,-1.831505523883937281e-01
1.352182572824361841e+03,1.537932623220939377e+03,1.470944680396220519e+03,-3.132634957604975567e-01,6.914171912105271378e-01,6.510055682730050419e-01
1.548625937903168506e+03,1.569587598207596784e+03,1.334558178152023402e+03,-5.195089356734143918e-03,-8.854590321297710620e-01,-4.646884047040387711e-01
1.433665461459017479e+03,1.391120724104252986e+03,1.461035426631443670e+03,-6.972383360630140137e-06,4.574290788556001353e-01,8.892461064118881708e-01
1.468652212562880550e+03,1.427668196639625876e+03,1.378366952030932453e+03,8.181861862089412352e-02,-3.454701827577426609e-01,-9.348561742173501221e-01
1.507750951966248294e+03,1.433490994711562962e+03,1.493278013538120604e+03,1.200673889015420235e-05,3.570562924821439332e-01,9.340828677664224644e-01
1.526343791938590357e+03,1.541476213170603842e+03,1.498211550571847965e+03,-4.290001717641435636e-05,-8.754911866409976762e-01,-4.832340843458027280e-01
1.496300256164426855e+03,1.555361583755407992e+03,1.486121083742207247e+03,1.028436045391663712e-03,4.075401115833652277e-01,-9.131867277670645544e-01
1.450939759840261559e+03,1.468516702867852928e+03,1.522701805303374158e+03,-5.098667246685908427e-01,-3.895636713168595944e-01,7.669915704007790325e-01
1.582681269808611887e+03,1.424417120284593466e+03,1.456461701905111113e+03,1.335358786119990870e-01,6.041176690403843308e-01,-7.856271450736246331e-01
1.552382159382770169e+03,1.484314561054318574e+03,1.456904154783774857e+03,-8.516604755466977705e-01,1.389363696905657752e-01,-5.053425764457009084e-01
1.411268709368915552e+03,1.462563144193392191e+03,1.441515205278985832e+03,-1.118400322017039271e-07,9.836079596203137765e-01,-1.803202200851324044e-01
1.489377999130953185e+03,1.599774887152331075e+03,1.436423925339941434e+03,9.219667845740590895e-02,8.389223426773707581e-01,-5.363851931570574605e-01
1.617944225990687755e+03,1.589363084983575163e+03,1.413010957420612613e+03,4.399664528676945911e-08,-3.089853213611315486e-01,-9.510668068981045220e-01
1.427910329863071638e+03,1.386118141722105520e+03,1.543737841013841489e+03,-2.034725242587194071e-03,7.858782881549541965e-02,9.969051173784060360e-01
1.611071027693184760e+03,1.633051568726093592e+03,1.413092476260322883e+03,7.662739786101283035e-02,2.193639152708042050e-01,9.726292791059260034e-01
1.515343486378448233e+03,1.487050567859248531e+03,1.417032864865282136e+03,9.675052011875686806e-04,9.961579193491768569e-01,-8.756976448297942861e-02
1.653556871786994407e+03,1.614786097291304259e+03,1.388302012435819734e+03,-4.579714827994513585e-03,9.999865854884611993e-01,-2.419722137528497290e-03
1.458016675580682204e+03,1.631825276772191501e+03,1.470746865880853193e+03,5.345043677763381407e-01,-5.839185975445386756e-01,-6.110189459170934922e-01
1.488510391691210316e+03,1.416620699873373269e+03,1.470339037787652842e+03,-1.117439853299730806e-02,-4.969691228091968060e-01,8.676962739298141880e-01
1.560979876152175848e+03,1.545533978065729116e+03,1.417184383992429730e+03,4.195983358714863612e-04,2.438831790414652256e-01,-9.698045261380590087e-01
1.511690992782423336e+03,1.598281176966714611e+03,1.507000329672501948e+03,1.144457814151055020e-01,9.932872019097866989e-01,1.681361467718267208e-02
1.443998904922358406e+03,1.379737072651867493e+03,1.429866930607276799e+03,1.541898868157391862e-02,9.466913875339368900e-01,3.217727016965654663e-01
1.433615516732440256e+03,1.441930220102212161e+03,1.507449127866216259e+03,1.596114466957068050e-04,9.999305688597077690e-01,-1.178269850616413261e-02
1.473413261903772309e+03,1.499641150070983940e+03,1.452447892768657766e+03,-1.146158541409147136e-01,1.434116717324984691e-02,9.933063660843303166e-01
1.385347452009724748e+03,1.436721713311642134e+03,1.386119475069970804e+03,7.914438322086745498e-03,9.722996670113287498e-01,-2.336037653714196083e-01
1.488526095980999571e+03,1.490110532652147867e+03,1.478955266563523992e+03,-5.623517032017654772e-03,-7.780558404846279474e-01,6.281699492525488759e-01
1.516646243196037403e+03,1.532845746243068106e+03,1.523861323856551280e+03,-6.340443715823456117e-01,7.619261766184850515e-01,-1.321220505755411889e-01
1.462629900518188151e+03,1.455154925134850600e+03,1.444988259578934503e+03,2.681157059884678798e-02,9.960972487788558594e-01,-8.409168007132007683e-02
1.475186994951549195e+03,1.553800693665619292e+03,1.462459029577098590e+03,-9.138716385794113220e-09,-9.044082114558052998e-01,4.266682400311879730e-01
1.398595611754142055e+03,1.512915352551776323e+03,1.503842515048535233e+03,-2.288077607866659258e-02,9.938812566410240024e-01,1.080579371619546786e-01
1.456248623555188260e+03,1.325809918680896772e+03,1.417274493625330706e+03,2.544495769616166025e-02,7.044700722729820841e-01,-7.092774290780300417e-01
1.304650494014407059e+03,1.531352755729888258e+03,1.471082014180041597e+03,2.587060931693878699e-03,5.209116986868459476e-01,8.536066478694506188e-01
1.449066996731148492e+03,1.501329405689030409e+03,1.503837242083677666e+03,1.474420795741359369e-01,-8.708796687137933257e-02,9.852291709024169064e-01
1.418677026622027824e+03,1.627468083074651304e+03,1.433223418880188547e+03,-6.939102046474660002e-01,-4.031221239618441032e-01,-5.966415850899127182e-01
1.350116083240895932e+03,1.559320095324844033e+03,1.449053239593048829e+03,-3.773067346479938577e-02,9.703032130933407773e-01,2.389311008232953559e-01
1.471905957580682298e+03,1.446552309619360585e+03,1.479406600782512214e+03,2.380222549930181841e-02,-9.790560428577088636e-01,2.021947551374281560e-01
1.356611117158226762e+03,1.576616654800156084e+03,1.449762330045489080e+03,-2.309502043916388803e-01,8.214935013419427667e-02,9.694913549712497192e-01
1.580209624142534494e+03,1.428421408439048946e+03,1.458765024915987624e+03,-1.664489959611397838e-03,-2.034402312554813852e-01,-9.790859521920896036e-01
1.388614969760706799e+03,1.517923219791714246e+03,1.463963160390286703e+03,2.127398471354103038e-01,-4.014470047262896912e-01,-8.908322287822172392e-01
1.494986458905131713e+03,1.599679733480409141e+03,1.384790965717350446e+03,1.555010853467655649e-02,-9.987691334469399607e-01,-4.710002333554051679e-02
1.560908051029130547e+03,1.531587140541615781e+03,1.444478873770613518e+03,6.091947542777001456e-02,9.833948753320477243e-01,-1.709483450761417611e-01
1.499241335711565853e+03,1.585337935345571623e+03,1.231623761013660442e+03,1.512218542888256120e-03,5.824444167548762374e-01,-8.128691251278712393e-01
1.480934470110520806e+03,1.420254396852935542e+03,1.477082924105483926e+03,3.989599663982199701e-02,-1.357748490716478573e-01,9.899361089543540215e-01
1.440508725537585406e+03,1.479992020836728670e+03,1.442736257747774971e+03,-1.996423271547864142e-01,-3.084778838511094690e-01,9.300453410361038120e-01
1.526578035742276825e+03,1.475731510964566041e+03,1.512953670584708334e+03,-1.342560707443468115e-01,3.025401195933260373e-02,9.904847309417008638e-01
1.474055721826102172e+03,1.480093690047964856e+03,1.562987826119320744e+03,-2.782829348958384963e-01,7.541220543456934877e-02,9.575341285913796519e-01
1.321162648911531051e+03,1.382005125405739363e+03,1.508643629656940448e+03,-2.290019423034404811e-02,-6.916868459160070426e-01,-7.218343911805383817e-01
1.397347634394927582e+03,1.570889502527621971e+03,1.536059007975868099e+03,-4.319416267687261474e-02,-6.958232702638633693e-01,7.169129939329781376e-01
1.422036026163270208e+03,1.439191755441169335e+03,1.481418428948456040e+03,4.827794594912770965e-01,2.854232067249490856e-01,-8.279236598601089625e-01
1.412838242985599209e+03,1.413732859526968696e+03,1.415775274578179051e+03,-6.183934731630774716e-04,-1.972510432735823105e-01,9.803528158357049938e-01
1.380292636585564424e+03,1.580176930531153403e+03,1.523511591376180604e+03,-7.488759933648875277e-05,-8.627456170512183276e-01,5.056382052918469983e-01
1.604941660318629147e+03,1.632685874481622250e+03,1.422943099970862249e+03,6.972968593822619131e-05,-9.934894873128359283e-01,1.139238067159333845e-01
1.478903798690327903e+03,1.550711964374851959e+03,1.444797412083544486e+03,5.199317824357245765e-01,8.443567751993706905e-01,-1.293544656675209570e-01
1.432283374166633848e+03,1.530355275938792602e+03,1.409831841047474427e+03,-5.307141156193888598e-01,6.753068899535964037e-03,-8.475239958507181370e-01
1.456447941118795825e+03,1.417167697638723212e+03,1.542754083639586952e+03,1.132653196895287793e-03,9.245182982747059963e-01,-3.811359773781232696e-01
1.457246926790977113e+03,1.412420097429829411e+03,1.499050370475361206e+03,1.832452600752254301e-01,-1.583417625522997585e-01,-9.702314470742504637e-01
1.550223977050758094e+03,1.496093542415679394e+03,1.477005544877187049e+03,-3.441665889942372835e-03,9.999809228398388594e-01,-5.129219461692957269e-03
1.456827467833306628e+03,1.506131168275398522e+03,1.396426825661680368e+03,-7.533213530764014549e-08,9.839847154935680296e-01,1.782528532030731583e-01
1.436385232617563361e+03,1.445074564333749549e+03,1.502119147242985719e+03,-1.994318902533033858e-02,-9.981501617107912949e-01,5.743277712440219424e-02
1.454891186800645983e+03,1.553405458655576012e+03,1.509177620839289375e+03,1.749334435359241671e-03,9.847322355867814681e-01,1.740671250560902883e-01
1.531969064924065833e+03,1.504774880433185899e+03,1.475443054856497156e+03,3.352447939764672397e-02,-3.261041692794704461e-01,9.447392127246879712e-01
1.480739386367711631e+03,1.535691649972720597e+03,1.539361434607246792e+03,-6.875709814203961878e-03,3.237421118729491565e-01,9.461203779723771357e-01
1.440806688472285032e+03,1.373025290247015164e+03,1.413703410846640509e+03,3.221002456985228837e-05,-9.888658842963189421e-01,1.488094816783311347e-01
1.464592967287269403e+03,1.515204584832185219e+03,1.409017034409539292e+03,-7.573167144167137765e-01,-6.415385146273532291e-01,1.220644432863357554e-01
1.267796062775963264e+03,1.565606053002579074e+03,1.446985266473474212e+03,2.024069931898827430e-06,4.192812565903304978e-01,9.078563916545042689e-01
1.510563565238153615e+03,1.552638530860247556e+03,1.522235870873334761e+03,6.221972326927414053e-03,9.536932008090904800e-01,3.007167534256696695e-01
1.578174574698913375e+03,1.367571613527001091e+03,1.458013987572731139e+03,-4.116619513805595126e-02,5.295762318832968329e-01,-8.472628629900782471e-01
1.532735996302829335e+03,1.563610988060438103e+03,1.348263410421498065e+03,1.088944154832825889e-01,9.578986714110335754e-01,2.656541766762402501e-01
1.389528651712659212e+03,1.582500161466670761e+03,1.469584323131908604e+03,-4.693237645607816200e-01,8.641371738166044869e-01,1.816649356555836148e-01
1.463090020785347861e+03,1.478858663219227765e+03,1.470881627929851447e+03,1.533538641677605063e-01,1.362963207075042760e-01,-9.787266754852516071e-01
1.463957658773635558e+03,1.588272831816836970e+03,1.433938421390060284e+03,-1.486860326339167759e-01,-9.320845542940981998e-01,3.303193111913955149e-01
1.612054622444617962e+03,1.505653231396256160e+03,1.492722780446337993e+03,7.047752332826693122e-06,-9.920070411963040069e-01,-1.261825271869429776e-01
1.282666904012978421e+03,1.643024005801322346e+03,1.426236429709678305e+03,4.101273096973478277e-02,-4.569015187328255845e-01,-8.885713016286546084e-01
1.400781122867944987e+03,1.518770400052382001e+03,1.500136079597505159e+03,-2.639817814191836379e-02,9.956127184037102396e-01,-8.976887625208251897e-02
1.511460926067038599e+03,1.487276708945661994e+03,1.578616346551013748e+03,-1.011233040464199484e-01,1.096918403664223080e-01,-9.888082612598676491e-01
1.356323048609406669e+03,1.631000707759486431e+03,1.413235165075769828e+03,-5.574459526651573404e-02,-4.743198639300870711e-01,-8.785859131467541605e-01
1.430259980927017295e+03,1.519333223356287135e+03,1.467921227019022808e+03,2.143811288557069261e-01,1.347210124302343215e-01,-9.674145855838258701e-01
1.288771937899236946e+03,1.489274220759688660e+03,1.494671397977168681e+03,-4.330903647728117506e-02,-9.904605966868033073e-01,-1.308133547090322146e-01
1.429852582551661044e+03,1.374254724943428300e+03,1.471270235152263467e+03,3.601310690877221245e-03,-9.998226890598714833e-01,-1.848299224679978217e-02
1.434927537959492838e+03,1.572962267761742396e+03,1.474672610633014074e+03,6.864557066112739747e-01,-4.266912895568150677e-01,-5.888234933128593251e-01
1.575565485907621905e+03,1.600287178864828775e+03,1.406115882536365007e+03,1.105872719751715001e-04,-7.859662445014262699e-01,6.182693994326257103e-01
1.336273872968280102e+03,1.531693472970280482e+03,1.558843778617289672e+03,-2.497800478887917709e-03,-4.782395402420394626e-01,-8.782258838942578194e-01
1.376754838971219215e+03,1.423935387623448833e+03,1.493200083222140393e+03,-3.492462581586873727e-01,9.362157070330004993e-01,-3.907941999127382410e-02
1.475007527444856578e+03,1.490445451668174655e+03,1.360805417821530455e+03,2.462057970062940179e-02,2.076728234608812562e-01,9.778884524581475945e-01
1.444991469260995700e+03,1.497887941343024295e+03,1.484056646185403451e+03,-6.904975169397899219e-07,-4.230625654434664318e-01,9.061004721993669575e-01
1.421612269867967825e+03,1.536561460102652291e+03,1.389477095030607416e+03,2.947462903960290301e-02,-9.896133227422977408e-01,-1.407008091445344222e-01
1.533341167574618567e+03,1.402714657582440850e+03,1.405458622363712038e+03,5.279070174977656266e-02,-8.788067953637099805e-01,-4.742486249124319153e-01
1.480373720471435036e+03,1.564970897845350692e+03,1.410029169495244560e+03,1.095767899600378764e-01,9.792920540283911457e-01,-1.702351315648689689e-01
1.544602805819887408e+03,1.567369546494065617e+03,1.409493730117054383e+03,-3.417414216519311099e-01,-6.690687194944617833e-01,-6.599695821182658406e-01
1.409672201468835965e+03,1.491902340939096121e+03,1.495356197044668079e+03,3.516239806616830443e-01,-8.954144736404038296e-01,2.731181001305312273e-01
1.396598898374777491e+03,1.504459010798715781e+03,1.499590490090034109e+03,-9.618360370106786641e-03,9.996754120099250462e-01,2.359147656628311426e-02
1.423311520075409589e+03,1.438487080674835624e+03,1.501042794929008323e+03,-2.978247594824475470e-05,-9.870290376153300071e-01,1.605418263791702493e-01
1.516423971887576499e+03,1.541898680851199288e+03,1.533533307386448769e+03,-6.260074634949323036e-01,4.575826954711217365e-01,6.314528742938966266e-01
1.307988619039825608e+03,1.569526220763725405e+03,1.451994649122835199e+03,4.665211405821049345e-02,-3.453167038766384311e-01,9.373259594600341638e-01
1.434026608807695766e+03,1.463589563535122352e+03,1.418659064203084426e+03,3.428980575344757198e-01,9.389480231490665574e-01,2.824060841312298065e-02
1.332270119959536487e+03,1.394367272369619286e+03,1.427231005767806892e+03,2.547372228886721768e-01,9.635457126617766876e-01,8.178390358790703363e-02
1.425047314169527908e+03,1.384796360633020868e+03,1.474889613795415471e+03,-6.631644996341683053e-07,2.903799652261497832e-01,9.569114252608860172e-01
1.442785381106975819e+03,1.438670969237603458e+03,1.515869894738688345e+03,9.018181912065611951e-05,5.282229737354717791e-01,8.491056953555867759e-01
1.534847606585605490e+03,1.457968281019072947e+03,1.543852045758827444e+03,-3.373841953522120889e-04,2.456842330752666004e-01,-9.693498562387693473e-01
1.541856605993460789e+03,1.590280440895314314e+03,1.325265804393459121e+03,-3.393749884734741681e-04,2.024225589297384276e-01,-9.792982142641504240e-01
1.355242275970137143e+03,1.579931714975210753e+03,1.581811508782648843e+03,-2.074513783411787967e-04,-9.149139398855272720e-01,4.036489063122399856e-01
1.533888096692013278e+03,1.365142039964300466e+03,1.529061376063275020e+03,2.886551855370332320e-01,4.637290518650474813e-01,8.376356906907233002e-01
1.391653506043173820e+03,1.537604712724559477e+03,1.579380627312099705e+03,9.192865656815098208e-02,7.766928406675367436e-01,-6.231351004054958009e-01
1.496855928257466303e+03,1.415789421342163678e+03,1.430404108511777167e+03,-2.560479227629152560e-04,-4.706428253585380750e-01,8.823237871541228516e-01
1.422391573073636664e+03,1.441807757191548717e+03,1.480505428900588413e+03,-1.421059841325718367e-07,9.998494973724432189e-01,1.734885022278259692e-02
1.485185134314918741e+03,1.448821395031838392e+03,1.423489674606969629e+03,1.057749064170312309e-02,-9.999418926810642594e-01,2.080373316379627302e-03
1.508355729549460875e+03,1.448073777591679573e+03,1.433965745521751842e+03,-2.337329523913891406e-03,9.969776546712573184e-01,7.765367329943900776e-02
1.360295674413468532e+03,1.306443551936411495e+03,1.497873991684507473e+03,2.430732088475080419e-02,6.966218189353132750e-01,-7.170266351640371960e-01
1.418312521766794134e+03,1.445389810245733088e+03,1.417864819005808613e+03,1.747443978624523345e-02,4.845767448877388861e-01,8.745741948332114157e-01
1.472374885823334125e+03,1.640642970402207993e+03,1.239487034485108779e+03,-1.984052434995568492e-01,5.708661175493116025e-01,-7.967102579897269443e-01
1.469330744143825086e+03,1.510638899796462738e+03,1.442494176206025259e+03,-3.869572761486495330e-03,-8.869759824930043002e-02,9.960510842679953791e-01
1.666381636670385433e+03,1.640181964190956251e+03,1.469212847430054808e+03,-5.181199714054444635e-05,-9.548186482974867495e-01,2.971890747973037761e-01
1.425365336979513359e+03,1.625334963619895689e+03,1.501579525499880447e+03,2.468088803361825345e-01,-4.287351246580496378e-01,8.690636164698455346e-01
1.501660755625362754e+03,1.506513870692912860e+03,1.375528463824692153e+03,-4.559158687034263083e-07,8.959425543750235699e-01,-4.441699441202094922e-01
1.326641086152473918e+03,1.550964456123032278e+03,1.529408176695198790e+03,-7.283514802653130206e-03,7.014002941394729129e-01,-7.127303682271302065e-01
1.540951428313871475e+03,1.560207863932053215e+03,1.473582652246665930e+03,-1.896324818870708984e-06,-9.714221929017334833e-01,2.373582169093614858e-01
1.276080835231389528e+03,1.502149789855278641e+03,1.497897678602269480e+03,-5.995995242662418567e-01,5.642453480032412205e-01,5.675452385109029940e-01
1.520860337447942584e+03,1.545904494634162120e+03,1.417909286267829430e+03,5.075601546380924950e-02,5.484487488720969639e-03,-9.986960234682140669e-01
1.462878626412080621e+03,1.447570211080908166e+03,1.508722921656771177e+03,-9.890280530274859171e-04,-9.817852231674268904e-01,-1.899915719014821092e-01
1.413701876494352973e+03,1.517217958029066949e+03,1.413594686036193707e+03,-1.580562127439660847e-01,9.742646354802136921e-01,-1.607067318616135498e-01
1.569130839893997972e+03,1.530623832784950764e+03,1.507889264177570794e+03,4.397722003316283795e-02,-5.824258633362354720e-01,-8.116933644149098015e-01
1.563097810525551040e+03,1.613396411250237861e+03,1.445504105316605546e+03,-1.721153128634683423e-03,-2.690487182953522211e-02,9.996365166918144141e-01
1.708313128769717878e+03,1.521975940166127884e+03,1.360124008755261002e+03,-6.806298678086916132e-01,-4.338448545936028911e-01,5.903572013530272722e-01
1.465531730692881183e+03,1.512600869853616587e+03,1.453532056082674671e+03,-5.368457576515102241e-03,-5.586310140587422701e-01,-8.293989207823642129e-01
1.465412681412287611e+03,1.485475262511081382e+03,1.479757366682808879e+03,1.273567117968178175e-01,-3.746842199606662538e-01,-9.183637641331290347e-01
1.343533073115380830e+03,1.436720192831947770e+03,1.497228837529399698e+03,3.515725277859310335e-07,2.642091813413666168e-01,9.644654003616726090e-01
1.401181550270926664e+03,1.547199440399852847e+03,1.349082561988276211e+03,-5.082784126092541818e-07,9.865658753696786576e-01,1.633639297880698782e-01
1.351432002616659929e+03,1.610016176826313767e+03,1.431432099027142840e+03,-1.195666505013564217e-02,7.489757723316630145e-01,-6.624894947250618005e-01
1.441271202685629078e+03,1.420268266910166403e+03,1.459249268488709276e+03,-4.373528760978537266e-02,9.577356071142648641e-01,-2.843057007574061323e-01
1.422464762039036259e+03,1.451201043436074087e+03,1.478495302618158121e+03,-6.562555540663084913e-03,8.864999728816858049e-01,4.626821057114120506e-01
1.504985888504353397e+03,1.439338915660666316e+03,1.453278988099823664e+03,3.768107263836645848e-01,-8.701177914471158736e-01,3.176613062514987984e-01
1.426160984314103189e+03,1.482375941498695056e+03,1.444843723888397108e+03,-6.127890393967007122e-06,-5.779232474373742212e-01,8.160911223839458772e-01
1.426964116776436413e+03,1.500943527878047234e+03,1.427651874649617184e+03,4.111789417320829698e-02,-8.436051489377152657e-02,-9.955865719793626223e-01
1.443006218991366040e+03,1.525189464297370705e+03,1.478205222151304724e+03,-2.595400715476362343e-07,1.687010018912071252e-01,9.856672724407743447e-01
1.358186286024168112e+03,1.598474239339584756e+03,1.459220079564138814e+03,-9.026133581917032342e-03,1.880777145385651716e-01,9.821126728672792128e-01
1.286142671719485179e+03,1.361259693117041024e+03,1.446564398617069401e+03,-4.023075427841630295e-05,-2.034384162170267130e-01,-9.790877433553104581e-01
1.379737416026911660e+03,1.541203522120812067e+03,1.299005700257757326e+03,1.259799579550791070e-03,9.298596985362546086e-01,3.679121551988805416e-01
1.511865667476946555e+03,1.474386761537767597e+03,1.489403451085539700e+03,2.379853429472005781e-04,-9.896869003701556089e-01,-1.432472778055145224e-01
1.483878117498081338e+03,1.484448852772466580e+03,1.432846767451449068e+03,-1.835504095468428951e-02,4.151973579127510305e-01,-9.095461760976309984e-01
1.392634356194398833e+03,1.531893880536073993e+03,1.428291538586333900e+03,6.658180616635674121e-02,9.977410575075044141e-01,-8.924418828840185655e-03
1.419940219989240632e+03,1.596848270887330500e+03,1.387255069337511486e+03,-9.831013636940111173e-06,-3.662922063317708976e-01,-9.304998761332290425e-01
1.545167998020531968e+03,1.436686598899580986e+03,1.489644535433589681e+03,2.329989272200961887e-04,-9.739252696974483037e-01,2.268689373983412416e-01
1.325578973739652383e+03,1.504544668380973235e+03,1.465684037192570486e+03,-4.544015620653400628e-07,2.438945723723061343e-02,9.997025329444088060e-01
1.521045802252699787e+03,1.498274133473720440e+03,1.579141763924174029e+03,-1.614777681079658891e-05,-9.564801481029611141e-01,-2.917974057872807503e-01
1.423212938794907586e+03,1.445702862144139544e+03,1.452808820178247515e+03,2.850201253863722922e-06,2.542642511865187416e-01,9.671347840711941313e-01
1.434222781248937054e+03,1.528214051532595022e+03,1.473031524316682862e+03,-7.663875483136134729e-04,9.362697669414754564e-01,-3.512809931685477172e-01
1.476738535958427065e+03,1.518258105469653856e+03,1.445636038700236440e+03,1.612245796389955022e-02,-9.775058229882560568e-01,-2.102913036082433573e-01
1.539974621182806231e+03,1.571238983998293861e+03,1.490519161397770404e+03,2.599253135216337274e-01,-7.626654031364948905e-01,5.922670970510925947e-01
1.385027865218228499e+03,1.491080183261667571e+03,1.485429712318372367e+03,4.719863396518765852e-01,8.566924627304435269e-01,2.081031462589433279e-01
1.432234489401054361e+03,1.408412999154925956e+03,1.597006813893076696e+03,-1.216300319990183737e-05,-3.910421910990265482e-01,-9.203727530911233190e-01
1.413341578064811983e+03,1.430889688154793475e+03,1.543628773764167136e+03,-4.602106443267045370e-03,-9.815391838412990122e-01,1.912057823404969270e-01
1.411811898513189135e+03,1.532408710217781618e+03,1.414979114243390313e+03,1.851488591171592999e-04,-5.670660071214337350e-01,-8.236723312624104620e-01
1.433737663293858304e+03,1.514479174114693251e+03,1.312007971540934932e+03,3.550913467543962019e-06,9.980263189693857617e-01,6.279702725295789600e-02
1.400670736121366417e+03,1.387174047215768269e+03,1.469826115310986779e+03,9.559279239329259055e-04,-4.327582900309224351e-02,9.990627051521339119e-01
1.414236797879866117e+03,1.559598248582269434e+03,1.398648000694177654e+03,8.607811959800759638e-03,1.201204978083880021e-01,-9.927220011561794788e-01
1.416645166229646065e+03,1.490720089169361927e+03,1.485084644956141801e+03,-1.276807963094658875e-07,9.999930038840060265e-01,-3.740612653852969528e-03
1.467636367377954684e+03,1.464620437053247315e+03,1.339268977243197696e+03,1.275630444890700488e-02,-9.996538673078703141e-01,-2.300917802151558958e-02
1.522518470095495559e+03,1.465233469673112268e+03,1.458452723998582314e+03,-9.234414403575956498e-02,-9.939302905922936526e-01,-5.979244522029183995e-02
1.489592183800578823e+03,1.489357772760168928e+03,1.443061939605965563e+03,1.015861791024425115e-01,9.822709141361393170e-01,-1.575566547547886664e-01
1.344725520511325840e+03,1.526320127163120333e+03,1.324689752571937106e+03,6.865104579971684773e-01,-4.227778189509327489e-01,5.915761209376273477e-01
1.408681155136367806e+03,1.634500274822597930e+03,1.232833407763200057e+03,3.600810979386989685e-01,-5.433752523499298936e-01,7.583435488226368815e-01
1.470828216290636192e+03,1.468634517458847995e+03,1.485507458762259375e+03,-2.496930006489700773e-02,-8.681408038243716430e-01,4.956894983650984576e-01
1.417997721952734537e+03,1.414636473990904506e+03,1.485499175979866095e+03,1.724101970354328245e-02,-6.455574106495310938e-01,-7.635171096937217738e-01
1.551561785710504864e+03,1.566573979749608270e+03,1.439309331916701694e+03,-6.810328047648018385e-03,-1.991096798037461368e-01,9.799535472869788100e-01
1.378992099737894023e+03,1.485658931016635051e+03,1.287575728323108251e+03,3.317635220534087548e-02,-9.974769187701886253e-01,-6.276245832564006366e-02
1.317560811220489313e+03,1.431743468321610862e+03,1.418727972458844988e+03,1.569518978128468410e-03,-7.111864571640166277e-01,7.030016783455582674e-01
1.519420176300348658e+03,1.551756281126441763e+03,1.409951877793318772e+03,1.942640550561960206e-05,-9.619379495021288529e-01,-2.732679654300054772e-01
1.416500004921463187e+03,1.451981266806339590e+03,1.429895776181778047e+03,8.316759786345528926e-01,-4.274416566998842093e-01,3.544131722720207378e-01
1.151062014872502004e+03,1.311239621865595609e+03,1.493365597273020285e+03,1.017291796041822419e-02,-9.662705342913546769e-01,2.573281296331021428e-01
1.408900816256772941e+03,1.437107592262426124e+03,1.435532879661714787e+03,-2.547125987485209398e-03,-5.341000995621449920e-01,-8.454174092109238980e-01
1.354852867217809717e+03,1.460611188766127043e+03,1.304572267659180170e+03,4.845306053504185306e-01,-1.428895506307663321e-01,-8.630253002081078595e-01
1.349988354544703952e+03,1.609766910506286195e+03,1.540344165658010070e+03,-5.269981354568613607e-01,5.114465192099978408e-01,6.787454774898827869e-01
1.589597378092285908e+03,1.522787409027385820e+03,1.447710977718014874e+03,2.027802716688625606e-01,-9.779319637736744175e-01,-5.029150675478982063e-02
1.578371327898006029e+03,1.469421309118463569e+03,1.420990193315215492e+03,1.730967099286347399e-01,-5.689720705051183325e-01,8.039330270594688965e-01
1.592928739154323239e+03,1.682578720047583147e+03,1.357346581538192368e+03,-5.753803401933374646e-03,-4.469791344926351551e-01,8.945258783705626326e-01
1.459124094678440088e+03,1.424059562586431866e+03,1.443975339652943376e+03,-9.306283862025219733e-01,-1.275571278396283592e-01,-3.430160141034153121e-01
1.493810861429121815e+03,1.533698941239724263e+03,1.407171937245563640e+03,1.823705797898019232e-01,-4.039618249560744667e-01,-8.964127484620516562e-01
1.440801654362939189e+03,1.663760629710529884e+03,1.503586851623237180e+03,-9.396760478178263140e-03,5.850449251438246678e-01,8.109464448753519461e-01
1.305824550507312779e+03,1.575035824012717285e+03,1.436323996981844630e+03,1.981947451202024230e-02,9.857035138718142075e-01,-1.673193687856411871e-01
1.513433376825831374e+03,1.489164382570985936e+03,1.423166289818673704e+03,-2.053735948399320332e-01,7.230064754039932096e-01,-6.596084619427030615e-01
1.461419274360027202e+03,1.484527559975492522e+03,1.356410432056588888e+03,-2.499655336355170211e-03,-9.251433679241147789e-01,-3.796096686192614866e-01
1.518427195074052179e+03,1.321616522181353048e+03,1.490598406976756905e+03,1.026715594751868160e-02,3.011810310781845579e-01,-9.535117052388140113e-01
1.533843389351744236e+03,1.489900229131684000e+03,1.555056290998841632e+03,-3.629108734345021792e-01,2.844896789989418556e-02,9.313894750148498103e-01
1.499307801375510962e+03,1.499507175601448807e+03,1.497590847144560939e+03,-1.331490186182282265e-01,1.539900915256143532e-01,-9.790599524814277421e-01
1.400605707983681441e+03,1.449486048762831615e+03,1.334340789559589211e+03,-6.224369119993877070e-02,-9.960911275362268613e-01,-6.267526265932148177e-02
1.543761248248371203e+03,1.412948689634078846e+03,1.507145898389953800e+03,1.753614202863817235e-03,-4.007229819977745633e-01,-9.161975859693359814e-01
1.474962071672013508e+03,1.391827360003926060e+03,1.402603291693028723e+03,1.724277924047067458e-04,-4.109761733665989042e-02,9.991551211488163275e-01
1.518289391296644226e+03,1.588889728503260130e+03,1.376374124430604297e+03,6.178458553705200599e-09,-1.738480710928155260e-01,-9.847724854895710811e-01
1.560497875817081422e+03,1.505436779204951108e+03,1.458015457895867257e+03,4.373570679587453214e-02,-9.982531172962595400e-01,3.972281157427736548e-02
1.478080301452792582e+03,1.543674367048743989e+03,1.386841018721143200e+03,-6.422264902011951687e-03,4.765442392844826958e-01,8.791270343461757841e-01
1.476709039538996421e+03,1.541665300549064341e+03,1.462731758062950803e+03,1.390836663401092133e-01,9.769294657025908712e-01,1.620634221514637985e-01
1.357915459200444502e+03,1.620819648347024440e+03,1.485395811080485828e+03,-2.947831861129707187e-01,-5.750550241899499149e-01,-7.631609216534753770e-01
1.596411754924261913e+03,1.480173344298293841e+03,1.293909492853708116e+03,2.775601436038570638e-03,-9.309531527356075253e-01,-3.651280918366879846e-01
1.516878298785081597e+03,1.409744328966343573e+03,1.467935226939175891e+03,-1.181207429099177938e-03,9.984300451261357567e-01,-5.600044409138322382e-02
1.449173447712652660e+03,1.446349764084342041e+03,1.422655489246367324e+03,-1.694850834415172073e-03,-1.231504768367756020e-01,-9.923865615452095446e-01
1.748265920213196978e+03,1.558583599329006120e+03,1.332725274227859245e+03,-3.330813784660396296e-03,-9.793817510882284472e-01,-2.019908198777540798e-01
1.344752378711802294e+03,1.544397415311946588e+03,1.529668365494896079e+03,2.732045414760609914e-01,-2.615865828577952357e-01,-9.257060754827296511e-01
1.341588735604535941e+03,1.525521461765231834e+03,1.260903122103068881e+03,2.425946821485556478e-05,7.640677765512710051e-01,6.451359796565956373e-01
1.317469930232270599e+03,1.662729475242432500e+03,1.480186409329098296e+03,1.124045155491222234e-02,-7.761411892138029289e-01,6.304589650838708925e-01
1.344671073298263309e+03,1.574557715089331168e+03,1.436967770108510649e+03,4.051583579137062463e-01,-9.069026556200071587e-01,1.156472145883673530e-01
1.525307624037919368e+03,1.485717409470930761e+03,1.498779541382335992e+03,-1.539257499717759103e-01,6.589688332672020143e-01,-7.362519543458534432e-01
1.551218146713361193e+03,1.605025671343948943e+03,1.538322994797913907e+03,1.600743520970178413e-02,5.652158935637158210e-01,8.247877034006857455e-01
1.469290150266755973e+03,1.400069434218959714e+03,1.544983898119865898e+03,9.850570421829829636e-07,2.452860726480126374e-01,9.694507427218485018e-01
1.427104091716155608e+03,1.597381037763825816e+03,1.261028994820452908e+03,-2.038397359144417456e-02,3.247489965811171941e-02,-9.992646668990247116e-01
1.420810803961913052e+03,1.464352728147014886e+03,1.462528734663672367e+03,3.410540837760049908e-04,-7.662925610009844180e-01,6.424917078349451360e-01
1.391147751911696332e+03,1.561409785006185984e+03,1.520945482411899093e+03,-2.625120583837830613e-04,-7.756249954757012954e-01,-6.311939460108418887e-01
1.431151925207743943e+03,1.515017008424910273e+03,1.510754373308019240e+03,1.482888631088299589e-03,8.463249190067325678e-01,5.326649345597618268e-01
1.365899740903330439e+03,1.718288643396839916e+03,1.518621713593789764e+03,-2.472320748061434677e-07,-3.169276457975896411e-01,-9.484497178707664844e-01
1.437095202239472428e+03,1.458807854112235418e+03,1.482377311428247594e+03,4.651976010920801791e-02,-9.469769619467828248e-01,3.179159408734062442e-01
1.649712520475876090e+03,1.626667470128983041e+03,1.404099265888069567e+03,1.500966982083367929e-01,-9.822345663191879295e-01,1.126332007656363626e-01
1.461484039387423536e+03,1.387519837165307081e+03,1.421139159542448851e+03,-2.523352879548170164e-04,-9.921917830947103445e-01,-1.247212968431682806e-01
1.621691777711459963e+03,1.541154643909455217e+03,1.399342127929736080e+03,-6.259113035543285852e-02,9.017350025558086291e-01,-4.277339541894062958e-01
1.536659307541587168e+03,1.460216896413526001e+03,1.419598521672500056e+03,1.221364135341876782e-06,-1.356715206609073188e-01,-9.907538738153212066e-01
1.436527970584116702e+03,1.536788605045543591e+03,1.544276699799567041e+03,-6.439744353548445795e-04,-9.988086165809858530e-01,4.879480239230133548e-02
1.315711468096711315e+03,1.566692997366864802e+03,1.414877692940711313e+03,-3.170149459271287551e-01,9.481515579954321593e-01,-2.258643685166470544e-02
1.518082501747525384e+03,1.492830704651461019e+03,1.393745518794716190e+03,1.834621361290421013e-02,-8.177103588989752536e-01,-5.753374534961016584e-01
1.523862068747530884e+03,1.561950006628775327e+03,1.586360402779714377e+03,4.177970443989387217e-02,9.935847523477283616e-01,1.050894675931823841e-01
1.550818460011078741e+03,1.654069335711293888e+03,1.329072381018326496e+03,4.096681217807194852e-01,-1.826958011258253689e-01,-8.937529156582654233e-01
1.460181261540785272e+03,1.476889120650009772e+03,1.417994089257298583e+03,-2.276512658252569377e-01,9.607597430668740612e-01,-1.584790751810230824e-01
1.405379428641859931e+03,1.544615764778302946e+03,1.396342111364097491e+03,-6.035055936131250576e-01,3.775792732626388482e-01,-7.022925963443779063e-01
1.490654449557440330e+03,1.438325865633223884e+03,1.423225387441712655e+03,-1.499214342699973779e-01,1.179978221692084064e-02,9.886274974357430745e-01
1.503286457254421293e+03,1.551592532456030995e+03,1.493905579269307054e+03,9.254934687640443969e-04,9.157311933608227594e-01,4.017903992976967764e-01
1.305099240470002314e+03,1.436139969512050811e+03,1.397034488958900283e+03,-2.646096031365045148e-02,-1.941172851118067033e-01,-9.806213832056187574e-01
1.449666692718021977e+03,1.529893074018320021e+03,1.467580107605275771e+03,-2.891421294706690223e-02,-1.497372520615759817e-01,-9.883029513437161517e-01
1.429451487005633453e+03,1.410811669682584579e+03,1.542708054898419732e+03,-6.180051004371138468e-02,-1.001108576629927971e-01,-9.930551410351375896e-01
1.285196659577979744e+03,1.560875394015684606e+03,1.444983668054455393e+03,-1.292623968636790084e-02,-7.150623987080769739e-01,6.989411121699894425e-01
1.573696657191196437e+03,1.614022930795041475e+03,1.477842242176679747e+03,-1.984985039882853353e-01,-9.659070698088666473e-01,1.661983044668685627e-01
1.579626788809859136e+03,1.478616829595264790e+03,1.449011177658470388e+03,-2.660617273105569600e-02,-9.902582484632956872e-01,1.366774045810465188e-01
1.501936720173271624e+03,1.483095008829693143e+03,1.445609705650868136e+03,3.721123771231581862e-04,-9.048593992958056109e-01,4.257103816427461052e-01
1.329568942872967455e+03,1.599617261978426541e+03,1.546053316883771004e+03,-8.498741459561603984e-02,5.996190632115973029e-01,7.957600884648584616e-01
1.410695601175023057e+03,1.529215366713903904e+03,1.472541201752088227e+03,1.310947108521294188e-03,-6.678869948259207323e-01,7.442615424432995619e-01
1.359371420362459730e+03,1.686151388488585553e+03,1.543839014049585785e+03,-1.828234062608868060e-01,-3.115860738871747415e-01,-9.324643267614814990e-01
1.464050600012426685e+03,1.569026750744785659e+03,1.544841203114756354e+03,1.037633604609013438e-01,4.879025747606366425e-01,-8.667088568647504099e-01
1.442357336374340321e+03,1.661258823878697058e+03,1.355901469511554751e+03,-5.086571311399544770e-01,-6.122815784749003898e-01,-6.052926495512361837e-01
1.394816678290423397e+03,1.405219964657822402e+03,1.590259402143496573e+03,5.272664624789308871e-04,3.024043340265075708e-01,9.531795952243532488e-01
1.646270756664010378e+03,1.545894807536860071e+03,1.347635463913348076e+03,-1.870232177373389027e-05,6.521221071818057435e-01,7.581139472236245735e-01
1.524095388307060148e+03,1.645347897819734953e+03,1.488721766798337740e+03,7.997746754433809717e-04,-1.440772206333761907e-01,9.895661245490520175e-01
1.565329387774050929e+03,1.537568638058851320e+03,1.438180961262789879e+03,-5.204869763391892743e-07,-2.473968944779974810e-01,9.689142256166806133e-01
1.429099889088590544e+03,1.448081092945532873e+03,1.354283804318409693e+03,-5.924357860247799756e-01,-1.215322192377476379e-01,7.963979904070258575e-01
1.491462784587263968e+03,1.401740309487539207e+03,1.516820390130515079e+03,2.433918060367299407e-01,-5.680445871519748668e-02,-9.682632298214428612e-01
1.521069050422077225e+03,1.554311168620302169e+03,1.408498801343521563e+03,-4.181884425133785175e-08,-3.601172397829907057e-01,-9.329070551834616198e-01
1.290731685088192307e+03,1.579332625294986201e+03,1.434864077811542074e+03,-8.284794854935154058e-06,5.786293170810401509e-01,8.155906530519407838e-01
1.569709308690320768e+03,1.536936610057142843e+03,1.462215255124016039e+03,-2.943933940968052326e-08,-6.129327182255500661e-02,-9.981197998383187775e-01
1.373482291357026725e+03,1.573583424302732965e+03,1.368185709349897252e+03,8.278113328601750115e-03,2.682615491279176645e-01,9.633105491476821047e-01
1.565440663962384860e+03,1.444937272433532371e+03,1.578461032212337386e+03,9.362798079592668521e-02,8.662791504029350165e-01,-4.907078915090389293e-01
1.387146322430150803e+03,1.583977418777272533e+03,1.566998070178566877e+03,-7.654731171427024607e-04,-9.989740815293838283e-01,4.527911752045373633e-02
1.569089885390723794e+03,1.552545895202551947e+03,1.430777270290157958e+03,-1.394404372310152672e-03,1.033446358062559967e-01,-9.946446309544524356e-01
1.586254708065291879e+03,1.518320344723568269e+03,1.389627826590301538e+03,-7.554964695368225408e-05,-9.875853429880131484e-01,-1.570833683350952859e-01
1.381267143481731182e+03,1.574830302644862513e+03,1.363979139446422323e+03,-4.321148623674067601e-02,1.722783340611038216e-01,9.841000676101707700e-01
1.546670585394535237e+03,1.516882791789412522e+03,1.381070693855652507e+03,-1.014431580072641984e-04,-1.859477400131913649e-01,-9.825596306043070660e-01
1.495861744998504037e+03,1.382603174501431795e+03,1.413552286149544898e+03,3.904501266299598719e-06,2.784172307119617620e-02,9.996123440820355865e-01
1.456859079119709122e+03,1.410279779461048520e+03,1.398994662108621696e+03,-7.939267806568400896e-04,2.143731622600887066e-01,-9.767515124036802998e-01
1.500998853934903082e+03,1.601176597452437136e+03,1.395300456333784723e+03,-7.745230449317495186e-03,-2.400574999299942835e-01,-9.707277724123524187e-01
1.472234679883447143e+03,1.448642674554708492e+03,1.599240160917131107e+03,-5.455651434789064030e-02,9.923517956536539453e-01,1.107316594528284653e-01
1.466301390824221471e+03,1.512132195838089729e+03,1.419110534988890777e+03,3.798932167917007385e-02,9.990135470464290846e-01,2.299443967720651849e-02
1.397118896111996719e+03,1.428248165070535833e+03,1.575363593916637910e+03,1.602378410771787128e-06,-3.444182590702161151e-01,-9.388163094112041973e-01
1.549159873717980190e+03,1.457389945197165616e+03,1.479130275089132510e+03,4.047818468205308107e-02,-5.723057155804723850e-01,-8.190407099032190885e-01
1.435417698724947741e+03,1.461512459130303114e+03,1.452616720717977614e+03,2.849811661140363994e-02,-9.862667943547162031e-01,1.626827209720648759e-01
1.523421616834493989e+03,1.466820899896305718e+03,1.346013252958700377e+03,-1.162372691608123260e-02,-9.273938592747575926e-01,-3.739057618599258559e-01
1.477667568904270865e+03,1.499839567722420952e+03,1.367348336711494312e+03,-5.731020459347109242e-01,-8.161685121308088764e-01,-7.364105343916575730e-02
1.457592969932998813e+03,1.509988428659716874e+03,1.481753830839104467e+03,9.770358777188645617e-06,9.993929947333721753e-01,3.483736474537207917e-02
1.632543336628180441e+03,1.645110240669431050e+03,1.387680292531399800e+03,1.555723201546085081e-07,-1.427211384815052497e-01,-9.897629396125714463e-01
1.475000550242806639e+03,1.440733186648639730e+03,1.451925416488069004e+03,-2.437307217339297968e-07,7.924590304641785377e-01,6.099251470760284066e-01
1.359935471746957091e+03,1.515308184197845549e+03,1.539609379677108336e+03,5.663491203660169643e-02,-9.731153025732175443e-01,2.232467124874221165e-01
1.536224296965108806e+03,1.599477261564274158e+03,1.445868997935290508e+03,-5.096024764045736181e-04,4.265653085225569185e-01,-9.044566202258523813e-01
1.433387342792626214e+03,1.440669051322493260e+03,1.543752171180027290e+03,-1.458687071743616312e-05,9.974449564264070700e-01,-7.143919573137910706e-02
1.576950945439440602e+03,1.573795411209292070e+03,1.476899126056220439e+03,-7.060746359683152118e-01,-4.436947513724058545e-02,-7.067460350919960721e-01
1.544100515575527652e+03,1.551436077053005874e+03,1.433105105637977886e+03,-2.189569141707988775e-01,-9.616285771777811631e-01,-1.653128830183464293e-01
1.422198624762588906e+03,1.532390322040693718e+03,1.471075615122762656e+03,1.810320022788834866e-03,-3.187484166884166359e-01,9.478376282887499560e-01
1.457693184319950433e+03,1.562827713723114130e+03,1.363393933218953407e+03,-1.543493304284141630e-06,-9.764687906131298556e-01,2.156587604437835703e-01
1.577991786987185606e+03,1.663194139035038233e+03,1.377156167993878626e+03,-1.461429966343771696e-02,9.157550020614808606e-01,-4.014712921800566714e-01
1.336912262949008436e+03,1.536952817887425454e+03,1.437621500349185226e+03,3.592533679691284341e-07,7.897324055340702031e-01,-6.134514876086307744e-01
1.587729401977916950e+03,1.505732928373725144e+03,1.487496216755036812e+03,2.098467955297694809e-02,-3.980737164389338001e-01,-9.171133842140535286e-01
1.568327257778466219e+03,1.457315959493423179e+03,1.499757539308443938e+03,7.848699289424132530e-02,-1.099169011534901208e-01,9.908370536002542028e-01
1.504437700277617068e+03,1.429790142562748315e+03,1.395530650603726826e+03,1.174040421593168688e-02,-3.454903606421898948e-02,9.993340417577497581e-01
1.413697447890282092e+03,1.419772259523344474e+03,1.528464413393057157e+03,-2.746553839599452998e-02,-2.711719473832250871e-01,-9.621389812043827927e-01
1.461947803531118780e+03,1.599279449749383502e+03,1.312537186834827253e+03,1.849399202356457163e-03,6.057518733452292858e-01,-7.956514611696100525e-01
1.467574162779062817e+03,1.495212669458533128e+03,1.492372891481890292e+03,1.758314788325837901e-04,2.721646074442217178e-01,-9.622506926669494032e-01
1.592558112404030226e+03,1.418497318652753165e+03,1.488794586616511651e+03,8.723243547360050274e-06,1.902471148108086652e-01,9.817362350601448462e-01
1.514533466412033931e+03,1.394952191499564378e+03,1.457909986892670759e+03,-7.005167940739158246e-11,-8.763027416010507054e-01,4.817608380332322193e-01
1.355064842792729451e+03,1.623214031510499353e+03,1.478734298234852986e+03,-2.030383049111319991e-08,-4.774930230777895690e-01,-8.786355404330244978e-01
1.322780307958560570e+03,1.544532256307679972e+03,1.406325003705311246e+03,9.890839683697681683e-02,1.568324410431862215e-02,-9.949729468128787335e-01
1.149916755942389500e+03,1.355628520299432694e+03,1.524443098922798754e+03,-2.423751138437128978e-03,4.801497041980469227e-01,8.771832117573540311e-01
1.457950014518879243e+03,1.405015442051078935e+03,1.516545561928076040e+03,3.912280748426718024e-01,-5.389759412168174807e-02,-9.187141246344214807e-01
1.576873180759523393e+03,1.447307130786523203e+03,1.530119045901279151e+03,3.208718530692405437e-04,-9.839199369249287397e-01,-1.786097835027473102e-01
1.631251121990695083e+03,1.565667506751402243e+03,1.433481477681509659e+03,9.991796195800610458e-02,-9.759396570086994460e-01,1.937993466343489735e-01
1.372129263849384415e+03,1.356988084956519288e+03,1.402118941833822419e+03,1.991309960894509790e-01,-2.618144473195671007e-01,9.443516514366736558e-01
1.465349262001045872e+03,1.554708323840291541e+03,1.507561991127680812e+03,8.498843670245524728e-03,-4.387490486951807767e-01,-8.985694419049329307e-01
1.391854788843615097e+03,1.445214211691045648e+03,1.460662506722778289e+03,-1.983824554416313611e-04,9.591580641031639543e-01,2.828705865060421876e-01
1.393368078666856263e+03,1.569644714864974958e+03,1.439541772688983428e+03,-3.805084357710313697e-02,-7.848480432013639208e-01,6.185189426250912170e-01
1.522348867642014284e+03,1.608002874153677794e+03,1.421817498619246408e+03,4.072829219712161275e-01,7.453106657894906784e-01,5.278566405104841985e-01
1.398350929192776448e+03,1.492538322264940234e+03,1.558611059502523403e+03,3.224182790909179142e-01,6.381474647796085697e-02,9.444438212196660798e-01
1.381340170815697547e+03,1.641196773711169499e+03,1.522231360515423376e+03,3.224999939116866832e-02,-7.309432975103715702e-01,6.816757538331066346e-01
1.477472565801471319e+03,1.468759083449999025e+03,1.467920389783636210e+03,-1.962919093105001400e-01,9.674718171825499313e-01,-1.595862440711383889e-01
1.259994592942255167e+03,1.425498330306237222e+03,1.380577107182704594e+03,-2.590491781083786166e-02,8.614796674563937051e-01,-5.071308685067741351e-01
1.417922243230493677e+03,1.513979535872872702e+03,1.448973218361521049e+03,1.533223667230172596e-03,-9.735372576427847591e-01,2.285232093389039376e-01
1.393865610921157895e+03,1.460383686754417340e+03,1.413316326348365237e+03,-7.732976599061434919e-02,-1.966604265019281095e-01,9.774174051754535020e-01
1.470950692705295296e+03,1.489203091337320529e+03,1.354172529875110513e+03,6.762632911774048815e-03,-8.077695621451704833e-01,5.894595840835061828e-01
1.390158541259841513e+03,1.381841541486291362e+03,1.390959747575196843e+03,1.818990174590851092e-04,-9.793603319738051205e-01,-2.021220103524245804e-01
1.391299004228485273e+03,1.429680534753196980e+03,1.479544100354919237e+03,-6.260902293036946752e-04,-9.946747672325092493e-01,1.030617069622768583e-01
1.436010850156795414e+03,1.458288940429162494e+03,1.519862976650217433e+03,-5.147694773730460138e-01,3.893787906512065633e-01,7.638039948547566960e-01
1.619834224515257802e+03,1.446929290627803312e+03,1.429396058800892661e+03,1.540765510966626006e-01,5.707941592151364318e-01,-8.065075599199570400e-01
