x,y,z,nx,ny,nz
1.430178376169599460e+03,1.405908199794134816e+03,1.446988507187532377e+03,7.233788251836648087e-02,-9.965066216126954313e-01,-4.173468383504901763e-02
1.477366154151822457e+03,1.465521638239103140e+03,1.572497168671508916e+03,-9.623637596059614330e-02,-5.704442008123032926e-01,8.156788422544644090e-01
1.473353410074333397e+03,1.452602124580376312e+03,1.660533431746936458e+03,3.455957614621882334e-01,-3.106391904067898335e-01,8.854755010968876627e-01
1.543681189907091948e+03,1.405331804945606564e+03,1.492962347808251707e+03,-3.667994559068945004e-01,-4.601004793580272811e-01,-8.085577951148079645e-01
1.313332046964640995e+03,1.440022085496258569e+03,1.440400467448469044e+03,2.536999378384221810e-03,-8.551087959797973870e-01,-5.184423889615270564e-01
1.352012460452393952e+03,1.536021324747910739e+03,1.653911863745981009e+03,-6.266575406685576111e-01,-7.291205877342749053e-01,2.751063344695294233e-01
1.442549036735848176e+03,1.448825124149040676e+03,1.625398923072553544e+03,-4.265481210453893370e-08,-3.215847587906566774e-01,9.468807965702723539e-01
1.563197258201239720e+03,1.562296520165149332e+03,1.619253128928420438e+03,-2.277654317458912420e-02,-9.854759756869592158e-01,-1.682805111260712305e-01
1.464367361773535322e+03,1.407227533558687355e+03,1.500266051661592655e+03,-1.189386768908095721e-01,7.816763766679695191e-01,6.122382161370671927e-01
1.621784245013639747e+03,1.483475318212590082e+03,1.485744397072491211e+03,3.445625368786535951e-06,3.535280254332275884e-01,9.354239334234563108e-01
1.436018631300428751e+03,1.626607742290731949e+03,1.462220487667002772e+03,-2.898908043836151416e-01,-8.621048026116905350e-01,-4.156183716436016029e-01
1.600216679180084839e+03,1.421637444610091734e+03,1.576402869320739910e+03,1.471567250332062344e-05,-9.701193073233365105e-01,2.426283770335592171e-01
1.535291244503067446e+03,1.531551219349882103e+03,1.550981470109681595e+03,-2.044973176719499120e-03,-3.512167895083611602e-01,9.362919335614005023e-01
1.492300755293456405e+03,1.503443106362263052e+03,1.491498407090945875e+03,1.152355812855147127e-02,9.965684804779606498e-01,8.196628164011376949e-02
1.454167537281652585e+03,1.599958581154767217e+03,1.530565368052926488e+03,1.339343075304941788e-01,-3.420808376558597819e-01,9.300765031840081409e-01
1.521131648815432072e+03,1.406130300448471189e+03,1.606420399793337083e+03,2.597459344249168911e-01,1.928511413654258322e-01,9.462243321875523083e-01
1.549711237418768178e+03,1.436406590224256661e+03,1.526896187404972807e+03,-5.172199423735239776e-01,-7.586031848081326023e-01,3.962382354216802960e-01
1.436444011067399970e+03,1.579616278411461735e+03,1.461574590084606371e+03,-1.679447931645519088e-01,7.268682344716180799e-01,-6.659257587486977492e-01
1.498592464239024594e+03,1.395484776536170102e+03,1.622405565598792919e+03,-2.244183427819672894e-01,-9.414514489470662273e-01,-2.516059949573243304e-01
1.519441632954557008e+03,1.476251644498562655e+03,1.459153251538081577e+03,-1.591985728503500768e-03,-4.435907744523063800e-01,-8.962280348227471549e-01
1.421257564047878986e+03,1.562787896601082593e+03,1.376346968517284267e+03,-1.443551132072398158e-01,-9.895258628771462783e-01,4.098635922593026385e-04
1.485078140193124227e+03,1.534450979515051813e+03,1.446796894814805228e+03,2.728301395985816436e-03,4.235497665291740876e-01,-9.058687276005142897e-01
1.530518207157800134e+03,1.354126980571573540e+03,1.520847028836783466e+03,-1.281440022030838344e-01,-7.023385472290387677e-01,7.002140242637099332e-01
1.454658674237416335e+03,1.571381303738876113e+03,1.401722845588416021e+03,3.643335171098632452e-06,4.962597590378057255e-01,-8.681740905754244952e-01
1.570874987153993516e+03,1.569863811567096491e+03,1.577338703017464923e+03,9.759639954561293582e-04,-9.304723823095337742e-01,-3.663607419654848485e-01
1.371888048118615188e+03,1.501213032350349749e+03,1.610293738623582840e+03,1.792243541538102447e-01,3.160129473195175676e-01,9.316729297369230611e-01
1.674858908521716785e+03,1.424127022935420200e+03,1.537123158442251906e+03,-3.754807668894698074e-03,3.563092368302601676e-01,-9.343605455972588958e-01
1.533386473733158482e+03,1.459773594935847541e+03,1.571784378315976255e+03,8.973408296368118840e-04,7.295487451761640922e-03,-9.999729849562321027e-01
1.534874049257018896e+03,1.466753581301768691e+03,1.484437277372386689e+03,7.514127254545984735e-01,-1.136485174251650188e-01,6.499714843837030021e-01
1.392566003759416390e+03,1.376994137285838860e+03,1.411134428859523268e+03,-1.163922461906620603e-01,-9.638403843039549113e-01,2.397176643710194066e-01
1.635943718688349463e+03,1.353325616334344659e+03,1.589359521975212147e+03,-1.724695586077397702e-01,9.825776412147876337e-01,-6.924904575830347075e-02
1.428694543317984881e+03,1.557881218179353937e+03,1.613259455904998731e+03,9.276855039859481684e-04,1.126894581953637314e-01,-9.936298231289363292e-01
1.542451646946388564e+03,1.423235469066518363e+03,1.592612821595291734e+03,2.799131572441935383e-04,-2.262217417078463411e-01,9.740757902890785358e-01
1.321845635439352236e+03,1.478460395203971302e+03,1.444896544176516500e+03,1.743526034270451382e-06,-2.654198766073150306e-01,9.641329208665773143e-01
1.615940707360733086e+03,1.575919580144771771e+03,1.488869355238003436e+03,1.174165013918442302e-01,9.630845781727395138e-01,2.422425653900147080e-01
1.496544450316248685e+03,1.588188363036205828e+03,1.524503002295944498e+03,2.153958321407668450e-02,8.784273459227576186e-01,4.773902431869172514e-01
1.472649284839925258e+03,1.501391815617752400e+03,1.353428210586030445e+03,6.839913244178065337e-05,3.960014380152234725e-01,-9.182498877818792149e-01
1.382448146496833260e+03,1.567659592194488823e+03,1.560118795848246464e+03,2.794739210448384924e-03,-1.203740606705991194e-02,-9.999236422287065551e-01
1.452721537230978811e+03,1.533390606819697268e+03,1.518655377410390201e+03,1.501034644618662039e-01,9.031492705537517152e-01,4.022317056806580249e-01
1.578135534822707541e+03,1.671570035646585893e+03,1.573981149981333374e+03,-5.479986532278528083e-02,-6.775700579121143319e-01,7.334137927402093471e-01
1.543542635386158054e+03,1.448940581643153337e+03,1.503996216115326661e+03,-5.261770416190765694e-03,4.967288531224325343e-01,-8.678898318610260842e-01
1.493520085208111823e+03,1.516744931130985833e+03,1.418894153982833586e+03,-5.960875921650093945e-01,7.987704412775110674e-01,8.151910578662943663e-02
1.504870662103005543e+03,1.572949174047814722e+03,1.450755525785300051e+03,6.246326931405553645e-06,-4.057058198844061270e-01,-9.140037131614429100e-01
1.486197776976820478e+03,1.330634753879038044e+03,1.516405268253423401e+03,3.072661711565705459e-02,-3.771780830753632130e-01,-9.256309030322087406e-01
1.436390586559069561e+03,1.585571014772619037e+03,1.499556676499728155e+03,4.470884884093874120e-03,-9.968498329952620862e-01,-7.918599399939015016e-02
1.525713236429878407e+03,1.425839656135236282e+03,1.491253670664128094e+03,3.215198245505264119e-01,-5.136695243368631925e-01,7.954675494252040346e-01
1.347536309740253500e+03,1.540174193469175862e+03,1.439343308069884870e+03,7.830261444248240998e-01,-6.168744975870351643e-01,7.959843826318270532e-02
1.575118621331050917e+03,1.570575691192434078e+03,1.663452092978297514e+03,7.104370601514350958e-02,9.691481283025517035e-01,2.360184256436235750e-01
1.493010781402637122e+03,1.590068325979345900e+03,1.625489950777935519e+03,-1.120321759034000227e-02,1.812194456109437468e-01,-9.833788692300061696e-01
1.513328989969420945e+03,1.518648225798261365e+03,1.409825431085135506e+03,5.851256778734475117e-04,-7.876324280372564157e-01,6.161451257066611342e-01
1.300322156779196575e+03,1.507737074169347125e+03,1.423913586730937823e+03,1.221079755283527692e-03,-9.919078594897636769e-01,-1.269539571918361642e-01
1.591889851253515417e+03,1.523581387931779773e+03,1.516724488177559351e+03,5.358108822104264775e-08,-5.051105292550872594e-01,8.630546641063024937e-01
1.463496704490816228e+03,1.483909384192439120e+03,1.497750952617286885e+03,-1.764689409499292823e-03,3.845733986703320229e-01,-9.230927293107870080e-01
1.450897636293504775e+03,1.427739633698646458e+03,1.491633422388859117e+03,-2.822604189473601477e-02,9.127980763311662749e-01,-4.074346112016982713e-01
1.496213493665304668e+03,1.509133474080980477e+03,1.391499878417714172e+03,8.679542250478669216e-03,5.143873164134421527e-01,-8.575140548465077783e-01
1.319928438725214619e+03,1.429106429145620496e+03,1.491421018769849297e+03,-7.908062055665903145e-01,5.948801347582465260e-01,-1.440248954430526640e-01
1.519262516090554527e+03,1.632399239496263817e+03,1.520338111415426283e+03,-4.855135833414181505e-06,5.143349104150529705e-01,-8.575894121925521363e-01
1.448447120923020520e+03,1.373291954818635531e+03,1.506444716598654850e+03,8.935299417819704895e-03,-9.839218518571379857e-01,-1.783758668159292349e-01
1.534960202026814386e+03,1.574271780664874314e+03,1.504063677038391688e+03,-5.992414730948137898e-04,7.922756429437198822e-01,6.101630491170143555e-01
1.595383140463515929e+03,1.473817163196854835e+03,1.460515718043022162e+03,1.322408917682869759e-03,-6.832797160235921652e-01,7.301555183009806882e-01
1.341484507347745421e+03,1.500935219420930252e+03,1.426237944533342443e+03,4.046069438325620819e-03,-3.531966173289706745e-01,-9.355403672901949630e-01
1.394934162827457158e+03,1.415925500994605045e+03,1.426819008889043062e+03,-7.367597995740222949e-03,-8.750483520209285659e-01,-4.839794418415211408e-01
1.569018040419695581e+03,1.505662767103418901e+03,1.381975331502399058e+03,2.082171899807990292e-02,7.997765740698713210e-02,-9.965791641077268448e-01
1.472236390376061763e+03,1.509848016118245141e+03,1.511932468642024105e+03,-6.863398293799495955e-04,-8.039484665943640307e-01,-5.946985723862210360e-01
1.311956526110806180e+03,1.450713696008996294e+03,1.567139049086268187e+03,-2.595610695862455154e-04,9.185176290767774754e-01,-3.953799409469664350e-01
1.581497639808595977e+03,1.463993784576437065e+03,1.344255779780884950e+03,1.225893926536877204e-01,4.700595895194504825e-01,8.740799866771953308e-01
1.566796035729260439e+03,1.462709134226987771e+03,1.517162016601648475e+03,9.802996221387438869e-02,-9.025088534645099303e-01,-4.193660643477509775e-01
1.615424376441836557e+03,1.384156410261681003e+03,1.457937817346666179e+03,-1.587378540170372048e-04,-1.348586232124243667e-01,-9.908648376784511269e-01
1.479458156925679759e+03,1.534097582181607550e+03,1.544134359941180037e+03,-1.667484884805799485e-03,9.977910156516377471e-01,-6.641015418618108346e-02
1.433256335189917081e+03,1.528243925457321666e+03,1.507140630445341912e+03,3.789185290765164638e-01,8.925498838688977754e-01,-2.444901902492330470e-01
1.615311082098359066e+03,1.517176507314507035e+03,1.578806842727790581e+03,-3.150787839363654546e-06,6.763907215195765765e-01,-7.365430006675097729e-01
1.494316094269240921e+03,1.563521919372175716e+03,1.427243592909400149e+03,-2.062240840724542895e-04,7.436448471069074806e-01,6.685748266596427403e-01
1.335041821185057643e+03,1.522547658919773767e+03,1.414280689712967160e+03,-2.011275699074322465e-01,-3.365727741521226668e-01,9.199274255737107664e-01
1.472527488699605783e+03,1.614397240942755843e+03,1.601864282623664621e+03,1.021298607017049054e-01,8.663463618254777510e-01,4.888900417320940495e-01
1.518835529299281006e+03,1.461184349349032573e+03,1.476170212985472517e+03,-4.279367551059645356e-04,-6.101282415321328534e-01,7.923025594777798331e-01
1.330055402609733846e+03,1.593192340175037543e+03,1.436393780099405831e+03,-8.809081588993473988e-02,1.965603262898951986e-01,9.765265210349669545e-01
1.431128610096978036e+03,1.434321888232314905e+03,1.510438941554017674e+03,8.064662273055326833e-03,8.820011073370873644e-01,4.711783185573940047e-01
1.513756181006865972e+03,1.487927560246831945e+03,1.448188444349366364e+03,-8.309324018962198355e-02,6.342478575476996339e-01,-7.686515261358314310e-01
1.407581752490534882e+03,1.543755203924171383e+03,1.519698287469909246e+03,-1.735437750118082188e-06,9.619855056770190149e-01,-2.731005068913612277e-01
1.487068906085475419e+03,1.466222626697589931e+03,1.532409678704379758e+03,-1.037815260537232054e-01,7.830135584430916174e-01,6.132855469879000543e-01
1.579118605905116283e+03,1.399921174753359082e+03,1.556183151865827995e+03,4.042310256091552825e-03,7.826007224369215809e-01,6.225108585149354834e-01
1.505896257748775270e+03,1.537294243518492067e+03,1.532162626612830081e+03,-7.969378331886969944e-05,6.464466937323989359e-01,7.629591508143480638e-01
1.512683150229885314e+03,1.430942136913257400e+03,1.531560854500762389e+03,3.602243354332710154e-05,-5.182690523129978022e-01,8.552176261729942386e-01
1.534296019034470191e+03,1.602137975322158127e+03,1.636215345420639323e+03,-2.995998662214450323e-06,7.825631807606630019e-01,6.225711751348418366e-01
1.541281317001160915e+03,1.664283434515085446e+03,1.480275815108073857e+03,-6.520472774496947029e-07,-7.807447616471411278e-01,-6.248500757462732702e-01
1.404509533552016364e+03,1.517914875984288528e+03,1.519749209840272670e+03,6.837826593826606958e-01,6.382934105823835358e-01,3.535856285748684713e-01
1.599882571590551606e+03,1.459475839462342719e+03,1.390950077068263226e+03,-3.342646941365961643e-03,-9.967060640002354255e-01,8.102992469812703158e-02
1.435630779424492175e+03,1.534131813308214305e+03,1.556336527660434285e+03,1.854191307339094971e-03,1.598704236546268920e-01,-9.871362669941197154e-01
1.610963577316476858e+03,1.473445248431238724e+03,1.471361901081510268e+03,-8.479076047623366292e-04,5.407084367430061711e-01,-8.412096453843288524e-01
1.463593262974255822e+03,1.528501669378182214e+03,1.543820580683653361e+03,1.146733693231778706e-01,1.551540048479608247e-01,-9.812121346312983050e-01
1.453622979604411057e+03,1.485482071716465953e+03,1.495455508211471624e+03,-4.039953493116462541e-02,-8.218979392681068363e-01,5.682003651918793308e-01
1.563247865801964963e+03,1.496667397171602715e+03,1.506149803342138739e+03,-7.246908382210948130e-02,-4.528001815767314642e-01,8.886620434417479286e-01
1.488289775772996563e+03,1.507759270635074245e+03,1.474076622519754892e+03,3.474409837160619130e-01,-9.014050414720620186e-01,2.583674012780357576e-01
1.383223301861291020e+03,1.553171232496515358e+03,1.654953411641246475e+03,4.384668651481300153e-05,-9.871935512242108191e-01,-1.595270839036423971e-01
1.539974493551738760e+03,1.465300643289670234e+03,1.550338136585354050e+03,-1.906904067655331714e-01,8.262666428261281615e-01,-5.300194371156921047e-01
1.356429442340175683e+03,1.413656954292863475e+03,1.516773010875076807e+03,-1.639942953123989522e-01,-8.985809354337795929e-01,-4.070112695982057716e-01
1.300456732187031548e+03,1.498271415293990003e+03,1.579149962787702179e+03,2.845069369121102851e-02,4.648604712135973038e-01,8.849267203173160068e-01
1.452967710815028568e+03,1.516300610360435712e+03,1.482460998911984689e+03,8.669664771066574017e-07,9.743339389941478856e-01,2.251074750500229316e-01
1.516402046941757362e+03,1.475010356442494640e+03,1.466603707180669062e+03,1.039315530833935172e-02,5.707241867978819494e-01,8.210760530709887428e-01
1.432906034746961950e+03,1.433712686937783928e+03,1.506105967028732266e+03,8.730787755099714276e-02,8.835493119504955750e-01,-4.601281863452248988e-01
1.362626412906614405e+03,1.485500925879076476e+03,1.492558294236107258e+03,-2.531022549174442859e-03,-3.278493180519675421e-01,9.447266369578637413e-01
1.424717118802526102e+03,1.637769070704246360e+03,1.565929318262197967e+03,-6.646802552766345840e-06,8.709417381033286443e-01,4.913862928342355163e-01
1.422093332539961693e+03,1.316853598583343228e+03,1.647307366022236693e+03,6.566026786252475488e-05,-3.656703616875355833e-01,9.307444237125657160e-01
1.431468176293096803e+03,1.490059786546523355e+03,1.377089017013646753e+03,2.704441093143534758e-01,4.071991648332275171e-02,-9.618741456857843319e-01
1.628971888413862644e+03,1.486060225880999724e+03,1.663940680163693742e+03,-3.011770746082587796e-02,8.548116065018067367e-02,9.958844786777241165e-01
1.522746039735493468e+03,1.628430986686279539e+03,1.337127623170311836e+03,-1.922581665237543466e-02,-8.302083008249971918e-02,9.963623385829384338e-01
1.487288567098944895e+03,1.436740396844991665e+03,1.530756039222627805e+03,2.532370993237190518e-02,7.970053676419370792e-01,6.034410937823192489e-01
1.545542069403093137e+03,1.562765115666560177e+03,1.463480955391975385e+03,5.778840173552768009e-05,8.694151857772808301e-01,4.940822111757888768e-01
1.471933252206949419e+03,1.572859564055916962e+03,1.500575933528419000e+03,-6.061683393270393683e-02,-7.822059432121664102e-01,6.200640788237454792e-01
1.355042878692426257e+03,1.431885117139385329e+03,1.440898364928586489e+03,-1.639610607583554111e-03,-2.720033617174746343e-01,9.622949043258247626e-01
1.518494987870246860e+03,1.354137182495309844e+03,1.538162799712427613e+03,-5.546434788751548710e-04,-9.791350630948891798e-01,-2.032097945197985367e-01
1.481747534806430622e+03,1.574985708620066589e+03,1.477429774767275376e+03,9.662486590742215206e-03,-8.452189859519717574e-01,-5.343327634903219936e-01
1.569528593668377425e+03,1.567051723499846958e+03,1.349137376717262896e+03,-6.493493372916206430e-02,-9.763454884755172758e-01,2.062351607148815713e-01
1.513648602294747434e+03,1.446211594776019865e+03,1.533878475894026224e+03,-8.640004351509123631e-03,9.862969379613010235e-01,1.647534536602115463e-01
1.418584467255435129e+03,1.549513406471773806e+03,1.620564758086856500e+03,-5.661090682981434038e-09,-9.477996321525634649e-01,3.188665195524068574e-01
1.428936030143072458e+03,1.549153803296400383e+03,1.482450426497633771e+03,1.752651928872100418e-01,8.928395479812271107e-01,4.148730573595821314e-01
1.465905221716967390e+03,1.509501703823615117e+03,1.483424415458639487e+03,-3.113184884315410247e-05,3.591658045078670036e-01,-9.332737668567699929e-01
1.435945261907146005e+03,1.574451553772944635e+03,1.535500828796866017e+03,-8.209300340980005828e-01,3.058151177842972634e-01,-4.822354122733336634e-01
1.465148711156012951e+03,1.476080973224602985e+03,1.574908339314345312e+03,-2.674388285282427394e-06,9.999990221374174260e-01,-1.398469540845642201e-03
1.363058164037593315e+03,1.410772961984220274e+03,1.592877980030354365e+03,-1.360764413828040613e-04,2.717873163181017127e-01,-9.623573328924169834e-01
1.592955338254341314e+03,1.398578851550803392e+03,1.684835537791535444e+03,2.585098611333940395e-08,-1.946079085701790667e-01,-9.808811150806912016e-01
1.419734220039821139e+03,1.614083857988459840e+03,1.556670474055993509e+03,1.283851956933915054e-03,9.352102828941879498e-01,3.540904947794074054e-01
1.362841662767735443e+03,1.413962640186954332e+03,1.493903216088400086e+03,7.653311273086158550e-01,5.509796187544135915e-01,3.327006541769407244e-01
1.479915904359018668e+03,1.342217080649685613e+03,1.536209858507719446e+03,-5.078549097107787867e-03,-2.591273749767999401e-01,9.658298048189966067e-01
1.422581367335159712e+03,1.646737224212899946e+03,1.505762460687860994e+03,2.293619305881022113e-02,-9.735598063877751729e-01,-2.272778793331342306e-01
1.540021842828540230e+03,1.552171665787844404e+03,1.481403354749218579e+03,-7.710958028839209888e-02,9.467958818524929709e-01,3.124606707009832673e-01
1.588493453917589932e+03,1.495133109260814990e+03,1.430375119603191251e+03,3.284752232840990049e-01,4.117875086342980828e-01,-8.500206323503090022e-01
1.390512312392651438e+03,1.513484678623993432e+03,1.526570086127245304e+03,8.431157438748090871e-02,-3.449554006843268406e-01,-9.348247589591429652e-01
1.440259845444270013e+03,1.507987608272652324e+03,1.580670815475003110e+03,4.009834486077697435e-01,-3.255536755279910266e-01,8.562867967526042179e-01
1.416155936316891484e+03,1.474448189939024132e+03,1.377622133268926746e+03,2.604731751265292328e-01,-5.202005311099865414e-01,8.133542478357093097e-01
1.602908780797222335e+03,1.498888604724861125e+03,1.546180022215030476e+03,8.231327152677019119e-04,-6.612074844647778393e-01,7.502026292544525798e-01
1.612300843794108005e+03,1.350528396575766692e+03,1.484103623834393829e+03,6.090346207335011229e-05,9.999997044274345770e-01,-7.664436129992433866e-04
1.408297168394391747e+03,1.482675217564444210e+03,1.497190050005749299e+03,-2.246279995683905881e-03,-9.922750818023305941e-01,-1.240367536674471249e-01
1.508620815197916954e+03,1.448307090924068007e+03,1.417567695575591642e+03,5.040990666110062475e-03,-7.259532510464834498e-01,6.877255744176927754e-01
1.486280239893275620e+03,1.464050397065084098e+03,1.521940765885047540e+03,4.296526651613955528e-01,3.150701895947880526e-01,-8.462442690786236010e-01
1.404063730725227515e+03,1.477211887347452830e+03,1.465901744812743573e+03,-3.971274946372456427e-02,-6.002164699923538960e-01,7.988511041989921901e-01
1.470160928963227661e+03,1.476819067916889935e+03,1.607785009243979857e+03,-5.093974816193855321e-06,2.415867129698751059e-01,-9.703792351913053116e-01
1.648144773865924435e+03,1.444676570355245985e+03,1.477236865561322929e+03,2.747428389958927997e-04,5.722663635317035702e-01,8.200677616432514583e-01
1.400314955170965277e+03,1.659719016435877847e+03,1.514237004957910585e+03,2.194944536309889893e-01,2.068542595930656092e-01,9.534324832485194801e-01
1.595148978701679198e+03,1.619024776517511555e+03,1.346925697139184649e+03,7.334420628895492733e-01,-6.762394489386769347e-01,-6.901411510290453299e-02
1.488997273474368967e+03,1.430167608137183379e+03,1.539676268996629005e+03,-2.665731324231176481e-04,3.367158779043017552e-02,-9.994329157649534112e-01
1.332516364156402915e+03,1.414200598052267196e+03,1.601953628610829583e+03,-7.755022392954432318e-04,-7.600143561406608184e-01,6.499058216821677059e-01
1.404376045651242293e+03,1.493313460478968409e+03,1.612757652196498611e+03,9.539395552681753655e-10,-9.990070313612184894e-01,4.455279217788156443e-02
1.420750864895561563e+03,1.491484617108468001e+03,1.457865665910752796e+03,-1.877322075034469368e-03,6.389758825274147735e-01,-7.692244777762458074e-01
1.313484114750625622e+03,1.350611437360037371e+03,1.511420077195235763e+03,-8.815361853797873404e-02,-1.006383836331105758e-01,-9.910100177487488615e-01
1.559725507526972251e+03,1.377891267852479814e+03,1.557591454069860674e+03,-1.897714458140739807e-05,9.663864625252117646e-01,2.570937663341439361e-01
1.526050986563599736e+03,1.491510274936013047e+03,1.575017948421836763e+03,5.942349788845436853e-01,-1.311944601258357157e-01,-7.935192521308960245e-01
1.453202065080665989e+03,1.663984252220942835e+03,1.468249011147130886e+03,5.280766190136021616e-03,-4.453798900828204732e-01,8.953261232747873333e-01
1.481605505579328110e+03,1.483698855829602280e+03,1.548840045192708430e+03,-2.969112207365562117e-09,-9.597099527692113385e-01,-2.809925382562999951e-01
1.466777222763004147e+03,1.567445058836769931e+03,1.584809010520306401e+03,-1.156921664793763571e-01,4.371253895790809807e-01,-8.919286498373314442e-01
1.471676644272705289e+03,1.283177702930418945e+03,1.517966707037463948e+03,-4.049598339701756047e-03,-8.537031077576969773e-01,-5.207442794291041732e-01
1.523724921056840003e+03,1.422079521749018113e+03,1.592681571714520260e+03,-5.704251130684876575e-03,-9.822921559292188132e-01,-1.872687425038293829e-01
1.425131639983009791e+03,1.469923777271051677e+03,1.496902699585546998e+03,1.527596007196923011e-01,-7.290817341144408825e-01,6.671613967913911925e-01
1.343984764020900229e+03,1.430081878185033247e+03,1.621504867435774031e+03,1.132381266137328984e-03,9.786408856947976798e-01,2.055741582961490843e-01
1.368187270215744320e+03,1.530884903981502021e+03,1.540780986579768523e+03,1.119549371929608531e-02,-9.405644650889442016e-01,-3.394306231504895521e-01
1.558826921272245727e+03,1.489181060016874653e+03,1.536591573860376911e+03,2.489800901527447485e-02,4.699886191571228666e-01,8.823212493246754828e-01
1.558652734897753817e+03,1.541642260370709892e+03,1.414698654974165493e+03,3.347256569914719426e-01,-7.693783624057617399e-01,5.440732211876043722e-01
1.447944221019231918e+03,1.536616094049973526e+03,1.457654411744202434e+03,-9.801766826377820372e-06,4.632773691319045928e-01,-8.862133372693882238e-01
1.517204951024184084e+03,1.434512968961399338e+03,1.463153036586334792e+03,-1.441382177763207879e-02,9.988130013980608402e-01,-4.652773344963249957e-02
1.526844283765999990e+03,1.428723050378704784e+03,1.575082029527207624e+03,-2.266079504390554611e-01,-8.726757496479752296e-01,-4.325342446259660689e-01
1.575913143659587604e+03,1.489851536454480311e+03,1.423915589063019524e+03,-2.560401882275011864e-01,6.306541658095510955e-03,-9.666455656261713214e-01
1.489987782535161841e+03,1.459375242114933371e+03,1.556923108222074461e+03,5.642684354694793569e-02,6.170946815161677534e-01,-7.848631507287037179e-01
1.494817966164697737e+03,1.481635488243654891e+03,1.634595699307407131e+03,9.961527414972387584e-01,7.043319683986215551e-02,5.214288437028369305e-02
1.586110920283498217e+03,1.493893640025949026e+03,1.511225211907711355e+03,4.413779340942549745e-04,-2.510928286221060790e-01,-9.679629107564343693e-01
1.535128894342693457e+03,1.558175744426753454e+03,1.376168222335430528e+03,-2.788098533711596758e-03,8.421033408448023172e-01,5.393089929201895227e-01
1.385844231608760992e+03,1.316528669758268734e+03,1.585395955409808721e+03,-5.992301233771637689e-03,8.643878242768343600e-01,5.027899974819352025e-01
1.427506575041473752e+03,1.448939320119257445e+03,1.541226455233515253e+03,-2.738114467141690711e-01,4.065542086734022509e-01,8.716312104658927584e-01
1.268482332663006673e+03,1.471163039501188450e+03,1.562087790783975151e+03,-6.686814422731329017e-05,-1.454058263374689297e-01,-9.893720944092616598e-01
1.533177492764510134e+03,1.511469666919856309e+03,1.478760881181039167e+03,1.971787731508994543e-02,-7.385266570412893916e-01,6.739358887561966993e-01
1.324957142035148081e+03,1.436643847707860687e+03,1.453469492805671052e+03,-8.456766164293079424e-02,5.896302242147406503e-01,-8.032337824672972637e-01
1.374606857936179040e+03,1.493173355642716388e+03,1.522927272130633810e+03,1.943089942352702326e-01,-6.669279599288094884e-01,7.193407475073785307e-01
1.333418697210451683e+03,1.481297534971005234e+03,1.481123031094656199e+03,7.755128825878873089e-01,6.294086793244685341e-01,4.923904275322833063e-02
1.523224675980332222e+03,1.597147742391391830e+03,1.562715639900200813e+03,-3.948531365518702652e-01,-1.403185296713134684e-03,9.187431804515194811e-01
1.494272871842423456e+03,1.506953175969723134e+03,1.522756922899879783e+03,2.061414079593047993e-03,-4.194496609965614464e-01,9.077762568286649181e-01
1.307498960222706728e+03,1.401349129308110150e+03,1.595045843266884049e+03,1.161656770969012181e-01,-6.538299286161086687e-01,7.476710238537218611e-01
1.503675145187635053e+03,1.505331222222310771e+03,1.437291981212040128e+03,-1.542262578367218119e-05,7.223166281112575193e-01,-6.915624979104388892e-01
1.399791799808705719e+03,1.479019964169805007e+03,1.461995202696499291e+03,-1.031960976456823770e-03,8.921190743244137300e-01,4.517991725126265790e-01
1.513376221052924620e+03,1.542681067673190910e+03,1.458744585358706672e+03,1.810305880160157366e-01,5.206269643689178661e-01,-8.343713143286872747e-01
1.518532866864053403e+03,1.365253195368627530e+03,1.530566990164486015e+03,-6.561898260339231112e-03,2.451681493160728365e-01,9.694583642695300263e-01
1.461804514783381364e+03,1.392560926633252848e+03,1.438359151284526206e+03,3.394024331800394451e-02,9.962594764375235501e-01,-7.946770093532469492e-02
1.605815443634857502e+03,1.398136268738685885e+03,1.518994563629168852e+03,-1.499189413887310265e-02,-9.643796935551274263e-01,-2.640966674697872163e-01
1.454440536346273802e+03,1.455736528926983055e+03,1.436304516913814041e+03,8.711216813794411123e-03,-2.825592440524807847e-01,9.592102940972400127e-01
1.377492915393297835e+03,1.372376060767370745e+03,1.592291985778230810e+03,6.245556933342949580e-06,-7.475150072013940772e-01,-6.642449201685270976e-01
1.517782202036061790e+03,1.404785846418404617e+03,1.594236622066709515e+03,-4.735587044779677734e-01,5.307311066394736487e-01,7.028987450966095452e-01
1.412671579267951529e+03,1.477112053454942043e+03,1.525573645555072062e+03,1.611790288823508190e-05,9.668649485678321165e-01,2.552884074358580113e-01
1.500896258637890696e+03,1.498819518581798548e+03,1.684868127453994703e+03,-2.136111696052799824e-01,-3.366364494388727757e-01,-9.170856934491201651e-01
1.525990701515288038e+03,1.453459092040303403e+03,1.503411414722112340e+03,5.560243862005654659e-04,1.629844413817244098e-01,-9.866284826135769404e-01
1.446067636047937867e+03,1.424881637735116556e+03,1.552669360473120378e+03,-2.667620849233249825e-01,-8.459131494269742646e-01,4.618104954133224194e-01
1.588527331733390838e+03,1.483579174433010849e+03,1.513128151680934934e+03,1.549143329580750239e-02,-9.410508373508660318e-01,-3.379102499417195871e-01
1.447237422397037335e+03,1.536179530161411321e+03,1.465190964232008810e+03,4.505537951683002418e-01,-8.426301349568614540e-01,-2.949164853344466430e-01
1.430184907278043738e+03,1.477108864382485081e+03,1.435936967359081336e+03,-3.958791711054302810e-03,-9.958199206628861599e-01,-9.125247163310917786e-02
1.747081452591410880e+03,1.414218228300379906e+03,1.559838411100552776e+03,-7.823532009033605517e-02,-9.755483668117218565e-01,2.053889449345921436e-01
1.467647633701495806e+03,1.583617729121884622e+03,1.394912685946477268e+03,7.899270310599468270e-02,-9.835208357772418086e-01,1.626250855435414644e-01
1.626477659569563912e+03,1.434042745637858161e+03,1.507544507287718034e+03,6.597156247231290849e-02,6.792946968681976561e-01,-7.308942931448467739e-01
1.509061944504959001e+03,1.517011913733751044e+03,1.605304446997964760e+03,-2.000617741279390738e-01,1.750752122678271017e-01,9.640145001928948076e-01
1.368619448860313014e+03,1.278329416230873449e+03,1.636712829592308708e+03,-8.997822052590341568e-02,-6.869548114716143017e-01,-7.211081796977417691e-01
1.452425523945550367e+03,1.403586548137197951e+03,1.475300800302022026e+03,-1.037381585700612868e-01,4.712769119866002110e-01,-8.758632694004624408e-01
1.516981976937102218e+03,1.423383463782825402e+03,1.453957440216428722e+03,-6.174519033354348638e-04,-9.237755254328801069e-01,-3.829339334197913169e-01
1.580102781604289703e+03,1.394510191784748031e+03,1.490958967496794457e+03,2.408437380018083745e-02,9.269986683020798868e-01,3.742905447708017586e-01
1.535973014044098136e+03,1.339632175094084459e+03,1.584159469287644924e+03,2.278266332437862279e-02,9.788810707747596096e-01,2.031570809268239686e-01
1.524353315861742431e+03,1.504280867633909793e+03,1.523278624488460309e+03,-6.688149666855629505e-01,-7.318911826947006594e-01,1.304677624209968911e-01
1.417427152336636027e+03,1.415193075017513365e+03,1.503454234690878820e+03,-4.844903029684561879e-01,-7.933328211266242880e-01,-3.686355669937522173e-01
1.453838670686839578e+03,1.496071432941057537e+03,1.503724478742500196e+03,-8.465023012273598102e-01,2.910930867012413992e-01,-4.457562886730008778e-01
1.354939542591128202e+03,1.514086185265275390e+03,1.623777028990736198e+03,-1.074405657024678489e-04,3.089839202405998964e-01,-9.510672560283396360e-01
1.645890886380401525e+03,1.450980897345300491e+03,1.406938211856847602e+03,-7.895696625173959809e-06,4.939923777289249029e-01,8.694662332048215259e-01
1.389789259362111125e+03,1.546367901014162953e+03,1.588947300344145788e+03,-2.240910774517149238e-03,-1.443172297056751208e-01,9.895289361756836044e-01
1.462795120326853748e+03,1.653218300267232962e+03,1.436502724379303800e+03,2.309099536186963323e-04,-8.289612092533238386e-01,-5.593060523844348708e-01
1.483885407814678047e+03,1.399159865355206421e+03,1.362489499924603706e+03,-3.213982918756570495e-01,9.271191038513435512e-01,-1.927519267174562512e-01
1.343646081999532271e+03,1.611980553429680867e+03,1.514963531045006675e+03,4.244433760133961347e-05,4.637775509082786018e-01,8.859516812287210330e-01
1.450339438110571109e+03,1.357829332687946135e+03,1.489877757887843018e+03,8.472864855724088901e-03,3.050267782684703555e-01,-9.523060826752572927e-01
1.423892471228134809e+03,1.387948788750213225e+03,1.482268148577903276e+03,1.305265536773388222e-03,9.651753278889370069e-01,-2.616006168118901742e-01
1.426109567579108671e+03,1.515226922635522442e+03,1.422437899162034910e+03,-1.417743253479680505e-04,9.997757689330112330e-01,2.117526279522510477e-02
1.457588939996682711e+03,1.624000145424205812e+03,1.481398457394494017e+03,-1.057609241055614316e-04,-9.981133170976759228e-01,-6.139865671902961647e-02
1.602398552502643042e+03,1.525954469744013977e+03,1.440612317614236190e+03,-5.159164336444225368e-02,3.986254579044242186e-01,-9.156615349819191563e-01
1.355288818629067009e+03,1.512766595168255662e+03,1.431979950203202634e+03,2.555276504162119489e-01,-7.395019956364325964e-01,-6.227699561816577578e-01
1.360164903488446498e+03,1.435940839081677950e+03,1.560005186900921899e+03,-5.156188449564540893e-02,-1.978045977513840648e-01,9.788844227873232384e-01
1.267285345522362149e+03,1.443851322507482109e+03,1.585455897258548703e+03,-2.479478221438021768e-01,5.797001689966091442e-01,7.761891467673638356e-01
1.404814181361730334e+03,1.548863986673671661e+03,1.496216105254774220e+03,-8.236874062947900296e-03,-9.370919331492150173e-01,3.489854763916949709e-01
1.431337641419508373e+03,1.393880422934915941e+03,1.448934958422458294e+03,-4.184761190946807430e-01,-9.082274974609002571e-01,7.420265258597513736e-04
1.677945019556884972e+03,1.439899252282635643e+03,1.540766244121289901e+03,7.740246623252714246e-05,-8.801633446866121702e-01,-4.746709182991246112e-01
1.479669179391434227e+03,1.518734003191965485e+03,1.600558914711679336e+03,-2.274747875460959856e-01,-1.701349731778412089e-02,9.736353331406355505e-01
1.370930906791910957e+03,1.474288758610389777e+03,1.427275109726036817e+03,-2.321404959121003758e-04,-6.701115055274129428e-01,7.422604100115903769e-01
1.503323194456222836e+03,1.483138918587164653e+03,1.616907673794264610e+03,-1.457800663424346419e-04,8.127281141515796392e-01,5.826431079278199254e-01
1.489832420346933077e+03,1.464616983380074089e+03,1.468231453463485650e+03,-9.748534699085446842e-02,4.662054615536125324e-01,-8.792889597508067867e-01
1.556307726365354483e+03,1.463482309566003096e+03,1.523413089603551271e+03,9.684047705159503153e-03,-8.530978454889495133e-01,5.216610827368250991e-01
1.457105113687846824e+03,1.438378902720605083e+03,1.424736798059248258e+03,8.851608955632141174e-02,-4.518009777653638759e-01,8.877166092734316560e-01
1.467481102835268757e+03,1.385404266784952597e+03,1.485015664923604390e+03,-2.177716802252455119e-01,3.806695145211770326e-01,-8.987025180815311209e-01
1.418465331426480134e+03,1.468218302044321263e+03,1.504907667654504394e+03,9.565929189647668363e-01,-1.178592531731808696e-01,2.665317688905530780e-01
1.496093076624700643e+03,1.477908462180785364e+03,1.507728089581171389e+03,8.751228026705189927e-03,-2.780938017650416150e-01,9.605140568611634233e-01
1.452233562966360296e+03,1.642628833956298877e+03,1.454167631437423097e+03,-2.302112571895507942e-02,-5.695082024515667474e-01,-8.216632127039749101e-01
1.453807123988455032e+03,1.558888560746823487e+03,1.448374931998329885e+03,7.089619941441099860e-02,-8.874504875398745440e-01,4.554177873928851317e-01
1.374330582533223378e+03,1.471004025250812902e+03,1.415502154123130140e+03,-6.380680919476234420e-04,-1.846524144272313206e-01,9.828036826931938474e-01
1.478282959593634359e+03,1.374308491009708405e+03,1.536272733039762898e+03,7.067174121061378872e-04,-9.898400079618389080e-01,1.421838921559192281e-01
1.406814432882403935e+03,1.457746615100093322e+03,1.643254131785502750e+03,-6.853217162678715106e-03,6.998565767247086900e-01,-7.142505200765997264e-01
1.565975564041334337e+03,1.591396388138437715e+03,1.531943334785914885e+03,-6.448603581485405634e-02,-3.134823297518994911e-01,9.474019105523308060e-01
1.576578830311035517e+03,1.490329071418651438e+03,1.548466571221989170e+03,2.067908652977032136e-01,6.762303032585560425e-01,7.070715062737775725e-01
1.413893963986385188e+03,1.468665799554276418e+03,1.631299651544523840e+03,-7.315115153524296213e-03,-3.592140287364486984e-01,-9.332265376901905940e-01
1.378662553476583298e+03,1.404116131916889344e+03,1.627845427995444652e+03,-1.002800578580322240e-02,-9.881026556634777691e-01,-1.534685015589281332e-01
1.486496986189662266e+03,1.364434432601544813e+03,1.511500641230683186e+03,-2.418429194419157435e-01,8.933460383251752290e-01,3.787411492358938592e-01
1.487132457803206307e+03,1.442168215687603379e+03,1.452572904043402787e+03,-7.063060189708414427e-01,-5.608843188881439401e-01,-4.319034479961283979e-01
1.535155324554860726e+03,1.444172506108710877e+03,1.574917022125034691e+03,-8.550636140262614249e-06,6.293100526884812806e-01,-7.771543331360299955e-01
1.477038127800004531e+03,1.284246032639289751e+03,1.615902571765984021e+03,2.286958125286178120e-05,7.450999334061508828e-01,6.669528384489654682e-01
1.549951270607852848e+03,1.533025074041416019e+03,1.480731468491880833e+03,-1.267432016415733008e-04,-4.518970607962807806e-02,-9.989784153827337976e-01
1.396445402057960564e+03,1.547564008001322463e+03,1.520618221734740700e+03,-2.984782681056346145e-04,-9.997154170224519243e-01,2.385363448928747021e-02
1.372735346600462208e+03,1.420419324389350095e+03,1.602130194807346697e+03,-9.086377275023864442e-03,-3.643801429918050710e-03,9.999520790813705151e-01
1.514645951019666427e+03,1.541084589144254096e+03,1.373898715398880313e+03,-2.801668157645604285e-01,4.403114695480321861e-01,-8.530136957451499580e-01
1.494345439550929314e+03,1.428742752888653513e+03,1.563136532589820490e+03,1.381113651934932629e-01,-8.662083398346581697e-01,4.802169955398027379e-01
1.480157505350650808e+03,1.456063441946174862e+03,1.429221141914458258e+03,4.102656932701270048e-03,3.115654917352451703e-01,-9.502158242030426250e-01
1.636702229444140812e+03,1.476791272883152487e+03,1.511048905593909922e+03,-7.790646520556463144e-05,6.241347030754974545e-01,-7.813167516106661603e-01
1.548669499141205733e+03,1.489920154289915445e+03,1.592098533925724269e+03,-2.607279473431183795e-06,5.619303200351684069e-01,-8.271845715548467037e-01
1.484654381797808583e+03,1.411428066863669756e+03,1.435659664041891574e+03,1.037472702464645041e-01,9.821604978474017811e-01,-1.568351375953458138e-01
1.452634254174824491e+03,1.333635432277469363e+03,1.578744200167006056e+03,1.345688641158951648e-01,9.761968327389268785e-01,-1.700910478568623818e-01
1.434939812690979352e+03,1.606552475961329264e+03,1.546841953855115889e+03,7.841414690147048283e-01,-6.126040788315915142e-01,-9.918870485270914195e-02
1.425353623717859364e+03,1.387981560218534014e+03,1.492135806630618845e+03,8.799695468691490774e-01,1.734423896667525444e-01,-4.422344785852759252e-01
1.598858125071383711e+03,1.418467208954012904e+03,1.533608747203589246e+03,-4.689191018709786690e-02,-9.262476185540567952e-01,-3.739872964178645454e-01
1.361809723143164547e+03,1.529453233511924509e+03,1.426098273492626731e+03,-1.721147971882341227e-02,-9.489694042933117801e-01,3.148981338164539845e-01
1.458818574101449258e+03,1.595188159080121522e+03,1.363115994430201454e+03,1.719237492718292664e-06,-9.930563276188701938e-01,-1.176398324257873773e-01
1.512421627902175032e+03,1.479372318606075396e+03,1.569013140610487426e+03,3.618535128750129948e-01,8.112808649829482688e-01,-4.592225967137636422e-01
1.435979899614745818e+03,1.537179220407703497e+03,1.514101774928943996e+03,-3.650259539571265588e-02,5.036797484576794881e-01,-8.631189208463603268e-01
1.425894354956443522e+03,1.523304332545511443e+03,1.497314991235869911e+03,-4.026854266649474161e-04,4.952879787685425805e-01,-8.687287585499969822e-01
1.576185931903093660e+03,1.455677136799575237e+03,1.645302660774916603e+03,4.348605168195036202e-02,6.469142179965670092e-01,-7.613218490645102809e-01
1.491309314234582871e+03,1.369382064225766726e+03,1.484405129627249153e+03,-2.552860606477597716e-01,-2.370497455862501379e-01,-9.373560931452051825e-01
1.602944697017014278e+03,1.488731131682071009e+03,1.657233378737677867e+03,-5.183578496895892007e-01,4.009015883102770572e-01,-7.553694832037380902e-01
1.543738328808480446e+03,1.386630943221534608e+03,1.640134670002930761e+03,-2.254294992045323687e-01,-9.412259489309132698e-01,-2.515457293366271108e-01
1.456098764190141083e+03,1.404220036537110900e+03,1.544622061972036818e+03,9.854119536056363815e-01,1.213637734115020211e-01,1.193068153729903852e-01
1.496458683451447541e+03,1.482756504676341137e+03,1.472228512404373987e+03,-4.062776331516843031e-02,-7.217202486117099136e-01,6.909915105063579865e-01
1.545104859902721046e+03,1.593924521217677238e+03,1.479759051533779711e+03,-1.005097351428140967e-01,-9.133155978260552033e-01,-3.946548009452777173e-01
1.377552087772111008e+03,1.363999401810388918e+03,1.579133153247499877e+03,-4.121960807120460100e-05,-5.560140417525243350e-01,-8.311728963789459801e-01
1.477563667858744566e+03,1.268446176310164219e+03,1.515711645180729192e+03,1.859704211232026717e-04,9.004449842180666241e-01,4.349698792003053871e-01
1.578851432787775593e+03,1.338363820309825542e+03,1.571237316530109410e+03,1.120375298110232306e-06,7.846380638751524472e-01,6.199541182353716096e-01
1.544972930069412314e+03,1.436788682708257966e+03,1.621313328582027452e+03,-9.313832202902307122e-03,-2.968588929577274937e-01,9.548759344551567274e-01
1.413905920717404115e+03,1.621729292015212422e+03,1.599838495392225241e+03,-1.050109975850225494e-04,-3.646453248404086245e-01,9.311464847405714895e-01
1.396634200465240610e+03,1.494832683494616504e+03,1.571046602108966226e+03,6.401565893985328159e-04,-9.585402492081929182e-01,2.849564543003659800e-01
1.467246170242143762e+03,1.431800857311915934e+03,1.444495795685626945e+03,2.493839645283952300e-01,-1.340020332003220849e-01,-9.590886785559925576e-01
1.555206586467130137e+03,1.401186626829400211e+03,1.528265040761123146e+03,-1.050116258979587498e-02,8.564018116673309811e-01,5.162031214136311164e-01
1.360767038412823922e+03,1.318491914305299133e+03,1.610905368709211189e+03,-1.707289902396109949e-01,-8.300971151707465800e-01,5.308393271762813503e-01
1.550553850964901358e+03,1.330604700845843126e+03,1.483222140734076220e+03,8.433362426370741849e-01,-5.373487254989114392e-01,-6.350516473279635594e-03
1.327878913130748288e+03,1.436467968316864926e+03,1.498490392374862722e+03,8.816926659546853173e-02,-9.277294566292257905e-01,3.626902752080055636e-01
1.444937700702570964e+03,1.557765342632115335e+03,1.475516899001813954e+03,-2.126060736941548844e-06,-9.606572038933911539e-01,-2.777368117538820957e-01
1.391351819222687709e+03,1.523129513427473057e+03,1.461609299651031279e+03,-4.949132283693286928e-03,-8.740953963025948070e-01,-4.857290852442833762e-01
1.620000979831596624e+03,1.481462348205554690e+03,1.575304340218126072e+03,-1.687611160186716424e-03,-4.109765489220119083e-01,9.116443540135183987e-01
1.446418535415956967e+03,1.569159742047859709e+03,1.513972276064039988e+03,-1.647278134545863970e-02,-9.501607984526412309e-01,-3.113247573813942015e-01
1.470885052912771698e+03,1.426380277267345718e+03,1.581866497478592919e+03,1.826596832325643183e-01,2.726334437779196623e-02,-9.827981227977173884e-01
1.447608899783862853e+03,1.342685833048449467e+03,1.605012460368490110e+03,5.298054451717476750e-03,-2.457834043040527938e-01,9.693102954099566126e-01
1.370391896736120543e+03,1.488011012942059779e+03,1.565040241305784775e+03,-1.512069967749507804e-01,9.874400885581567922e-01,4.580955833185448162e-02
1.446708103198418485e+03,1.490326944456654246e+03,1.435075980231303674e+03,-8.730617116321502669e-02,8.887130139293867304e-01,4.500742287105151118e-01
1.463189221618308693e+03,1.465219804575487160e+03,1.476135742637096882e+03,4.735543684177773160e-01,5.681922458580841440e-01,6.729813012998107080e-01
1.752963442551777916e+03,1.594975054385248541e+03,1.526963158240730536e+03,-2.405060835189787583e-01,7.649078216412384945e-01,-5.975557280977376040e-01
1.391472888422442793e+03,1.575313572970546375e+03,1.479394581829095159e+03,-3.465387751642270175e-07,-7.550746459878736327e-02,-9.971452365577156973e-01
1.449361284644216994e+03,1.497511485959280208e+03,1.528011124140728271e+03,9.160372767175954667e-02,-3.576557063493198130e-01,9.293498548944887361e-01
1.456679496209302442e+03,1.580809403283004031e+03,1.371750067324268457e+03,4.859845253861323766e-02,8.897949758248148155e-01,4.537654585882107683e-01
1.630712396824934331e+03,1.476444865262585608e+03,1.476300559829996473e+03,-5.341700329281735132e-03,9.955798469789901572e-01,9.376691595057735917e-02
1.555822131021766836e+03,1.486476880302185009e+03,1.518629951050175123e+03,4.455247670281187039e-08,9.158657125463121051e-01,-4.014847401608608313e-01
1.462955327262433457e+03,1.421513476563692393e+03,1.478294723464673552e+03,3.327106167729025621e-02,-6.274530973479618412e-01,7.779432158476060621e-01
1.544268167640243519e+03,1.461266759880669497e+03,1.450977502294436590e+03,-3.076099979081235447e-01,-5.948827178129364457e-01,7.426241588007075345e-01
1.431300918549357448e+03,1.504803616446283513e+03,1.431284648898571277e+03,-7.658370703014552583e-02,-8.173405527841232088e-01,-5.710423422059565102e-01
1.499578435360065669e+03,1.513885375111430449e+03,1.408302886730645014e+03,1.875231286857971177e-02,-8.870475514871173318e-04,-9.998237664252237478e-01
1.409607537980688221e+03,1.433708401645894583e+03,1.569924305702238144e+03,8.639910345198335839e-03,2.595966294300040000e-01,9.656784878715111153e-01
1.494564650630609549e+03,1.364494987938918484e+03,1.562096064651383131e+03,-4.493263628458479819e-02,5.417750980229769642e-01,8.393216316518423703e-01
1.532257558718665678e+03,1.543636591926009032e+03,1.622446139263096711e+03,1.244583383042486245e-03,9.218421284724281906e-01,3.875635963111421778e-01
1.538024800343444895e+03,1.418922579581583250e+03,1.481810885148248190e+03,3.015103814997122447e-02,5.064099178702032855e-01,8.617655771618943916e-01
1.539403035454590281e+03,1.608449778705914696e+03,1.565677543504108826e+03,9.641885563938898951e-01,-3.224470296853907542e-02,2.632502741680193825e-01
1.586722911194379776e+03,1.449270768456146243e+03,1.591291526022594553e+03,-6.771704624336868927e-02,-7.210322891347770158e-01,-6.895845413530793389e-01
1.463992534370227986e+03,1.533147275658615172e+03,1.443258484514595239e+03,8.488401185018131789e-01,6.248662956693484816e-02,-5.249436868343047013e-01
1.415716707239727157e+03,1.434652733874776231e+03,1.533901516069849777e+03,-4.126774071102370239e-03,9.812176421032826612e-01,1.928598158275598717e-01
1.427485948293644924e+03,1.350941782435360892e+03,1.536087416734806766e+03,6.796750388399634994e-04,-8.955143698551036868e-01,-4.450320790963930850e-01
1.474519439686827809e+03,1.526400101853738988e+03,1.442529693636539150e+03,-9.275846643108065850e-03,-5.921899522259675974e-01,8.057450087662099136e-01
1.442177311391205876e+03,1.548494120799110533e+03,1.646194756843758114e+03,5.530336793362510273e-01,5.653730759457686883e-01,-6.119697986955147107e-01
1.734234063407140411e+03,1.602227730807723901e+03,1.469746223650109641e+03,2.570954776236650773e-03,-2.888278802507918686e-01,9.573775878833663544e-01
1.435827353220150371e+03,1.476297720866338295e+03,1.416462362333811370e+03,-1.382112153248770195e-02,-7.686054437854945576e-01,-6.395738021392740613e-01
1.296429484520298047e+03,1.439799095903880698e+03,1.655368206992196065e+03,6.519403760177043821e-05,2.615761268249354732e-01,-9.651828456955721114e-01
1.611562745798100423e+03,1.549339429330238772e+03,1.418800819369561395e+03,-1.910074844771034452e-01,9.312570693505531905e-01,-3.102844044716845939e-01
1.421758526438146419e+03,1.511105110638164433e+03,1.523039749896308649e+03,-5.679704216939833739e-01,6.685863964865170761e-01,-4.800019067815593510e-01
1.540286212876246509e+03,1.440693238611161860e+03,1.441954294803431367e+03,-5.351015855451035641e-01,8.445555749267403822e-01,1.980338373307275607e-02
1.298578193632869443e+03,1.456790536807358649e+03,1.463584504664128190e+03,7.766572726192324527e-01,6.280046197056786683e-01,4.912920227299873155e-02
1.419284157688180812e+03,1.512450170713755142e+03,1.482685409010119884e+03,2.637443281723910946e-02,7.907783425193238847e-01,6.115341382915264745e-01
