x,y,z,nx,ny,nz
1.632853784327380936e+03,1.634439897130983354e+03,1.477855923838813169e+03,-5.429003026744309846e-03,-9.618450314087958475e-01,-2.735409685592781748e-01
1.541750560781226341e+03,1.518645283399223672e+03,1.451516997448515440e+03,-3.890246530855468073e-03,-9.810617029069689243e-01,-1.936563995100791247e-01
1.479530310429447354e+03,1.516603560259636197e+03,1.504165168043090716e+03,5.007600150851288347e-04,-2.611588344505832437e-01,9.652957124258969568e-01
1.484770664576328272e+03,1.535101778682963868e+03,1.607414792648811044e+03,-4.443175967654786063e-02,-9.664623887458291263e-01,2.529353076811370338e-01
1.437244933571703314e+03,1.378316206635201297e+03,1.584150202782805536e+03,1.338075950126011490e-04,-9.946325847472914372e-01,-1.034698190510146554e-01
1.607260733526500189e+03,1.446706654226489718e+03,1.532464117476891033e+03,-9.428017189800486433e-03,6.740729440249679794e-01,-7.386046158976947718e-01
1.448762334798971551e+03,1.540223576477603956e+03,1.516011090435865299e+03,1.642476798708374517e-05,9.708246827913237231e-01,2.397903980841449845e-01
1.423319744465297845e+03,1.409941137473939307e+03,1.575387916842680170e+03,-5.270488736738013769e-01,5.952889759720982887e-01,-6.065068176412100609e-01
1.572851514467079369e+03,1.477205164423785845e+03,1.616159752461085873e+03,9.843494783963332440e-01,-8.424713901331348787e-02,1.547854125844490003e-01
1.327902407939494424e+03,1.448592266056545213e+03,1.579145863539697075e+03,-1.437659414581593325e-05,-6.885752386339812903e-01,-7.251649057514224506e-01
1.437793024928110071e+03,1.331817357494970338e+03,1.578639949486479054e+03,1.726347981081814933e-05,4.943020392981470335e-01,8.692902240607940367e-01
1.509408127659333331e+03,1.583781059610783814e+03,1.545613060794987177e+03,1.769368707151977582e-01,-6.068951732546513239e-02,9.823492893407698157e-01
1.442534210080493040e+03,1.491853972329030739e+03,1.568918242902647080e+03,8.670342561711848195e-02,9.596141019532123950e-01,2.676252815389205120e-01
1.425943710552124685e+03,1.411072296683039440e+03,1.547145597308606284e+03,2.491614476194519203e-07,-1.819555101907156247e-01,9.833067640930649445e-01
1.431893589453941559e+03,1.551891936963547096e+03,1.400861463422793349e+03,-1.528794228826336338e-02,7.915396580692020123e-01,6.109265492056156210e-01
1.513358482481246483e+03,1.550880849665206597e+03,1.543435548774407607e+03,-4.028980893365691901e-03,9.889086090494143555e-01,1.484706377062938176e-01
1.370732687126223937e+03,1.442528099464499746e+03,1.537121884275551565e+03,-8.314031257303178268e-02,9.503679591687820283e-01,-2.998139933535839963e-01
1.384859761103772598e+03,1.537294022029502457e+03,1.625018339172998822e+03,4.492571755341569911e-02,7.118488514544102364e-01,7.008943519428215696e-01
1.496189485937899235e+03,1.576520225512968409e+03,1.463562499396514340e+03,4.560420579708855497e-03,-9.976157411404732445e-01,-6.886243963787866407e-02
1.407688958833218294e+03,1.528802175579455934e+03,1.440189160898200953e+03,-2.311696848842368923e-01,1.733476707560648311e-01,-9.573458945616101223e-01
1.407192381991649654e+03,1.439048834984128462e+03,1.587161998406691282e+03,-1.991209516452597528e-01,-9.261869026861188070e-01,-3.202009804928464543e-01
1.579185879205771016e+03,1.554242160412313297e+03,1.422141621591840021e+03,-9.828556260435468150e-01,1.019699141914588852e-01,-1.536130038581833279e-01
1.582666051195165437e+03,1.463822988488515648e+03,1.559888644781075072e+03,1.241365779138891567e-01,2.543645253496504277e-01,-9.591083350005233932e-01
1.553901986065982783e+03,1.430543129946552654e+03,1.627714166932971011e+03,-4.195845136667525344e-01,4.630575206728705373e-01,-7.807218252612955212e-01
1.476843253827681110e+03,1.501589518346819887e+03,1.557664482561481464e+03,-3.665956017376764639e-06,-9.691934435627261868e-01,-2.463007692671413118e-01
1.486263570899536489e+03,1.472336777457090193e+03,1.550918686323995644e+03,7.280300987086645676e-04,8.571628162146905927e-01,-5.150450237319801339e-01
1.441159955122019028e+03,1.436151829901831661e+03,1.513219229501569998e+03,9.528723309547080245e-01,8.062726006869029571e-02,2.924612210785513811e-01
1.542593037262733787e+03,1.548465612962544128e+03,1.511105147867755022e+03,5.532417015525408210e-01,-1.973307831264714263e-01,8.093109301708106829e-01
1.437225258549188311e+03,1.564507926852158562e+03,1.444549378547375454e+03,1.231862061894430561e-07,-9.958119891461376660e-01,-9.142473556317962102e-02
1.425952634418950083e+03,1.440554867531757054e+03,1.617667555048561553e+03,-5.574386209573802820e-01,8.302093964086015854e-01,-3.813394812994586047e-03
1.402880381468833320e+03,1.612256347090702548e+03,1.459835743370717410e+03,-1.233110228262185651e-02,3.120932727781166593e-01,9.499714379933428265e-01
1.799617502038217708e+03,1.499535192065912952e+03,1.452440674635769483e+03,5.133708648283678011e-01,-5.826440167962462224e-01,6.300605564839854011e-01
1.405728056964447205e+03,1.505343661938434025e+03,1.618860908400464950e+03,1.084326986784278496e-01,9.940904960851589811e-01,-5.141541643879143919e-03
1.432198724866874045e+03,1.443926132908449745e+03,1.506684646326669508e+03,-8.591878569284401796e-04,3.563581682466337441e-01,9.343490342051681274e-01
1.618161051541693041e+03,1.527797976126290905e+03,1.503497087185514829e+03,-1.566012276021720995e-01,-1.646872863513089424e-01,9.738347669023398323e-01
1.580392120582437201e+03,1.546723057759015092e+03,1.500853584317401555e+03,7.291396899558018374e-07,1.959226917575080870e-02,-9.998080530721951131e-01
1.532205993886925171e+03,1.470796298669889893e+03,1.563060572814044235e+03,-3.466236884824137054e-01,-9.313843358679331219e-01,-1.112440447066533888e-01
1.759339714378020062e+03,1.699206560616756406e+03,1.420582077183947831e+03,-1.101649652195038458e-02,9.840026808534144687e-01,-1.778127129247938365e-01
1.442331508921600516e+03,1.531270176464325232e+03,1.565087413494634120e+03,-4.305865117862026081e-01,8.156280556094522849e-01,3.864532711344732530e-01
1.550804239265360366e+03,1.611031104510008845e+03,1.430387919520572041e+03,1.858581336612201254e-07,-6.320620453771789993e-02,-9.980004888314942812e-01
1.502861988874758481e+03,1.472872413036154057e+03,1.513140602314421585e+03,1.882527571625074170e-02,-3.275440538906848054e-01,9.446483481989810249e-01
1.656035333764146117e+03,1.493617225704038901e+03,1.513635087179292668e+03,3.178832632517752943e-02,9.975910941222020378e-01,-6.165639656606390628e-02
1.436310717361096067e+03,1.421046997042438306e+03,1.488857685118859763e+03,-2.104892998943129756e-01,7.322525136242236110e-01,-6.476885910072897046e-01
1.545171570486352039e+03,1.389579413003641548e+03,1.447472474269353143e+03,1.041404537489661331e-01,9.748736800842606742e-01,-1.969164131603308721e-01
1.458511312568605717e+03,1.585499432532388937e+03,1.507609503664162730e+03,-1.736984829620787374e-01,9.847933359259710695e-01,3.304925486285985661e-03
1.578186196146882821e+03,1.377391803060560733e+03,1.498824348275494458e+03,6.003985213865176140e-01,-4.105691721894265678e-01,-6.862612988975644868e-01
1.542320808566635151e+03,1.587314167601314011e+03,1.521160656331175687e+03,2.248021468960290786e-02,2.113113043003883307e-01,-9.771602594366893824e-01
1.497915813084891397e+03,1.652152585500700070e+03,1.520987332771604770e+03,-2.293355920115807886e-04,9.762192770174589196e-01,2.167853098913674059e-01
1.478978628559468916e+03,1.509080883296983529e+03,1.550156530287884380e+03,-2.836678913235033961e-01,9.588965730850950164e-01,-7.063254047415369087e-03
1.547985912637910815e+03,1.528506934391414006e+03,1.437201058669970962e+03,-1.779086915233034361e-02,8.458094219529093127e-01,5.331884345243153023e-01
1.542167831405030483e+03,1.512297667775578020e+03,1.534815700356036359e+03,1.248101134796683886e-01,-9.848298524417169464e-01,-1.205512227761224575e-01
1.408127915525974913e+03,1.371150011113575147e+03,1.594480131839559135e+03,2.868619719697554086e-06,3.647459530146909823e-02,9.993345805531624881e-01
1.426855019786749835e+03,1.489387617398961083e+03,1.446067374872755181e+03,8.074205347324422966e-02,-9.554951977713181943e-01,-2.837422207512891315e-01
1.495466170766081405e+03,1.453293234053457127e+03,1.535381981179549257e+03,7.532422763844762725e-01,2.507273567137121573e-01,-6.080804763043189398e-01
1.581516547769823319e+03,1.557501664435636030e+03,1.530562144326855332e+03,3.306443262586629406e-02,5.737223151222183709e-02,9.978051765482265356e-01
1.664536166920388496e+03,1.590269748266378429e+03,1.464157858683816130e+03,6.982921859337219662e-04,9.989037122568168448e-01,4.680690149511602949e-02
1.633539527489298052e+03,1.437437816223584377e+03,1.405363015768116611e+03,5.766712842370019104e-02,9.863178812432362719e-01,1.544394361528751702e-01
1.610602759882607870e+03,1.590361935549760346e+03,1.546060430400555788e+03,-1.218494378754582472e-03,9.958669190942758265e-01,-9.081626905529713301e-02
1.551877326836530074e+03,1.460632611537913817e+03,1.529641845829784188e+03,-2.140137908048635462e-01,-8.942714233739654794e-01,-3.930352639166542206e-01
1.553990272294053284e+03,1.543790812995164515e+03,1.509973261749176118e+03,1.649444641687316235e-07,-6.638100658852279234e-02,-9.977943485329365814e-01
1.532548579249191107e+03,1.497186280158355657e+03,1.544142566362943171e+03,-9.803947956193832484e-10,5.832750980848505629e-01,8.122746825761024692e-01
1.509843797603995654e+03,1.379668636391141945e+03,1.496116115916754779e+03,1.405394001891837885e-01,-6.162489926502101589e-01,7.749102245112435838e-01
1.420323488691221655e+03,1.623196897927660984e+03,1.511515427834867296e+03,1.009525419089296952e-03,-2.367678403135569428e-03,-9.999966874732173494e-01
1.399107571461163843e+03,1.389634052998581865e+03,1.590814718832202743e+03,-7.104268490655106516e-02,9.715477327492580972e-01,-2.259379116284931377e-01
1.795954353663186566e+03,1.577474595960593660e+03,1.533557825736774021e+03,6.279808014950968419e-04,-2.839909278599449527e-01,9.588267614816351481e-01
1.438492877525000722e+03,1.592358657113021081e+03,1.545232253445638889e+03,2.721004527869675879e-03,9.418003369843065409e-01,3.361617488510642016e-01
1.345439516361672077e+03,1.351822194577000346e+03,1.456413838055006636e+03,2.447341379827766283e-01,-9.402675043703473401e-02,9.650202961119931366e-01
1.496887277808920089e+03,1.534557128272289674e+03,1.486453856847564111e+03,-3.222101417230753551e-02,9.404261089909239368e-01,3.384679302000394574e-01
1.468064742179702307e+03,1.677338250384897947e+03,1.511734987188709511e+03,-6.973731025319560625e-04,9.810285124819059233e-01,1.938622484350544239e-01
1.485768364047475416e+03,1.475054708833440827e+03,1.506676331607448674e+03,1.013082459795716997e-02,-4.160685045325789727e-02,-9.990826974721991327e-01
1.448560671119350900e+03,1.414454372455356179e+03,1.529482103891183897e+03,-3.520478469634158447e-01,7.896567072120338482e-01,5.024983564186769058e-01
1.658075214235243493e+03,1.586685340965967725e+03,1.482088646606948487e+03,5.078491243329737864e-02,2.623274092594685691e-01,-9.636416465784144458e-01
1.529712755457723915e+03,1.590416316315275253e+03,1.461397586974281921e+03,3.233268822997365510e-01,2.157268333916477487e-01,-9.213694484500475346e-01
1.441039048034109328e+03,1.591915075967073335e+03,1.531961854646522852e+03,-6.728015802159341419e-02,9.945127208348383263e-01,8.011135022128032523e-02
1.660124057990816709e+03,1.629698874130106333e+03,1.504238962922499240e+03,-1.805606837474988045e-05,3.758950482658380832e-01,-9.266622428712640858e-01
1.350313587761763984e+03,1.461163330340679977e+03,1.517907839161094444e+03,1.571929317171959377e-05,1.075282475680159888e-01,-9.942020296337437113e-01
1.453811145688472607e+03,1.558966641473974505e+03,1.533918251170804979e+03,-1.422711989632320650e-01,-9.898221413857040130e-01,-3.321801948304099836e-03
1.632692761853953471e+03,1.514104484046255720e+03,1.468374542026121844e+03,3.430205594377281342e-01,-2.225134279619323252e-01,9.125922803638315539e-01
1.415247924908922869e+03,1.588245498630680686e+03,1.674584796917845779e+03,-1.400843941974862228e-02,9.064613978783238046e-01,-4.220562732403090878e-01
1.538962169684018363e+03,1.612589375941572598e+03,1.497866419768314472e+03,-1.069096594182805454e-03,9.483100204584316018e-01,-3.173436026306519220e-01
1.539672315435745304e+03,1.471481960902210631e+03,1.523150584974091316e+03,-2.729498275259216802e-02,-9.915229220002824695e-01,-1.270325905606815575e-01
1.446325056938632542e+03,1.520858204889530043e+03,1.638531616396049230e+03,-4.116944769709355301e-01,-8.690917493646166392e-01,-2.742028242341392197e-01
1.423150601857432321e+03,1.503662059373098145e+03,1.612368459875865028e+03,-3.204106543656974893e-01,2.115029683712063568e-02,-9.470425954056381768e-01
1.443870519640089697e+03,1.495428678035583516e+03,1.522764727786665389e+03,5.726542737254156209e-04,6.764378475358656662e-01,7.364994979551090504e-01
1.472110863705877136e+03,1.557914240992854957e+03,1.415726049222375423e+03,-9.344452660129068944e-01,1.873495956318047828e-01,-3.028401787125792888e-01
1.600247298088537491e+03,1.569383649823774704e+03,1.480901486516728710e+03,3.627175757457059158e-04,9.916093567961138389e-01,1.292700736843516440e-01
1.530124463492302311e+03,1.516874808278894307e+03,1.543130810783941115e+03,-2.181622645197046320e-04,9.990204207743524911e-01,-4.425100316447067028e-02
1.563137308678720728e+03,1.451413607394783412e+03,1.569638458449419659e+03,8.547951250962555360e-09,-3.213616669805638426e-01,9.469565349029875900e-01
1.542186088642202776e+03,1.638232570434874788e+03,1.447225908388715879e+03,3.785221789619782392e-03,1.495316063369264981e-01,-9.887497007849367359e-01
1.561552784781414402e+03,1.556301100163043657e+03,1.556534412301556586e+03,8.981110159490590704e-04,-9.226638082556315457e-01,-3.856043183521396522e-01
1.441927434818239362e+03,1.413775617361133072e+03,1.498905003406335254e+03,-2.576603963252662166e-01,7.261219876019643360e-01,6.374621394925972240e-01
1.436263441817304965e+03,1.452691313965849076e+03,1.494062792140372494e+03,-5.780528351740401156e-05,5.521465328708354825e-01,-8.337470856904176664e-01
1.441923551545285591e+03,1.413856803488592050e+03,1.465945794749449760e+03,-3.147929561769041706e-02,-5.518728922714657426e-01,8.333338855004883694e-01
1.619627572844329052e+03,1.520960758909427113e+03,1.564766755003974140e+03,2.100888916461378653e-01,7.148920827946286805e-01,6.669272580757628077e-01
1.461518117980074976e+03,1.544166801911514540e+03,1.592271242329904453e+03,3.573054073856123808e-02,2.542287429013932731e-02,-9.990380402774249324e-01
1.668523181412753502e+03,1.635199748336990069e+03,1.468418665468182780e+03,-6.363203608069526451e-01,-3.552880896508721076e-01,6.847384696179581454e-01
1.538645673347410820e+03,1.622625991052625295e+03,1.543644883176654730e+03,3.046569655577818780e-01,-7.932231292065854145e-02,9.491533616913768734e-01
1.645425491435900085e+03,1.605734126056853484e+03,1.487883478686022727e+03,4.858124957795348364e-02,3.459809775604102411e-01,-9.369829376012069888e-01
1.498007565426954670e+03,1.509047763336098114e+03,1.430417217636115538e+03,2.830249160257265473e-01,2.418537108887682807e-01,9.281183542188801150e-01
1.380387466485146206e+03,1.450460202619266283e+03,1.569077263203970006e+03,-1.630099392197348496e-06,-7.985629032273450223e-01,6.019113635631552217e-01
1.405916136509851185e+03,1.515747126796574321e+03,1.587692454792761964e+03,-1.664958419117645237e-06,-9.798863094628992298e-01,-1.995565597127970103e-01
1.416058838592143275e+03,1.409578562098148950e+03,1.462028511253269244e+03,1.990292700925559433e-01,-9.740854286505506998e-01,1.074473235455280784e-01
1.455040349614216666e+03,1.553737522065018538e+03,1.557484922653228978e+03,4.011658085998335600e-04,4.926834551937772644e-02,-9.987854970892284800e-01
1.489140311950884097e+03,1.509226668958271830e+03,1.482279980464733626e+03,-1.316562622830346613e-03,4.223190833528977506e-01,-9.064462799851011887e-01
1.530861599671812883e+03,1.710596676263448899e+03,1.537303848845180255e+03,-2.555878615942497670e-03,-4.381820635374056860e-01,8.988826100657424378e-01
1.464813005558779651e+03,1.643525142514343997e+03,1.525441677296306125e+03,-5.478444774178666682e-02,-2.364123838929624213e-03,-9.984954057000470229e-01
1.551693340747765887e+03,1.463488296310676105e+03,1.569834672441010298e+03,8.654404493504823381e-02,-8.848739327429553381e-01,-4.577207133594635713e-01
1.505582254632211288e+03,1.484889634816868920e+03,1.509308839267153417e+03,-1.974011285275686645e-01,5.587170165160058044e-01,-8.055234881190588281e-01
1.507828014403949965e+03,1.561147190667757741e+03,1.485641392715445591e+03,-5.406148701843263137e-05,-9.118882241387991083e-01,-4.104386236142292810e-01
1.545541615067791099e+03,1.567870521734211025e+03,1.454563845301155879e+03,8.053454621613050091e-02,-9.607804980954065543e-01,-2.653582886312475519e-01
1.614695066199980829e+03,1.514077562290069864e+03,1.432450165467961369e+03,8.964394224867283656e-02,3.348665833485374166e-01,9.379916497360697436e-01
1.439596329005401913e+03,1.618800595946792100e+03,1.541726159071970415e+03,-7.538137981490535640e-04,-2.847474226054765856e-01,-9.586022830581490961e-01
1.381113159798537481e+03,1.494819962969080052e+03,1.587154280266835713e+03,2.121732637167476898e-02,-3.736607678892170381e-02,9.990763741411575749e-01
1.638074242453551960e+03,1.570110264383333060e+03,1.525005042804954428e+03,1.285670107912987303e-01,-3.911747536362540634e-02,-9.909290322002712870e-01
1.570298748271544582e+03,1.535037818809310920e+03,1.550990778551305084e+03,-1.952654115237223746e-04,9.485356005794793877e-01,3.166704537918645368e-01
1.376115232504930873e+03,1.580305855738956097e+03,1.496950622240210350e+03,-1.118303229056087861e-03,9.985538178197622683e-01,5.374962618907189182e-02
1.459606685166749003e+03,1.541255300018024855e+03,1.457698599342618991e+03,1.413485828461582064e-02,1.170870738768833158e-01,9.930210586448925403e-01
1.584890492610210686e+03,1.434053204509852321e+03,1.386670075231839746e+03,-9.408035246226491288e-02,9.719062966649764101e-01,2.157476252095187341e-01
1.481632135906347230e+03,1.604012098299006084e+03,1.476997833676422260e+03,3.134097642630149227e-01,9.479592194775764147e-02,-9.448746228186446494e-01
1.610069132694793325e+03,1.517684955333411381e+03,1.559346877807911824e+03,-3.858496332625157565e-01,-7.435039314649987130e-01,5.461885795284197043e-01
1.552699642343451842e+03,1.526786194323489326e+03,1.484445035134890304e+03,-1.604030455591533896e-03,-1.814597170646369273e-01,9.833970704497341231e-01
1.463716702381958157e+03,1.519974758245144130e+03,1.413219539260907823e+03,-2.677766139407298795e-01,-9.407760291452660351e-02,-9.588769940176341544e-01
1.368377477123217659e+03,1.396499860862458945e+03,1.449379404282723272e+03,1.789109015290850715e-02,2.163472414937415295e-02,9.996058461234211823e-01
1.529798057733861242e+03,1.683289993561064648e+03,1.484145844327523264e+03,-4.018900706084714515e-04,3.653545372564199339e-02,9.993322766254638667e-01
1.657057461758837462e+03,1.582791166968688003e+03,1.534587156866687110e+03,-9.200436325331069753e-02,1.001812206753612267e-01,9.907062734061733433e-01
1.375245823474722556e+03,1.510713404765511768e+03,1.520882833572499294e+03,-5.672345541580397582e-07,3.452830524018244973e-01,-9.384985954831031041e-01
1.602315980110014380e+03,1.463313813465855446e+03,1.459669232807433218e+03,-6.016918510383849666e-07,-6.875780441440023649e-01,-7.261104827853309684e-01
1.438719313712852681e+03,1.595304988673467960e+03,1.599596496859753415e+03,-2.632408923435372028e-01,9.425521125579050530e-01,2.056690246751043949e-01
1.423499184953049280e+03,1.410299566648207474e+03,1.596151393272505629e+03,5.414286172988036879e-05,8.949103376967807444e-01,4.462459910766529703e-01
1.436070618353332748e+03,1.485703879097213758e+03,1.412131854172288740e+03,4.806729268412180955e-01,-2.095338724631248817e-02,8.766495839072777629e-01
1.531379270800220183e+03,1.467576183790966979e+03,1.596055825274288054e+03,-7.101272842909782390e-03,-5.135269747756077141e-01,8.580440653613443658e-01
1.454449338813758004e+03,1.540957934020703306e+03,1.524987500401936813e+03,-2.568483403912738203e-04,2.457610388770465060e-01,-9.693304110565215126e-01
1.531420980023634002e+03,1.455470139256763787e+03,1.485373380855224696e+03,1.732707285807227535e-02,2.569234135317499668e-01,-9.662764263529171060e-01
1.504005105428984052e+03,1.447762503860150900e+03,1.474657617703228652e+03,3.194501098922573347e-04,6.029858135229475558e-01,7.977518452762716317e-01
1.482967404026043823e+03,1.628581618737214967e+03,1.484141858135604025e+03,-8.256680810208154309e-02,-4.261968097050483628e-02,-9.956737844263082726e-01
1.441638172641957453e+03,1.380395711905499638e+03,1.480145080541351490e+03,4.703553928510466504e-03,-4.037505078886587939e-01,-9.148570401762735615e-01
1.557040979711164937e+03,1.541083554324716260e+03,1.461416688287759598e+03,-4.814580176687249628e-03,3.336942758548512855e-01,9.426690564983178922e-01
1.577655738424567517e+03,1.508120546466985843e+03,1.584842692733522199e+03,2.575529828867573201e-01,3.418477969504738478e-01,-9.037735030007469916e-01
1.575214539650259667e+03,1.466969925789277340e+03,1.510876214694890223e+03,-7.690593418941806814e-01,5.736284852434092585e-01,-2.819540557655472734e-01
1.452262282697464570e+03,1.428829291282291251e+03,1.577528475870527245e+03,1.771572097024761427e-01,4.963336301762996117e-01,8.498636658938004684e-01
1.522095985221269757e+03,1.559191660719507581e+03,1.574390257766861168e+03,1.489272826242989678e-01,-9.888425819871804467e-01,-3.318514587694099821e-03
1.413158753189027266e+03,1.544561389803992824e+03,1.635616286744700574e+03,-8.798411333226737741e-01,4.647671755056969056e-01,9.935317149406852621e-02
1.687424741174760356e+03,1.614998993703124142e+03,1.535856295413553426e+03,2.342033863120924434e-03,-9.999244654505589081e-01,1.206558207456328094e-02
1.553687867148087662e+03,1.370148663549748790e+03,1.465414803814202287e+03,8.465493996485818490e-03,7.441368244271170385e-01,6.679735937467299323e-01
1.542828359941882809e+03,1.468691776868970237e+03,1.494695396639526280e+03,1.267196408591239332e-01,8.063394906782612725e-01,5.777185806197139284e-01
1.592819113262060910e+03,1.449945056199656392e+03,1.545351229014095679e+03,1.204755481279769816e-04,8.591898725114791580e-01,5.116568659359028715e-01
1.562093416035019345e+03,1.415193509655086473e+03,1.447981026864423256e+03,-2.582360658118669772e-01,-9.203520816489317857e-01,-2.937110486830334377e-01
1.416835622931165972e+03,1.340959169366183460e+03,1.604099323610866122e+03,-4.936508753952133406e-03,-1.584532720831935693e-01,-9.873541367956339965e-01
1.615233898349637002e+03,1.570862240310986181e+03,1.508432692381160905e+03,-3.243857182984773435e-01,-7.093860691511953975e-01,-6.257358153871298567e-01
1.496199791036778606e+03,1.497481793646224332e+03,1.503569306122817125e+03,-8.131193156148029070e-04,-1.227645076359907134e-01,9.924354963935295704e-01
1.430535588313426388e+03,1.545717885745061722e+03,1.471307026793504065e+03,-1.936405266185359519e-01,8.622895572024354971e-01,-4.679316894489233825e-01
1.482170464357854144e+03,1.336638315931325678e+03,1.577865053183604914e+03,-1.006157008590985724e-01,-6.077560451693660637e-04,9.949251787814106240e-01
1.491954473062490479e+03,1.530567277009786494e+03,1.509105450527350058e+03,2.064202087234798084e-06,-9.621913685670187011e-01,2.723743201017062021e-01
1.468060121879360167e+03,1.358807313849871889e+03,1.580425502608359693e+03,1.677843399575137673e-01,-4.166388894894231670e-02,-9.849429098291290208e-01
1.420613329503610885e+03,1.511234291145396128e+03,1.461745874875051641e+03,3.115690944863284788e-03,5.202746407751749312e-03,9.999816117808131288e-01
1.449819990368124763e+03,1.513088595494142965e+03,1.586692180504251610e+03,2.265009237854287982e-01,3.589972547743304765e-01,-9.054381826435429215e-01
1.497398289406785807e+03,1.531381243186472602e+03,1.532451981364976973e+03,4.290492206451206741e-02,1.430821982546608695e-01,-9.887803862361207452e-01
1.594668980359966781e+03,1.541361735092772051e+03,1.534883609803074251e+03,1.701048170842012935e-05,-1.047100340404970298e-01,-9.945027946073763392e-01
1.688118073602924824e+03,1.597710797069834825e+03,1.540855897679590498e+03,1.688653383095557273e-05,5.581148124800340282e-01,-8.297637349301435483e-01
1.564416335665147244e+03,1.538454595199073083e+03,1.477500971072458469e+03,2.157617378356319711e-04,9.610528932996699192e-01,2.763644147266537954e-01
1.589359209751072285e+03,1.433967706415762905e+03,1.463232802806062864e+03,-1.601078295136290721e-06,9.987904567999477123e-01,-4.916933396730448907e-02
1.487660777636872353e+03,1.485925556513942183e+03,1.568414506281261765e+03,-1.376805675766362399e-04,6.961356202284167960e-01,-7.179102863821208436e-01
1.407489737582207226e+03,1.474653587789259063e+03,1.441011897396640961e+03,5.412578738095060599e-02,-2.120837336528043349e-01,-9.757514484028597668e-01
1.522354493137261443e+03,1.472859612088365338e+03,1.575284717770412044e+03,-4.020040524510861135e-01,-1.408967940082608006e-01,9.047324661197353457e-01
1.406051317715484174e+03,1.610502932614284191e+03,1.563343047763059758e+03,-1.335900423819241269e-02,9.858196847881490754e-01,1.672754796434858804e-01
1.445381306575896588e+03,1.487068550277423810e+03,1.473110911946492024e+03,1.058848353729885481e-03,3.419593025610814536e-03,9.999935925913240320e-01
1.541228503718850789e+03,1.554106128476355707e+03,1.446841402446962547e+03,-4.227179930151525045e-01,-3.121287628224537758e-01,8.508143944481462162e-01
1.451103853422376915e+03,1.542767970732237700e+03,1.592440930610085161e+03,1.921977770520097994e-01,5.172059758391117645e-01,8.340011948747904080e-01
1.267658497830773285e+03,1.477655500358210020e+03,1.499521171193533291e+03,-2.630027093265686601e-05,-9.734017126297903610e-01,-2.291050090191979471e-01
1.750563046559793293e+03,1.586340816054939523e+03,1.559299810680744258e+03,-3.406195398108641428e-06,-1.403088260728543868e-01,9.901077887353757490e-01
1.480958044476856912e+03,1.439002038779271061e+03,1.543775728460777373e+03,4.631929491056333559e-01,5.570547701059562762e-01,-6.893056470108354095e-01
1.768126020143592996e+03,1.636165215858806278e+03,1.448362138663582527e+03,1.597608101227296004e-02,-2.197804646065891487e-01,9.754185318173943520e-01
1.490303354642909653e+03,1.449833800310178958e+03,1.494456252663615942e+03,1.292133838477081166e-03,-5.521460728584808297e-01,8.337463910669123957e-01
1.522578110594922009e+03,1.559866912687708918e+03,1.415139501193998285e+03,1.173109638805603283e-04,-4.187756265734202121e-01,9.080897317039638983e-01
1.524289310307134883e+03,1.402104889507139887e+03,1.546747122522692507e+03,8.339416065994682478e-03,-7.622755566956290751e-01,6.471989105399105213e-01
1.552729384693751399e+03,1.519594483297596753e+03,1.541397375933494232e+03,-1.998738462837227128e-02,4.011587716980130613e-01,9.157904478347975719e-01
1.496173184880967483e+03,1.489400725925101824e+03,1.540078677757444666e+03,-1.873307869392197567e-01,8.561145606595584878e-01,4.816378673769576846e-01
1.468842780488387916e+03,1.460663995769360326e+03,1.586804918002646446e+03,2.339311934425668087e-03,9.647555950367064925e-01,2.631371685358112056e-01
1.437809396094174872e+03,1.495155336515492536e+03,1.542960650927847837e+03,-5.053425124354218173e-02,-9.798685811997389639e-01,1.931420540143064801e-01
1.488649161875221807e+03,1.454677228522858059e+03,1.437139765810970403e+03,5.406728361517684212e-01,7.560955202920264240e-01,-3.687715396311557758e-01
1.605673865452317841e+03,1.527506275611159481e+03,1.433471716556895444e+03,3.099882721540296246e-02,9.758825755109992173e-01,2.160839455519279473e-01
1.527534013213551589e+03,1.524108352833390882e+03,1.414936114805646639e+03,-2.194392350855085827e-01,-5.737690683529558244e-01,7.890725431203825524e-01
1.574177396254496671e+03,1.478816294835273084e+03,1.497846222363351899e+03,-1.228041622855070283e-03,-9.362074552646654224e-01,-3.514457178863217290e-01
1.537991500354460186e+03,1.621928906548182567e+03,1.533976527867752338e+03,-7.577389399743664732e-03,2.027840950400506548e-01,-9.791941553995675562e-01
1.420553323165269376e+03,1.577287346515994841e+03,1.417265407529229151e+03,4.871229304556293771e-01,-3.707531382415914234e-02,-8.725460857336764242e-01
1.478939048405176891e+03,1.616865934280642932e+03,1.543711553487013816e+03,1.473220600071721217e-02,-8.018122481611342223e-02,-9.966714269473868626e-01
1.428243720778805255e+03,1.472104696186356250e+03,1.583019635169065850e+03,4.507769804059712019e-06,4.529958382880932000e-01,-8.915126305742099300e-01
1.489052676029172289e+03,1.528653241164607607e+03,1.572081436807951832e+03,9.103298293151258491e-01,4.131042979828370432e-01,-2.538583950160644420e-02
1.457388197221539258e+03,1.542741771480556963e+03,1.343250084201371465e+03,-5.739073836712433631e-03,9.872319700636570383e-01,1.591857415591217961e-01
1.389490935691379718e+03,1.404645343059797597e+03,1.576681104016589416e+03,-3.326069410652355285e-01,1.008626211320234056e-01,-9.376563093232002100e-01
1.501280375369991134e+03,1.412363169206467319e+03,1.487355264838017774e+03,-2.343382904890108781e-02,5.973641846492530050e-01,-8.016276483221121962e-01
1.458635963639794454e+03,1.554545099659500693e+03,1.417241261529245776e+03,-5.505525973965411541e-05,-2.380885664697066084e-01,-9.712434460449751450e-01
1.338039594835753860e+03,1.506405674308927246e+03,1.484373028033530545e+03,2.149290270376975045e-10,9.301233035552572970e-01,3.672473828136216256e-01
1.401363595409511163e+03,1.525454524537965881e+03,1.629451811385422616e+03,-7.669064460133850577e-05,2.834419411215346463e-01,-9.589893952134203037e-01
1.664177943013937238e+03,1.469196963107449619e+03,1.561205875958516117e+03,2.144631703214255631e-03,5.756474423846782464e-03,-9.999811316005243755e-01
1.404850662429798604e+03,1.386468495631535689e+03,1.519173647608745341e+03,-5.079615546084540467e-01,9.212617187426783150e-02,-8.564390389838353324e-01
1.654690674680625762e+03,1.534739562013178102e+03,1.463180704968242026e+03,5.925273756926279639e-02,-9.967697410748221909e-01,-5.421435573886435044e-02
1.563717869457992720e+03,1.719859225761890002e+03,1.494932293695459293e+03,-4.039678377778142641e-03,-4.197886854456217010e-01,9.076128803462636396e-01
1.442621099687422884e+03,1.472071994551874013e+03,1.471699985615135574e+03,4.868678797144347338e-05,7.913433814561857682e-01,-6.113719410106145391e-01
1.608656706893760884e+03,1.641113270717018850e+03,1.400488906966691502e+03,1.902554534337129802e-02,-1.670351803720465100e-01,-9.857673544718679182e-01
1.640413300128644551e+03,1.425228732949736923e+03,1.476797607808766770e+03,3.517728969083592228e-01,6.436317511885801812e-01,6.797014034578878761e-01
1.495894013078571561e+03,1.393781668167194312e+03,1.552471621365144756e+03,-8.577826760062967626e-02,5.019347967516044756e-02,-9.950490959774467292e-01
1.597142432506654359e+03,1.477721714270689517e+03,1.609772820276626589e+03,2.528148732856522023e-04,1.163033427796054536e-01,-9.932137073877552735e-01
1.589653828909415779e+03,1.595709936153016997e+03,1.435721987066562178e+03,-7.491820442949829748e-07,-2.042448291844831954e-01,-9.789198382660553310e-01
1.642731437179061913e+03,1.504259600536736343e+03,1.490348290233435591e+03,1.105411551652570566e-02,-2.393124023252701238e-01,9.708796942069884972e-01
1.471389208118786883e+03,1.661090434496792568e+03,1.438257920009966028e+03,8.395671432483190477e-01,-5.357390590671317065e-01,-9.005927252493806101e-02
1.601606039853250195e+03,1.517439730783261894e+03,1.494296733225967273e+03,-2.676427844903962391e-02,-2.536718383319767067e-01,9.669199924690655701e-01
1.529761060346317890e+03,1.520774426023594515e+03,1.389787094506815947e+03,-5.193195160195873770e-04,2.767326969595976238e-01,-9.609467959989812513e-01
1.582525425118449675e+03,1.564553145202192127e+03,1.516179965891122492e+03,1.188627061968499099e-01,-9.922052339805671473e-01,3.742232939208123971e-02
1.492956703985061040e+03,1.422538365438687379e+03,1.486002584494678104e+03,-1.056832916247286286e-02,-8.063260554604058106e-01,-5.913768702818670286e-01
1.482931783575127156e+03,1.455626865706917897e+03,1.393054956695756346e+03,5.942634967659186085e-01,5.179250442160902024e-01,6.153084957850851744e-01
1.417811358759378891e+03,1.568163983830483630e+03,1.679247209855728670e+03,-4.291790581333126964e-02,9.480322026215544373e-02,9.945704614498277474e-01
1.604738515382920696e+03,1.502501295321087355e+03,1.463109051914435213e+03,4.319340815742553954e-05,7.698760710670865537e-01,-6.381934137333569179e-01
1.631818637785740748e+03,1.548938342651903213e+03,1.502306298348484916e+03,9.789080085496006944e-01,1.066844242431267027e-02,-2.040227809184409491e-01
1.605286014085067563e+03,1.444396064757276690e+03,1.534763494789829792e+03,-8.337019527042045797e-02,-9.729527629590372095e-01,-2.154352143706954326e-01
1.469872946708449717e+03,1.553972348775166665e+03,1.550988132587117434e+03,3.541162058826596848e-02,-7.469370263651228248e-01,6.639511245356397584e-01
1.479753196044771585e+03,1.513129361995084309e+03,1.538914699197584014e+03,-2.513308243988944257e-01,-3.567453621298464772e-01,8.997586139103179725e-01
1.620004319542227677e+03,1.541732118715542128e+03,1.582970865695137036e+03,1.581268953173984096e-02,-7.549520329689098919e-01,-6.555893430844363934e-01
1.382243405855148012e+03,1.487386265071178514e+03,1.558814711008445329e+03,-1.045111676383009080e-04,-9.879889769812350009e-01,-1.545243360800774290e-01
1.422059526029392600e+03,1.519893157963958174e+03,1.535493432607080422e+03,6.009465150349049128e-02,-3.679100659645350158e-01,9.279174619666588075e-01
1.437616132004555539e+03,1.474509853329576117e+03,1.630597922021825525e+03,-1.995205763971457519e-02,9.691252749789639256e-03,9.997539672419816226e-01
1.662034246940350613e+03,1.528389743786349982e+03,1.438791801905624197e+03,3.109919530757173506e-03,9.308901117964375471e-01,-3.652860908385760497e-01
1.766018066723372613e+03,1.661674274331741572e+03,1.357602078427189099e+03,-2.474699012239626461e-01,-6.978178173835461462e-02,9.663794031981552957e-01
1.441596050891274899e+03,1.481134516739496348e+03,1.574511054136542725e+03,7.729489372888098848e-03,5.760103340362652258e-01,8.174058661873333520e-01
1.511638089146539187e+03,1.555058653082731098e+03,1.540952803914975902e+03,8.546471669721053543e-02,4.908808633259492682e-02,-9.951312184732570287e-01
1.526856257954839748e+03,1.505981820437421447e+03,1.482083952364473134e+03,-1.903785492240460953e-01,-2.532657936511279947e-02,9.813840086189554723e-01
1.668703540074185412e+03,1.654783030921906175e+03,1.554544217757913884e+03,1.052296206692462238e-01,-3.738080605405433854e-01,9.215173686961760646e-01
1.567886556843818198e+03,1.642989688406365985e+03,1.476212415964011143e+03,7.160156129763223243e-02,1.624119969709362787e-01,-9.841217199410111638e-01
1.497550042393785816e+03,1.467398443807787316e+03,1.420762928044854334e+03,-3.490601364061213241e-02,-8.060800287936568109e-01,-5.907762329272724378e-01
1.461455633014695650e+03,1.648019091297184559e+03,1.562888376887049162e+03,-1.333507016411257496e-04,3.778759365025627925e-01,-9.258562301080559553e-01
1.475015118263444265e+03,1.546699095895441133e+03,1.506673894806530143e+03,1.768274785896785817e-04,1.049266819668699391e-01,-9.944799445657344084e-01
1.513506712771255025e+03,1.473924531729187720e+03,1.582440760279288725e+03,-1.958784531010300811e-01,-3.771035148126350989e-01,9.052207303893919921e-01
1.502628101135461065e+03,1.409476177495670072e+03,1.516239348945586016e+03,-6.367958188323700336e-03,-4.130450159750888584e-01,9.106883461902048893e-01
1.748553744896989656e+03,1.670147149237759095e+03,1.429097808364350840e+03,7.870722617583490732e-02,2.191266222110745676e-01,-9.725166815978382173e-01
1.639678515925747206e+03,1.433122393291730077e+03,1.608810714928530160e+03,-3.299856516013191521e-02,-9.136009525754682503e-01,-4.052707664643104835e-01
1.662409595674786260e+03,1.587059894230560303e+03,1.564349898115772703e+03,-2.969066644754768669e-01,-5.839285386181260196e-02,9.531194611421590634e-01
1.508481023138184582e+03,1.602002674415431102e+03,1.445850075573688173e+03,1.345039044642864362e-02,-9.972620581873377077e-01,-7.271502112214317526e-02
1.492519656757709981e+03,1.473107397413698664e+03,1.545494268231501792e+03,-1.016996757277146987e-04,9.232738636377201269e-01,3.841423725399900624e-01
1.536685735406905223e+03,1.507441730103606233e+03,1.490982304889141687e+03,8.265659596979550716e-03,8.880581434111116668e-01,4.596568424299113387e-01
1.364070224758059794e+03,1.492150219062021051e+03,1.582486980153008517e+03,-1.015598098848499106e-06,3.010239340835521582e-01,-9.536165849584569143e-01
1.687246836999027892e+03,1.571622526418196458e+03,1.534641619630998775e+03,2.732821752483075210e-07,-2.684795637668857538e-01,9.632853802687281197e-01
1.532724769088954190e+03,1.591179723115857087e+03,1.492088156400940989e+03,1.868228428572796251e-01,-2.327150860331528848e-01,9.544322470030581762e-01
1.380826009825894516e+03,1.503300580536125153e+03,1.506110369865900111e+03,-8.144629039896700284e-02,-9.762607607271208687e-01,2.007023389120078938e-01
1.446989783946709849e+03,1.519584178514134237e+03,1.486898132861870636e+03,-6.056373501396304128e-03,4.223117040261202271e-01,-9.064304413370979363e-01
1.540340184555553378e+03,1.553507816746472827e+03,1.389883404326191112e+03,-8.577094802888851274e-03,-7.719090086805620032e-01,-6.356751652869053748e-01
1.496315868148213212e+03,1.488956557733283944e+03,1.520546403900054429e+03,-2.019835040261481474e-01,-5.905576571176980316e-01,-7.813093610862309468e-01
1.495707606982498874e+03,1.575280746557748671e+03,1.584782456488264643e+03,3.439805284539383390e-01,3.833085353136717055e-01,8.571767395352238861e-01
1.350158979962817284e+03,1.556896360663793757e+03,1.633299759672234813e+03,2.006321121454977818e-01,9.755715555375420178e-02,-9.747970850265695875e-01
1.463306376923758080e+03,1.549541789100047481e+03,1.558324287524949114e+03,-2.599402401983429978e-01,-4.672059358270130164e-02,-9.644937831115905080e-01
1.497174265204431322e+03,1.547400078732115389e+03,1.495851526864962807e+03,7.968458421086254719e-04,-5.741232066874049078e-01,8.187685317473279989e-01
1.508824167142123997e+03,1.521566587264994268e+03,1.397867694575841597e+03,2.130517588779008709e-01,1.178403290182931523e-01,9.699085549142729690e-01
1.583718288649444503e+03,1.538993681592980238e+03,1.594609488583789471e+03,-5.923071605991976629e-02,4.708844310075279704e-01,8.802042802155337631e-01
1.688616991532837801e+03,1.510377780563908118e+03,1.504810776109007747e+03,2.202238677828225466e-01,7.315276182514283132e-01,6.452664502313494310e-01
1.478315423016283376e+03,1.465423138309320166e+03,1.469559412598310018e+03,1.247990239422815197e-07,-9.989920813832753321e-01,-4.488676122751384528e-02
1.580677510436369857e+03,1.442638701732395475e+03,1.506852340983858539e+03,3.806386343981541908e-05,-7.075785205573380532e-01,7.066347258640995888e-01
1.488441791799958082e+03,1.502998177754663857e+03,1.613332429681535814e+03,-3.270536208340555861e-06,-9.996827768127415359e-01,-2.518622109944283760e-02
1.623378991672244183e+03,1.528661688568219006e+03,1.593194706410799199e+03,5.533170229767357982e-07,-9.973825366336054321e-01,7.230543283881599170e-02
1.541182609424897919e+03,1.434596091241775184e+03,1.529734861136666950e+03,3.156499274186790327e-01,-9.485040228262546780e-01,-2.655639288372184381e-02
1.466637993928495234e+03,1.519745166001373036e+03,1.560173122264394124e+03,-5.578326569157585416e-03,4.051455066854223741e-01,-9.142351998721665041e-01
1.500462211163807069e+03,1.403596654139739258e+03,1.463368925271145372e+03,-4.045996793310860335e-05,-9.995971532556520156e-01,-2.838185276171304242e-02
1.614445872801333280e+03,1.578628798039357207e+03,1.389257404273912016e+03,1.635156038614286531e-02,4.996754841831708704e-01,-8.660583334737055328e-01
1.423760149269924568e+03,1.484979383785750088e+03,1.522564576048344861e+03,5.584537040654560247e-01,-4.182128521265910948e-01,7.163989605881029288e-01
1.536252617660963324e+03,1.340938631526657446e+03,1.383782175022378397e+03,-9.048116117421586488e-03,9.991882379535532710e-01,3.925553120261052187e-02
1.585211283823167150e+03,1.585597626896131260e+03,1.439275230582736640e+03,1.553117510922886698e-04,-1.339528119079571311e-01,-9.909876992476805979e-01
1.409149671891167145e+03,1.435558709427924214e+03,1.636463991151430491e+03,3.064909382371753740e-02,9.129112451990515353e-01,4.070057633951910669e-01
1.420450941489624483e+03,1.466369780546588800e+03,1.483549592490768646e+03,-5.592586927311001075e-04,-8.635769390552539004e-01,-5.042167763588125684e-01
1.482910714730488962e+03,1.407028863236135521e+03,1.569752074196235753e+03,-2.330372447421230533e-03,1.776391047908942866e-02,-9.998394935432123320e-01
1.427263173360928022e+03,1.427197594236024315e+03,1.515352732951915186e+03,-1.972917705820488241e-02,9.644366487584966618e-01,2.635767632096694957e-01
1.585507615347428100e+03,1.485236693893266647e+03,1.568771967399667801e+03,6.559709198357999080e-06,-9.898616650264963068e-01,-1.420347987922071509e-01
1.394790866593548117e+03,1.634892509004529302e+03,1.617999088183340746e+03,1.286691793047757548e-01,-9.469597203975841371e-01,2.944682160124666992e-01
1.520933449188923532e+03,1.538169369141569405e+03,1.464410786010843822e+03,-6.091998451269466930e-01,-2.227051975540934314e-01,-7.611031097556337777e-01
1.680177039991565607e+03,1.560644200076508014e+03,1.496413385814926642e+03,1.026180038760558626e-02,1.057163727479371734e-01,-9.943433732799873415e-01
1.464575367511259174e+03,1.508104946836893987e+03,1.500556199272653885e+03,4.095199903264679087e-03,-4.950887402461293663e-01,-8.688327621695978165e-01
1.488354839333847622e+03,1.602109426946310805e+03,1.552048764478763360e+03,3.708991792477271954e-01,4.493273634426325769e-02,9.275854936543473928e-01
1.569135710880118722e+03,1.633584937740855366e+03,1.392474334940465724e+03,2.196740937391614482e-02,-1.318420333941376366e-01,-9.910273009135004418e-01
1.639660023459972535e+03,1.642923999933180767e+03,1.505088246945226956e+03,1.281382507960492634e-01,-6.074610143051222266e-01,7.839462384515413218e-01
1.323920365000458787e+03,1.584949381208127534e+03,1.375691897301183872e+03,-7.451160153403812991e-02,9.956980906381170948e-01,-5.507570731675302117e-02
1.775174653455457474e+03,1.598307851854926639e+03,1.488028089285740634e+03,1.501702374588701448e-02,2.839589605060799382e-01,-9.587188314339726292e-01
1.471323135846269906e+03,1.529497882432044662e+03,1.495267799451981773e+03,2.300403371869287213e-05,9.882011529727895427e-01,1.531616163862990210e-01
1.391211214987213452e+03,1.464933712172074593e+03,1.535906085405992144e+03,1.046930306277799386e-02,3.921952013029740280e-01,9.198224381739660283e-01
1.510371212935997391e+03,1.501121202730462301e+03,1.511209070345954160e+03,1.215720130436970595e-02,-1.972945000140421401e-01,9.802688828687026179e-01
1.509984024128366173e+03,1.529051265509056748e+03,1.536147144068554553e+03,3.032598655661980502e-01,5.494394324421137954e-01,7.785562047883630710e-01
1.629709993659142583e+03,1.588508790304825425e+03,1.488875211747756339e+03,1.213636357226212294e-03,-9.749140486982635911e-01,-2.225783563996104053e-01
1.362170628979582261e+03,1.591936238033931886e+03,1.441498740962165584e+03,-5.498021426164409475e-02,-1.902164265830321721e-01,9.802014523034159321e-01
1.446232233524885032e+03,1.628968307592327164e+03,1.526979696734736990e+03,-1.113425971148330473e-01,-2.218859678587261491e-02,9.935343437649238885e-01
1.440878153489191391e+03,1.586114536909939261e+03,1.464770557799825610e+03,-8.661124561052631950e-04,9.840796246696944527e-01,-1.777260311804852444e-01
1.482956982308392980e+03,1.454721122142858349e+03,1.504205698061035264e+03,1.408851494477409783e-03,-8.363111885474431295e-01,-5.482532362401791870e-01
1.478895622889277774e+03,1.509115148956182566e+03,1.582353337490528020e+03,-2.048750422052780427e-04,-7.354452400308277848e-01,-6.775841327408834713e-01
1.522841519503799645e+03,1.542601832810100404e+03,1.483307069239400789e+03,-2.150758637648709781e-01,1.198915317612606335e-01,-9.692101905354345570e-01
1.311020106405335582e+03,1.515832196597293205e+03,1.519118165687570581e+03,7.233263529755768200e-05,-9.949462411253235938e-01,-1.004090236909967460e-01
1.487226869878603111e+03,1.508967166145024066e+03,1.574281365858205618e+03,-6.180410264867478021e-02,-9.660358204934311743e-01,-2.509084423039116274e-01
1.632611216440837097e+03,1.570694463795998217e+03,1.420894971907052877e+03,6.412927511480946696e-02,-9.734900784795234019e-01,-2.195552394619183223e-01
1.728955690692974940e+03,1.532614740464625356e+03,1.508770578039256407e+03,-3.166044943500216924e-01,-5.845037412451813408e-01,7.470722660009225802e-01
1.528598173302190844e+03,1.544573654491711295e+03,1.371230515314828608e+03,5.374201022301796499e-02,9.903236232742465006e-01,1.279488863654446862e-01
1.443606831921257481e+03,1.358826791705666665e+03,1.588908325598961028e+03,-1.520480535039915315e-01,9.626840833816215914e-01,-2.238766290378128021e-01
1.512618106179907272e+03,1.397070023094776388e+03,1.454353603113233021e+03,-4.280593986802522526e-05,4.675987753905908040e-01,8.839408257461985885e-01
1.393938842568383507e+03,1.499389537322490014e+03,1.528051856174381328e+03,7.527127015338488936e-03,-8.771484124981617780e-01,-4.801603948795127863e-01
1.434647427235137684e+03,1.538405775333480278e+03,1.606217220388277383e+03,5.796826737707355681e-01,6.910277979958110439e-01,4.317969200064675217e-01
1.667125680223260815e+03,1.548285350770371679e+03,1.539302380435539135e+03,3.860695694115687921e-04,-8.622260332604728683e-01,-5.065235616614467418e-01
1.399739194543599069e+03,1.375257528606269261e+03,1.568373644796665758e+03,4.061623702031136873e-01,1.662711133718017820e-01,-8.985466297800522861e-01
1.398803615144923469e+03,1.514457932433006818e+03,1.564840657806786567e+03,6.495181443174197200e-06,-9.875253825645983197e-01,1.574598956828578145e-01
1.585848995926929774e+03,1.410601398201038592e+03,1.503603380732343112e+03,-6.166347012251410295e-08,-3.413750310229654583e-02,9.994171455813318783e-01
1.646010116694749513e+03,1.520789365775203123e+03,1.545921356450828625e+03,-1.548769466580172768e-06,-9.808385033028209632e-01,1.948225614149535767e-01
1.554478745403765515e+03,1.496429736088152140e+03,1.548471405610201373e+03,-1.220888611155723780e-02,8.909376207400401260e-01,-4.539615612031392411e-01
1.617507489576880971e+03,1.537488137821510463e+03,1.510114105031086638e+03,1.561467101076342368e-03,8.868335835059378836e-01,-4.620863090230102332e-01
1.485086559028093689e+03,1.349367860792193824e+03,1.504141251205218623e+03,8.723718381758845120e-03,9.862217574618103999e-01,1.651984922647116993e-01
1.418388312151465698e+03,1.505260293642945726e+03,1.638401001581104310e+03,-3.338420234648686320e-07,-5.171783510813052764e-01,8.558776508197364352e-01
1.559276581865955905e+03,1.461916571376660386e+03,1.499281098106318041e+03,-2.993753631690220285e-05,-7.112673573995148546e-01,7.029215784151563451e-01
1.722319607034962701e+03,1.592922153020618680e+03,1.498562841490722121e+03,1.307791448045831154e-02,-2.739072649647995017e-01,9.616671868959369984e-01
1.520085161323658667e+03,1.542243167430184258e+03,1.476423804782475145e+03,-1.386374625237825862e-02,-2.877423792008226844e-01,9.576074977524453580e-01
1.487986880019952650e+03,1.481681542287564980e+03,1.527438825152701611e+03,-7.726197104324959014e-03,4.130309110685250612e-02,9.991167902419236801e-01
1.627971414595657279e+03,1.610857126963162045e+03,1.405016839566157387e+03,-5.649114495638897226e-01,3.883567647644181609e-01,7.280481285006776826e-01
1.580712902061377918e+03,1.613418512047122249e+03,1.522303123343267316e+03,-1.886699013038619088e-01,-5.268969765734898836e-01,8.287238649994980166e-01
1.431679644309993364e+03,1.423545485544916346e+03,1.524377992712107016e+03,-3.766181239100293565e-01,-4.671774400034297003e-01,-7.999400154351147263e-01
1.587420701019007765e+03,1.627148387401350874e+03,1.542361821169541145e+03,-2.984854579273883636e-04,9.365848188442322808e-01,3.504408480998582598e-01
1.457939615201183869e+03,1.515383402146320805e+03,1.575299316955979066e+03,1.026936169913737999e-08,-5.799535187057112962e-02,9.983168530889422465e-01
