x,y,z,nx,ny,nz
1.526474583278890350e+03,1.372983120514051279e+03,1.513724638823339774e+03,-3.911082959731159749e-03,5.017503573876238576e-01,-8.650036313747323513e-01
1.438244223210161636e+03,1.588481575793651245e+03,1.480587623693449814e+03,-6.059842415063356608e-02,-9.687878954450415137e-01,-2.403702240911450294e-01
1.498515567925039250e+03,1.453730375378253029e+03,1.612405945040296956e+03,-8.200521084247765560e-03,-9.873636096851281518e-01,-1.582588187858759987e-01
1.437838353781369506e+03,1.531358174172610916e+03,1.560110264697981847e+03,-1.764710808123312602e-02,9.867903460338871557e-01,1.610384815834111638e-01
1.331692271610818580e+03,1.524727002671186028e+03,1.340878912024766578e+03,5.321553460216093406e-02,-9.712238824743429921e-01,2.321471020462454460e-01
1.611345762635741494e+03,1.464080626870986407e+03,1.565761493015313818e+03,-9.159143787713508857e-05,-3.645252532576101490e-01,-9.311934983388165943e-01
1.568164846130432352e+03,1.432415083742971547e+03,1.531819555141934643e+03,7.840302924111701433e-02,5.856765816778818357e-01,8.067440155835852167e-01
1.476868251712710162e+03,1.518059539450499642e+03,1.425339832179028463e+03,3.374728074816607675e-07,-6.282084177609975617e-02,9.980248202516951439e-01
1.506209292862593429e+03,1.404911306834678498e+03,1.544669661372020073e+03,-1.351919258729509521e-01,-7.336163662247231765e-02,-9.880997993375137955e-01
1.518866544020858328e+03,1.283709507929215079e+03,1.480024309524442515e+03,6.339931504899228021e-02,-8.091340169068825805e-01,-5.841940341491440591e-01
1.437244724280681567e+03,1.429853424199566689e+03,1.472412753868672098e+03,-8.558167417920867770e-01,9.733410379400764256e-02,5.080391487936672945e-01
1.612432346873100414e+03,1.358905808815644832e+03,1.543797499313746812e+03,3.551080902034756213e-03,9.966865699303206760e-01,8.126051405793092985e-02
1.414849861085707744e+03,1.527518618482182092e+03,1.464045636031969252e+03,-2.235665678520920296e-01,-8.863357780157277155e-01,-4.054958425780598175e-01
1.489348315033824747e+03,1.526367415871536650e+03,1.443691447865865939e+03,-5.378833186711030716e-03,-1.932185190567401456e-01,-9.811410051807383237e-01
1.576935446441369550e+03,1.449051881729372099e+03,1.602752824868768585e+03,7.785480236144801634e-03,9.999441164651886593e-01,-7.151939886898434420e-03
1.498581699967674467e+03,1.438119281731721912e+03,1.536295966290365413e+03,4.057444637137933669e-04,9.757595851183865632e-01,-2.188448478283744336e-01
1.555712929037553522e+03,1.429729698072441579e+03,1.534034053213794095e+03,4.056423758627852871e-01,-8.700160932644523948e-01,-2.802253742351936139e-01
1.432769299315964417e+03,1.418336813802018014e+03,1.523948549120199004e+03,-5.901636567980783621e-01,7.980220357495753092e-01,1.219331318913099427e-01
1.526056951666955229e+03,1.410180726624933868e+03,1.582646171387482809e+03,1.237761413027918707e-04,8.925131973324312851e-02,-9.960091297801146881e-01
1.493566851906803095e+03,1.548828065378824931e+03,1.469742030559024442e+03,-9.574983791821744204e-09,9.994054230770420544e-01,3.447898380461263818e-02
1.517333487572609329e+03,1.344308009860126276e+03,1.389315714920666323e+03,3.190106033046473111e-01,-9.385774903401343794e-01,-1.315466822311375239e-01
1.593348727267667300e+03,1.433207214159750492e+03,1.588038550018884507e+03,1.414174300256604566e-01,7.842379603246023567e-01,-6.041290690496897708e-01
1.345373218512706671e+03,1.550588480142880144e+03,1.517571318482275501e+03,-1.276626527513985074e-03,2.788624675866009373e-01,-9.603302007102667570e-01
1.619535520655839719e+03,1.410610777141107747e+03,1.504181230091445968e+03,-6.701005669636733719e-01,-2.672674431225686154e-01,6.924834611755634750e-01
1.499241687171280319e+03,1.646599804582119987e+03,1.494078967320144557e+03,2.251041690916503474e-07,-2.549098720907477800e-01,9.669648168938866917e-01
1.587230088129952264e+03,1.493051437273039255e+03,1.577511845141054664e+03,1.676417029393394154e-01,-1.059036072203294737e-01,-9.801431963816922277e-01
1.455596265281758861e+03,1.368258702905989821e+03,1.530154259733728395e+03,6.984074673693056734e-02,5.554090188203271439e-02,-9.960107822274608669e-01
1.560698053403305721e+03,1.530962368893775192e+03,1.521131624219949572e+03,-2.141946539841995886e-02,-2.498228716886541634e-01,9.680546158576385229e-01
1.478023501455141513e+03,1.545113344934008865e+03,1.502705746270986765e+03,-1.774729427528847891e-03,-6.475341046648515342e-02,9.978997174909000067e-01
1.467315429279672344e+03,1.504450394412223886e+03,1.528998613571351825e+03,-3.808711294827742729e-03,2.493318534558885968e-02,-9.996818643882638966e-01
1.510190117338704795e+03,1.470610939861344605e+03,1.530784280162872847e+03,3.548537704855184161e-01,-9.153170498497595897e-01,-1.904560312159839786e-01
1.458216756109057542e+03,1.470567975929893919e+03,1.587595493812000313e+03,-8.581866976742426045e-01,3.018496216001952948e-01,4.152136773696131766e-01
1.470489251732595903e+03,1.560352467721932271e+03,1.532193867869669702e+03,-1.404664565861517603e-04,-7.244576427408259134e-01,-6.893193049259396243e-01
1.417873147033830037e+03,1.516363522767228233e+03,1.384725839060904718e+03,1.308785897662285112e-02,-9.716218667274624243e-01,-2.361771708790863511e-01
1.591735551089755063e+03,1.349410211996114867e+03,1.456483169277262050e+03,7.351034564653782244e-01,6.710690681856000817e-01,9.638056867006081219e-02
1.573156180730557253e+03,1.497100549633965329e+03,1.468523935106315548e+03,-1.941426637044350379e-04,9.985629012796878312e-01,-5.359192566533244051e-02
1.629077556755415799e+03,1.462908741453362836e+03,1.576004731858485002e+03,-2.877465346290607531e-02,-9.993735627216453477e-01,2.060343299392574171e-02
1.470030511361619347e+03,1.498009427210588001e+03,1.532587724114388720e+03,-4.052518191423750728e-03,-1.989012705558724781e-01,9.800111538485507534e-01
1.377968930367342864e+03,1.628256454346614873e+03,1.497344637124359224e+03,2.295366686144645688e-02,9.897680584946207949e-01,-1.408272685292255855e-01
1.644970081235318503e+03,1.351586802516488660e+03,1.553802337170298188e+03,-7.114561591085165500e-05,-9.844847959897679024e-01,-1.754698874544756426e-01
1.344425644807733761e+03,1.725086251417154926e+03,1.461049689438854102e+03,2.725348922124394189e-06,9.122292591706775422e-01,-4.096800931281496250e-01
1.531362166291794892e+03,1.440734876650785964e+03,1.478401918078371637e+03,2.702749189289958115e-04,9.113255496804315570e-01,-4.116863726808643875e-01
1.458676651063858344e+03,1.414190575756756516e+03,1.436515313199246975e+03,-7.713896512401339708e-03,-3.941821912494735541e-02,-9.991930242959133901e-01
1.372955315585645394e+03,1.552455631036342311e+03,1.464301311101394276e+03,-5.938013555262166426e-02,9.975070461464847771e-01,3.812731815728841178e-02
1.431586568064473113e+03,1.599426641887936285e+03,1.532114139305183244e+03,9.762495103288168065e-06,-6.373022780500197104e-01,7.706139151981029611e-01
1.288393765374897157e+03,1.545585728231809298e+03,1.470915110400306730e+03,-3.301033771105025411e-02,-9.943630431474326237e-01,1.007593967170276605e-01
1.397636144450846132e+03,1.549571239934905407e+03,1.415134932571842000e+03,-8.687280434309864897e-04,9.997978287386800611e-01,2.008847831488735219e-02
1.462452720449362005e+03,1.478353823072554860e+03,1.467297809909437319e+03,1.858384458645838122e-01,-2.738879669762135927e-01,9.436362930622542722e-01
1.608001090269003498e+03,1.445403186196686875e+03,1.483298508008409954e+03,1.268320529706013258e-05,-1.187128617867420494e-01,-9.929286259774859902e-01
1.680316104488100336e+03,1.296410639685696196e+03,1.526614498087786615e+03,2.199084309697105499e-01,-6.747020398574776756e-01,-7.045689741967060549e-01
1.564760593758310733e+03,1.355327535880469213e+03,1.462372678976289762e+03,-3.320843837233538465e-05,-3.778726051081536252e-01,9.258575987731466617e-01
1.563109792631922346e+03,1.389322824018662914e+03,1.466299661495673035e+03,3.197882024575198212e-01,9.378655617518840693e-01,1.346985287551840105e-01
1.392056796820903855e+03,1.548742213577618486e+03,1.516371782029558062e+03,-2.547474977708348853e-01,8.801233097787469761e-01,4.006078780598334443e-01
1.574959614624862070e+03,1.411098012969258889e+03,1.461694050680718874e+03,-1.192220728199996281e-04,-7.020127827104476470e-01,7.121643340530547928e-01
1.512173574463220120e+03,1.478135982317166281e+03,1.537616945888976261e+03,5.240556693630784579e-01,4.761177786744489882e-01,7.061710247797797768e-01
1.383759420910096651e+03,1.517726292128729938e+03,1.450985163773508702e+03,4.133551624954198006e-02,3.269685313294235646e-02,9.986101796454843749e-01
1.512769349070974613e+03,1.515489223426101489e+03,1.558662360980838685e+03,2.149908568169219825e-01,7.027718371289797261e-01,6.781523991135653961e-01
1.504959485512453966e+03,1.437015927687392377e+03,1.555888304754847923e+03,3.452143974342876830e-06,-5.375693459463875001e-01,8.432195433496877390e-01
1.408665827565650943e+03,1.474408933981040036e+03,1.550044776840010854e+03,3.379131357317680107e-02,-9.472256956773003056e-01,-3.187814746431382740e-01
1.425578214569417696e+03,1.580402376979550127e+03,1.523235091570876875e+03,-4.477638474432203419e-01,2.300860146909813331e-01,-8.640416441158759175e-01
1.543070471505880050e+03,1.433507619257711212e+03,1.414513950741176586e+03,1.309068385213771057e-01,7.325204288676027131e-01,6.680398348302004630e-01
1.605850744440338076e+03,1.341300534826059675e+03,1.478194957777466243e+03,1.047468700395507834e-04,-9.278265038538593412e-01,3.730120209516276097e-01
1.504829584500095507e+03,1.545504950900928407e+03,1.508320571811395894e+03,-2.491560393625875600e-02,-9.996166910733950139e-01,-1.206994647744083320e-02
1.522756624263743106e+03,1.437387764634597261e+03,1.458015569637767840e+03,3.715483723425354323e-02,-8.896410554225785416e-01,-4.551464715634921387e-01
1.468253221108787557e+03,1.621894738881353078e+03,1.491269723086986460e+03,-1.076142524043500147e-05,-9.986188734378315113e-01,-5.253899026387986310e-02
1.516852882868550296e+03,1.499867939506559651e+03,1.521416132697491548e+03,-1.852590516127847480e-04,-1.617647880220706158e-01,-9.868293261933688276e-01
1.474875921012255731e+03,1.427951796554990551e+03,1.565628261767418962e+03,-1.218030611681003522e-05,-8.624676518530308700e-01,-5.061121904862194709e-01
1.558535532273021772e+03,1.388765297084605891e+03,1.468128527105046032e+03,5.405974524492280845e-07,-5.394922666744518258e-01,8.419905546965298360e-01
1.416984956440530141e+03,1.513254813600050511e+03,1.477376891499445946e+03,-4.879147972815564560e-01,7.944631857174968559e-01,3.616177500252218402e-01
1.350374168475771057e+03,1.550051063723530433e+03,1.416947060826352299e+03,-4.632063361359108900e-01,-2.693559576313875326e-01,8.443265116363596334e-01
1.466640980463008646e+03,1.336090653637064634e+03,1.489417863609450933e+03,6.723356587977867560e-02,-9.900071611566568786e-01,-1.239575269099324473e-01
1.600460336517350015e+03,1.362348663741578321e+03,1.558134860341650665e+03,6.975125100050308228e-08,9.980825727065271158e-01,6.189651088320988898e-02
1.423895679345268036e+03,1.539273104025771772e+03,1.460812066000240520e+03,-1.070895754472908702e-07,9.992211625149743925e-01,-3.945970580493304847e-02
1.585770987598542661e+03,1.403214531737763082e+03,1.428150678821319389e+03,-6.516409281026223042e-05,-3.896577077819015633e-01,9.209597529315790565e-01
1.449927906722065245e+03,1.491461873808721521e+03,1.452656128357421721e+03,-3.977810544857890603e-03,1.300163157430389849e-01,-9.915038752641743836e-01
1.393434464619615255e+03,1.516000664381868773e+03,1.420766400939006644e+03,-7.646976214890521817e-02,8.313276143169014976e-01,5.504968420899969406e-01
1.510869751487339499e+03,1.407047779772669401e+03,1.589958146259533578e+03,3.547887222376149702e-02,-5.221940857461657148e-02,9.980052018871682362e-01
1.555927011280468150e+03,1.498426252428966791e+03,1.381654007326952978e+03,8.473470658464566156e-08,-4.660543631582833579e-01,8.847560853597560282e-01
1.463290466627936212e+03,1.524041015568349167e+03,1.561689811988987231e+03,-2.386864100480855667e-03,8.756502738687147458e-01,4.829398521072896244e-01
1.463848350405681003e+03,1.524258191932616000e+03,1.486963089525485884e+03,-4.598800708140433555e-03,-9.705613225560115742e-01,-2.408102368886597677e-01
1.516697044272188123e+03,1.510751781903616347e+03,1.440036869124717214e+03,1.737578010073703716e-01,-9.603573230875934730e-01,-2.179955012864135400e-01
1.406755622397827210e+03,1.388184578495880032e+03,1.460000544562989489e+03,4.694192270248626129e-04,6.872778449106898835e-01,7.263944820416156078e-01
1.508126861636346803e+03,1.499399070860359643e+03,1.461253171435905642e+03,1.831611077004385640e-03,3.377667923558332341e-01,-9.412280484465569419e-01
1.427141938424100999e+03,1.515907560250817824e+03,1.487391584586325280e+03,-2.966145236709099188e-07,-1.971774575150368747e-01,9.803678137555403849e-01
1.629043189408336957e+03,1.368729797892209945e+03,1.426797359166105934e+03,6.095571747440681892e-02,1.973199849403348693e-01,-9.784422435945446805e-01
1.600981756207546141e+03,1.381633751619813438e+03,1.524913091775270004e+03,5.038156414814824735e-02,5.406149964968333110e-01,-8.397601583527971592e-01
1.623169515135076836e+03,1.446915658970116510e+03,1.428551774686278350e+03,8.387251350501228817e-03,3.706307941301033582e-01,-9.287424123282367328e-01
1.694438929239765002e+03,1.369414459280438450e+03,1.481188820667483697e+03,2.274841482175535184e-05,4.880441650245623819e-01,8.728189345265072729e-01
1.313317211279657840e+03,1.616730715777514433e+03,1.471371633317468650e+03,-2.893925205164482149e-06,9.996327659073794836e-01,-2.709858512888722176e-02
1.494889620307911855e+03,1.556932570002713874e+03,1.457628242068986992e+03,4.539957815972398558e-01,5.769562778178910500e-02,-8.891338733997128374e-01
1.536176776840203956e+03,1.481632458829895086e+03,1.469533503634949739e+03,1.482893287340375336e-02,9.992426656909528804e-01,-3.597496091275964591e-02
1.466714533937703209e+03,1.426094598459684676e+03,1.340864476979948449e+03,-1.619768818578815051e-01,-6.707654017056825513e-01,7.237660296105449254e-01
1.364687278400897867e+03,1.461616289608305124e+03,1.527885925623801086e+03,-8.332442438191096645e-01,5.429036382883991804e-03,-5.528784276007460141e-01
1.521436071819807239e+03,1.415334089051965066e+03,1.428273760843155742e+03,7.194244079896403576e-01,4.293606807960541061e-01,-5.459651334793317323e-01
1.501713464652621269e+03,1.424769752530905180e+03,1.427904470608371867e+03,1.684553774674585058e-01,6.700276968150307155e-01,-7.229700348583206759e-01
1.391690340572356035e+03,1.558423848044595388e+03,1.385309406248333971e+03,-4.983206162411811004e-03,6.051139960327113210e-01,-7.961232438898306896e-01
1.418813685215608302e+03,1.479615241902422213e+03,1.559000961802132224e+03,-1.037662509249541000e-07,-2.999678633525466598e-01,9.539493073301626991e-01
1.325594467036700280e+03,1.452908020513119027e+03,1.574462183496897978e+03,1.444052536918015162e-01,-9.316594905789935543e-01,-3.334032338179951926e-01
1.554904066881227436e+03,1.458513045614319026e+03,1.570268862482252644e+03,1.722457058433056942e-03,1.577804886523961336e-01,-9.874727087582182428e-01
1.390786349862840552e+03,1.565504450351205605e+03,1.453492984409246674e+03,2.596875357812946095e-01,3.564327971881638135e-02,9.650346835066214712e-01
1.533042483706175517e+03,1.260060312010348298e+03,1.449516181530592803e+03,-2.138826040941731261e-07,5.855227224140080455e-01,8.106559945728168959e-01
1.494165336244537912e+03,1.215712346339923897e+03,1.449364375224487048e+03,-1.387958479154791369e-01,-5.798554567225079337e-01,-8.028096673001359207e-01
1.446757244926841622e+03,1.578903272831953473e+03,1.388633395550265959e+03,2.080654331795402448e-09,9.874327461456861021e-01,1.580397792936611978e-01
1.593207357913073793e+03,1.338528878326585755e+03,1.461202672824329738e+03,-2.159421360802972478e-02,-9.865943731090219826e-01,1.617567089436067751e-01
1.644684070617234511e+03,1.514884982979632468e+03,1.620421737846075303e+03,-1.586601566868687499e-04,-3.803404867825854185e-01,9.248465218299416479e-01
1.432113554903007071e+03,1.465571918268205536e+03,1.572833039145808243e+03,-9.658996042837100227e-01,2.572115642789911116e-01,2.966758577516873455e-02
1.545943704808609255e+03,1.583386995285205558e+03,1.460020164671457451e+03,2.508618014670899871e-02,5.747243308943383866e-01,-8.179624851077841319e-01
1.440785055731347029e+03,1.498563746802966079e+03,1.458646987020903453e+03,1.418721854000564928e-02,2.354595194491948887e-02,-9.996220840783309747e-01
1.467899277388614337e+03,1.529804683358176362e+03,1.501529274416394856e+03,7.342860920619131157e-04,7.161771526551558020e-01,-6.979181519624551022e-01
1.409465579661580705e+03,1.459468639359156668e+03,1.436098701065016030e+03,1.556212029628060711e-01,6.490852996644341788e-01,-7.446276350955158829e-01
1.442036454354341231e+03,1.506009019795913218e+03,1.426722385719164322e+03,1.777791845404455284e-01,4.861739451119416189e-01,-8.555871999033324293e-01
1.527959367519720217e+03,1.472851783696810571e+03,1.494170648227675656e+03,4.823611901812905473e-02,7.598833635635555694e-01,-6.482673450062143017e-01
1.487469026143692190e+03,1.459811000812240309e+03,1.563975515361717271e+03,5.326755361021950040e-03,-8.830276537923614777e-01,-4.692907289892707112e-01
1.551611740386133533e+03,1.314093478144841356e+03,1.562301744825001606e+03,-7.500116156002957502e-02,9.443213251182046575e-01,3.203623896334344412e-01
1.466902780983798721e+03,1.193899512570652860e+03,1.409854543926945780e+03,-1.461792487617992291e-02,-8.672176215433661239e-01,4.977146905175509062e-01
1.528759256060252028e+03,1.472382930429919270e+03,1.614566877518282809e+03,-7.631777668292797356e-01,4.494574875033182648e-01,4.642711095304963287e-01
1.487288896524961274e+03,1.498412886818884999e+03,1.589548171069679029e+03,-3.920245407813927421e-04,-2.052839487236783333e-01,9.787023790270327206e-01
1.477226891877126036e+03,1.566542985693821038e+03,1.449603168867404747e+03,3.381824055695056147e-02,-9.861324161342195360e-01,-1.624782584068366620e-01
1.601329099304688270e+03,1.350428177409854243e+03,1.455665169104439656e+03,1.155385075361023727e-05,9.994833354929956171e-01,3.214128090640856056e-02
1.479194740257273679e+03,1.559732884914297529e+03,1.561631835180992994e+03,-3.182731633372569702e-01,4.605029728460898197e-01,-8.286369563923693393e-01
1.448772631894050164e+03,1.446490224264216522e+03,1.490790939938699012e+03,1.793783158595717092e-04,-3.560582589359281291e-01,9.344637414404773912e-01
1.340130830254841612e+03,1.452631187124421558e+03,1.534210699291544643e+03,1.131203081412703315e-01,9.786941794113108717e-01,-1.713519742297848203e-01
1.457901164102878965e+03,1.392426515492013095e+03,1.457258864366596072e+03,-6.407990161067776691e-02,9.155774555841238449e-01,-3.970033866803501232e-01
1.610193834037713486e+03,1.428606532768961415e+03,1.498785686826158781e+03,-3.039201578887083290e-03,-1.588865355130915924e-01,-9.872921715917786223e-01
1.440371230243066520e+03,1.390014757210907646e+03,1.598150155585892207e+03,4.087032869568706088e-06,-1.873738925740054129e-01,9.822886665155824426e-01
1.592779736664410621e+03,1.410874716834244509e+03,1.569748967120344105e+03,-9.376833526640417089e-11,-1.756835880292924590e-01,-9.844466856550200262e-01
1.562830752900858670e+03,1.509207958818492671e+03,1.580227181270704023e+03,-2.629457592261810403e-02,1.419416138162242491e-01,9.895257316231325095e-01
1.480567065058379967e+03,1.433679741273972922e+03,1.488168749811729185e+03,6.064809939489167132e-06,-9.988793677060905374e-01,4.732873053758158283e-02
1.453860370137000245e+03,1.499808951062385631e+03,1.520976257026952453e+03,2.456485828333123452e-03,-9.999951417942268828e-01,-1.918870844874385551e-03
1.597992930153486441e+03,1.313422686072705119e+03,1.429434536212400644e+03,1.140049011238376190e-05,9.633978377750688216e-01,2.680757468335230320e-01
1.506016626546091175e+03,1.436561812370087637e+03,1.503239758642621382e+03,8.495830369259266268e-01,3.955086899287063237e-03,5.274400635667894077e-01
1.477601666590384411e+03,1.587003992333355200e+03,1.566075582351123785e+03,-2.060055654257952456e-05,-7.881135080972647700e-01,6.155299326029887164e-01
1.621259812757647524e+03,1.487972887005653547e+03,1.608776253226558310e+03,2.280461988531685136e-01,-3.119095307226374958e-01,9.223379943561932359e-01
1.504346641040418945e+03,1.369763919260313060e+03,1.581866725997917456e+03,1.229184747010298936e-02,-7.554782394646353261e-01,6.550584250135150777e-01
1.501424049981781309e+03,1.568926563804970556e+03,1.621341760512224027e+03,4.340097399209066949e-06,7.525032122200024931e-01,6.585885783854299458e-01
1.556836655738999525e+03,1.481016125394722167e+03,1.546603195055040715e+03,2.597021762354626007e-01,2.413065002597650499e-01,-9.350539837843314661e-01
1.463799947017614613e+03,1.401352858040262390e+03,1.540859198872879006e+03,-9.129500257459809143e-03,9.718637797380845766e-01,-2.353666201020294668e-01
1.545430501459415382e+03,1.430985853800047607e+03,1.430990793731182293e+03,7.897112804826961121e-04,-4.433557711021775538e-01,8.963453779578980374e-01
1.433672517997610839e+03,1.339303101862551102e+03,1.534147279082229488e+03,-4.306464930784715227e-03,4.571941403650686131e-01,-8.893564934128753707e-01
1.424628698928240965e+03,1.346383196089004059e+03,1.447270069450288702e+03,6.151763336940903326e-03,-1.048005275350974777e-02,9.999261594248496365e-01
1.523744303900125715e+03,1.393061129638063449e+03,1.480436764936802547e+03,7.887952788816109811e-03,-8.337747106379963524e-01,-5.520484689783379251e-01
1.450010939617845224e+03,1.549259194407574341e+03,1.517578002989001334e+03,-7.123812182633904022e-05,-9.655910434504803019e-01,-2.600652451469488979e-01
1.388077019404040357e+03,1.590708694669770466e+03,1.448224909092182315e+03,3.718825349674963014e-05,-2.272897876939205739e-02,-9.997416627014873436e-01
1.635220380196421729e+03,1.411565436284084171e+03,1.496459561145195039e+03,-4.279306183915622397e-02,1.073254660670060756e-01,9.933025713205065887e-01
1.488639866632269332e+03,1.519745529659126305e+03,1.447140874248460932e+03,4.707788100080077982e-03,9.995947604614269233e-01,-2.807403763741767727e-02
1.363292615873645673e+03,1.577082223913103917e+03,1.428486955265122788e+03,7.320302239364950836e-01,5.190642030659541051e-02,6.792918921748145600e-01
1.510388816643631799e+03,1.468220617312597142e+03,1.461863918751561414e+03,8.210464621487195691e-02,4.923758304497481419e-01,-8.665015110539920906e-01
1.597955318800534087e+03,1.407618173259523019e+03,1.546516976126778673e+03,-9.252170570397302840e-03,-9.048417952612228810e-01,-4.256474161652851751e-01
1.656784950392278688e+03,1.378644080286240523e+03,1.614403533916412016e+03,9.628806054870257813e-03,-9.896501977416343188e-01,1.431774151320726607e-01
1.594653962432600565e+03,1.470136434338640356e+03,1.470098948933619567e+03,3.069522084308405103e-05,-9.856416586755305520e-01,1.688505840711027883e-01
1.572660201718817916e+03,1.479831503436861112e+03,1.527559681777009018e+03,-7.648440775624133769e-02,1.671702287100255979e-02,9.969306277352036894e-01
1.410530231155210004e+03,1.607008331695485822e+03,1.422565183232194158e+03,-4.543107123811762280e-03,3.204466425644616340e-02,9.994761126061758594e-01
1.392313997298399499e+03,1.512346709811356732e+03,1.451502446187479563e+03,8.816817504480835288e-02,9.568260675222264311e-01,2.769661521183047204e-01
1.513165003107487564e+03,1.438303473923053161e+03,1.476473595566375479e+03,-1.416328093866410162e-02,-7.661191234345314793e-01,6.425425201346269821e-01
1.402602261872376857e+03,1.550970424108922543e+03,1.443030558987766199e+03,-4.710693208171564533e-02,-2.533082260243915695e-01,9.662380035882590645e-01
1.470415109604010240e+03,1.492221813038318487e+03,1.545454285645149866e+03,-3.367886705348319305e-03,3.464285668764331971e-01,-9.380703094070724779e-01
1.530228931486822830e+03,1.568224441606901337e+03,1.560132707277546160e+03,-2.857720186680938190e-01,-7.211220470757950807e-01,-6.311238757704999980e-01
1.523875679155621356e+03,1.364111310704438665e+03,1.442842355307574508e+03,-7.708114671303732525e-08,9.103111178952337790e-01,4.139247137298325829e-01
1.401703689370793199e+03,1.469976341448134690e+03,1.513763954672257569e+03,4.325719925509360155e-05,3.329297656956262119e-01,-9.429516261413785072e-01
1.439426796026759803e+03,1.432738246205372434e+03,1.458278483982044008e+03,-1.221130364973281590e-03,4.460682143893724971e-01,-8.949981323735309857e-01
1.408581078560859623e+03,1.520863207960926275e+03,1.457373597235380430e+03,6.426634369454984697e-04,3.530567174217313919e-01,-9.356017001198204674e-01
1.600710477467787541e+03,1.588180377629307259e+03,1.455001464604284592e+03,-8.253182287476748535e-03,-9.617519447733199334e-01,-2.737975195411136431e-01
1.477437562747460561e+03,1.434773097499263258e+03,1.498313051156082565e+03,-1.238814580799564580e-01,-9.880641414632017616e-01,-9.155674032298281861e-02
1.454679551353162651e+03,1.547365814962691275e+03,1.375661124463885926e+03,1.192261858848133376e-07,9.316967357972021357e-01,3.632371023241214858e-01
1.407725910204348565e+03,1.650367590044437975e+03,1.418384576190385815e+03,-8.934549924437763802e-02,9.492309258801806537e-02,9.914670888427409290e-01
1.623963203820929721e+03,1.420908227050891355e+03,1.588897379521782796e+03,2.403878218336125139e-01,3.538362538492431097e-01,9.038880464836479556e-01
1.490949676609000335e+03,1.421423151802627899e+03,1.511262025114838252e+03,-4.090515003405293885e-07,9.009767416737541890e-01,4.338673886831988513e-01
1.590694661575342025e+03,1.480027418600486953e+03,1.497112392389531124e+03,6.810147817369428987e-03,3.586975958636189343e-01,-9.334289778062203613e-01
1.331176192504747178e+03,1.532560097128366579e+03,1.506140067893463538e+03,2.956798540637970221e-02,9.789410572331154192e-01,2.019904470570784427e-01
1.534381576635374813e+03,1.535312195876558462e+03,1.640774605722362367e+03,7.460907935641594158e-01,-4.631289917505586051e-01,-4.783932114473551933e-01
1.582835425195554990e+03,1.477995176626709508e+03,1.493218355648152738e+03,1.507897280454944866e-06,1.756376714395304836e-02,9.998457451434392684e-01
1.343129948578438643e+03,1.598257316156017396e+03,1.553216649431057022e+03,6.518252064236750298e-01,1.217351187124418865e-01,-7.485348763703674191e-01
1.447517319048548870e+03,1.371689326780503052e+03,1.503791391590857756e+03,-5.652879147686305653e-04,-9.992908659498902502e-01,-3.764897978288373609e-02
1.459143197686118810e+03,1.392746007251649417e+03,1.554848281852970331e+03,-1.261561383012406792e-02,2.249804425514334016e-01,-9.742816054699228179e-01
1.489584634889602057e+03,1.437119081115829431e+03,1.534614781551717670e+03,4.376341048216341248e-03,-9.719549057294292194e-01,-2.351265805210592530e-01
1.535541296863503248e+03,1.474038651638222746e+03,1.591280276845726121e+03,4.758721322460225389e-01,-8.610715698807045460e-01,-1.791688178640550577e-01
1.383570232661743830e+03,1.605878560892719861e+03,1.549038332710905479e+03,3.322351336679669198e-01,3.504763236843834173e-01,8.756632700378081946e-01
1.515637857794771207e+03,1.456885869545776814e+03,1.443080941798189315e+03,-2.922316510955796809e-05,-5.078088761913565063e-01,-8.614697582662308450e-01
1.423084194256586443e+03,1.494375517599765544e+03,1.522581607491487603e+03,2.399915343637940013e-02,-4.074286420628774885e-01,9.129216517648909290e-01
1.619696923349560848e+03,1.494710200890441229e+03,1.420726432918088904e+03,6.094284763517113754e-06,-3.020190342328360478e-02,9.995438184454298325e-01
1.493517152351564164e+03,1.569228307414186247e+03,1.471905251396125550e+03,-8.468794780214368516e-08,9.999987733214756869e-01,1.566319104368369460e-03
1.523147703177548692e+03,1.577617378610738569e+03,1.622043438045063795e+03,-3.990274541378309447e-02,-7.528280262912007137e-01,6.570066466474582256e-01
1.627970538292697029e+03,1.492886023052843939e+03,1.524632853988459146e+03,-1.817708806471537986e-01,-3.584525960692206414e-01,-9.156806666737015155e-01
1.409830234448785859e+03,1.419823926990461814e+03,1.509563225574005628e+03,2.827084133717095880e-04,-8.820639465653319355e-01,-4.711296151225736195e-01
1.514908638707446926e+03,1.564783655221530807e+03,1.499998538391462944e+03,-1.165525735813612018e-01,5.543095372058957221e-02,-9.916364792408493001e-01
1.413980069812817419e+03,1.429786416133767489e+03,1.489326738042783973e+03,-5.489149781178388060e-02,-9.911365503468364535e-01,-1.209762870754089864e-01
1.408686059373922717e+03,1.443212025397394427e+03,1.402589509836682510e+03,9.206067544578738771e-01,-3.329247928130037448e-01,-2.040693165984501789e-01
1.448391352869164393e+03,1.442322290386830218e+03,1.482511729520499784e+03,6.526762253162327054e-02,-1.282580810926794122e-02,-9.977853657452657732e-01
1.514468874226928847e+03,1.480440300025128181e+03,1.579705084859658427e+03,7.420558446366930239e-03,-9.609864797472574827e-01,-2.764957884947218947e-01
1.502419875559354068e+03,1.488747051710660344e+03,1.639158775447191147e+03,2.878593255649002924e-01,8.719636015782452620e-01,3.960006138985340818e-01
1.520351386369246711e+03,1.538509051680224047e+03,1.499718232242412569e+03,-4.675186026603431709e-03,6.175884206984511016e-01,-7.864875620471118989e-01
1.462107184095310004e+03,1.492688889507688828e+03,1.605011911321032812e+03,2.120423078429620189e-04,4.032414427250228250e-01,-9.150935984406741719e-01
1.523015076101204158e+03,1.521204883257368010e+03,1.404966650343093761e+03,-7.729414974795956817e-08,-1.112725519504025457e-01,9.937899270884360536e-01
1.433993150364167150e+03,1.468882426218571482e+03,1.443599061309098488e+03,6.019287950056960088e-03,-4.715978892315727533e-01,-8.817931724871198584e-01
1.477692615951180414e+03,1.434190540861911586e+03,1.569950548606454049e+03,9.469320400182484887e-01,2.344082406254902329e-01,2.199374645524054539e-01
1.387403671150930677e+03,1.607815968073506838e+03,1.530679433908014516e+03,-1.640472715758525823e-04,-9.163347082026339629e-01,-4.004131311928796899e-01
1.603176577001252099e+03,1.424378552755208830e+03,1.576063412726433171e+03,-8.921568201908879059e-02,-9.958007282851893960e-01,2.052977419639917880e-02
1.570604689869841650e+03,1.403513891772529860e+03,1.500512219590815448e+03,3.089217973276281448e-01,-3.949423866233734981e-01,8.652097054379948027e-01
1.526139843664836008e+03,1.557704275143094037e+03,1.491044901215405844e+03,1.273034775970315749e-08,-3.179982676952060605e-01,9.480912939916956717e-01
1.353062196881782711e+03,1.618044453113937834e+03,1.402563405487884438e+03,4.043474325965333528e-04,9.926678250836551420e-01,-1.208735932569212912e-01
1.404882738384387267e+03,1.541512997368130527e+03,1.465880372689033038e+03,1.409670092474395453e-01,-2.250201388504526751e-02,-9.897585370558567019e-01
1.513451923178266725e+03,1.436459367938655760e+03,1.643620635561573636e+03,4.284517763664799964e-05,-9.035404487131770690e-01,-4.285028071127205962e-01
1.452263830789253461e+03,1.389310018479417749e+03,1.531799550955153563e+03,-4.129689354305633026e-02,-2.467203787882893129e-01,9.682063939441096778e-01
1.330273599290283755e+03,1.602009176146651271e+03,1.409557420679176175e+03,-2.494937020285526927e-02,-9.959949314133443865e-01,8.585817098802252245e-02
1.412399602766250382e+03,1.613212344565496778e+03,1.411544134969649122e+03,-1.973912941711058328e-02,2.272455037099142469e-02,9.995468781304310824e-01
1.429520059676990286e+03,1.393168036965166721e+03,1.431160835180045979e+03,1.366951065350746793e-02,-9.951601271388083036e-02,9.949420624800342505e-01
1.562985435045393615e+03,1.550301269070294666e+03,1.419149692782974398e+03,1.361703343693110579e-01,5.695502682199223843e-01,-8.105986257133455108e-01
1.399450233482904423e+03,1.492025892368777477e+03,1.499445777385033352e+03,1.668657204860220233e-02,4.541113090668663088e-01,-8.907886827361716220e-01
1.404986724196389559e+03,1.523974536455124962e+03,1.533480473556619472e+03,1.921037795624840061e-02,-3.038714919917135937e-01,9.525193319473930220e-01
1.492003076582700260e+03,1.530705122902800667e+03,1.514504042456277830e+03,2.772880571498283187e-04,3.241621900761813002e-01,-9.460014786649898477e-01
1.509489719899766669e+03,1.435078519137486637e+03,1.482144116049558079e+03,8.791466169965528321e-01,2.945883191239611620e-01,-3.745917084763564220e-01
1.491452361635084571e+03,1.504461535948435994e+03,1.420616645984455090e+03,9.767149877527109281e-01,-2.533021997852443960e-02,2.130404014619324826e-01
1.489406125601028180e+03,1.493232612899113519e+03,1.511490742064094093e+03,3.054237964945594533e-02,9.832962974181639337e-01,1.794311972012627432e-01
1.414288736464155363e+03,1.439385981196811827e+03,1.593484784947386515e+03,-2.227384781010266684e-06,-6.552953787077077097e-01,7.553727335821439626e-01
1.477770456604757328e+03,1.465062541033963726e+03,1.477175293994554295e+03,-1.371486192518862933e-03,4.262248409402879523e-01,-9.046162191731088598e-01
1.405287103204807863e+03,1.570622477340263458e+03,1.522427274603855039e+03,-4.555342180175437489e-02,6.716573451361040892e-01,7.394601385381580627e-01
1.592248800707884811e+03,1.486777560118015799e+03,1.643085237572362985e+03,4.951360639978564376e-02,-9.648032718177065314e-01,-2.582693351351176281e-01
1.458230242939808250e+03,1.399643737848686669e+03,1.444733893974419971e+03,5.858212338703589926e-04,7.284297574150051524e-01,-6.851202415093271547e-01
1.497903780632330609e+03,1.520656663349721612e+03,1.574495602556532731e+03,2.685678982443775453e-01,6.931613740982103256e-01,6.688786089350433617e-01
1.422706211822056957e+03,1.459303873026459087e+03,1.511645700814650127e+03,-5.830800487492765471e-02,8.716282401966464199e-01,4.866871556340917615e-01
1.560144157914754260e+03,1.420430353070177489e+03,1.468816225306738261e+03,5.900831231262932894e-03,4.045957474456961522e-01,-9.144766051352208880e-01
1.595484364388693621e+03,1.275721423621340591e+03,1.410237916475523889e+03,6.160821259085643297e-09,9.915641878899624784e-01,-1.296165934366404759e-01
1.476254133457596936e+03,1.541934459863616894e+03,1.373748593754839703e+03,-1.953312714994806230e-05,-8.031409559079996097e-01,-5.957890604581805860e-01
1.471695871986808925e+03,1.573996971822616615e+03,1.501420510561952824e+03,-2.456123290449398200e-01,8.392018152865360348e-02,9.657287336272635248e-01
1.496123221827647285e+03,1.544694623116427238e+03,1.452339018655869495e+03,8.242373801000317801e-01,-5.569293253367801899e-01,1.022862054519315805e-01
1.445979281269963849e+03,1.465484735147553693e+03,1.512274876146945189e+03,-7.604670960679074854e-08,9.347953795625666418e-01,3.551867091382660546e-01
1.479756184853986269e+03,1.208650755728213426e+03,1.458925311312358417e+03,-1.883452331746083286e-01,5.077217688981664478e-01,-8.406810801530621990e-01
1.448325470037464129e+03,1.385040069320781868e+03,1.483465166141257214e+03,-1.507029482602538772e-01,9.809199436170904507e-01,1.228197280566583893e-01
1.443568789011353374e+03,1.476404514423221599e+03,1.641503620795625920e+03,9.122160582923402039e-01,-2.409148088753286510e-01,-3.313939013593184546e-01
1.636994928922077634e+03,1.322170070747477439e+03,1.476994366892688959e+03,-9.890266941289348468e-01,-1.291562511968939175e-01,-7.172768696364918706e-02
1.540551433020395280e+03,1.332499435964520899e+03,1.432869442358231026e+03,4.740044053035836742e-05,9.870284020638268041e-01,1.605457295368734327e-01
1.382664948618450808e+03,1.572041825626253740e+03,1.513232470793963103e+03,-7.823167046294134743e-06,-9.725885946539687410e-01,2.325326331675108826e-01
1.514386224422958321e+03,1.439370607037799346e+03,1.504868837848221801e+03,-8.438152444978748168e-01,4.853342398511156786e-01,-2.289683575980130392e-01
1.328573224259418566e+03,1.632635132884925724e+03,1.491274435440853040e+03,-1.177936647294095798e-03,-1.914717071321865860e-01,-9.814974262998049648e-01
1.442433628728482745e+03,1.551631395759629413e+03,1.520107514263099119e+03,-2.227689875793855984e-04,5.625587705924426363e-01,-8.267572678867103342e-01
1.530522825269947816e+03,1.443894307359754748e+03,1.468118459663816111e+03,4.269599322553999654e-01,-9.309279943895458487e-03,9.042226238904832458e-01
1.425143531516718213e+03,1.502362221470769327e+03,1.500380498611438270e+03,4.072073764762549133e-03,8.394762300197954330e-01,5.433811530104867282e-01
1.423058225374058338e+03,1.502469731867566907e+03,1.398695966312141991e+03,1.628088503020877964e-03,3.322181413811026163e-01,-9.432011746521057338e-01
1.550523270134960512e+03,1.509677877369649423e+03,1.609509905583274076e+03,-1.342253104720386725e-01,-9.860469075193269983e-01,-9.846350694676893334e-02
1.472136581075300455e+03,1.419280168572558068e+03,1.515445622309553983e+03,3.401894216656598863e-05,-9.149110067553362091e-01,-4.036556063783195425e-01
1.562473977368481883e+03,1.322965868791437742e+03,1.392103493194009843e+03,6.117453772177491311e-01,7.418857926935682467e-01,2.745415525055355244e-01
1.642769006080867939e+03,1.503481920499908938e+03,1.487929338298736411e+03,-9.033387658674918441e-02,-9.955853906900793415e-01,-2.548569373770256941e-02
1.466313643980895904e+03,1.520402680203983437e+03,1.452100917402756750e+03,-6.730011508724993707e-02,-9.977315532074261251e-01,-1.562767909833750937e-03
1.534350557578446569e+03,1.415649626097690316e+03,1.533355079655188320e+03,-3.731076539808552139e-01,6.986495710758977573e-01,-6.104747786570436929e-01
1.392915312122633622e+03,1.534946898276298271e+03,1.428654779247373881e+03,-1.113946093334754472e-01,-2.258751937140716579e-02,-9.935195242067912380e-01
1.537458489526106405e+03,1.364959777174109831e+03,1.423304761141238941e+03,-3.386540785094234729e-01,9.106255363896958999e-01,2.368006494583829724e-01
1.565067688055763938e+03,1.459536279649876860e+03,1.438449187841374851e+03,1.281305824646127856e-01,-3.544933601440534154e-01,9.262380965232739349e-01
1.550732392434260873e+03,1.637966488734389713e+03,1.537030977827505694e+03,2.939647853322206461e-01,-1.248612756965946508e-01,9.476256469809163363e-01
1.549173034813991080e+03,1.320987674986527736e+03,1.447030674178126219e+03,-2.294178964932800030e-06,3.429319929109306830e-01,9.393602334742908733e-01
1.408691315739781885e+03,1.609640263936644715e+03,1.544878224526165923e+03,2.858304502576720640e-01,1.808291550694037242e-01,-9.410641691098339257e-01
1.455080333904202007e+03,1.348439335682418914e+03,1.575415386378004769e+03,6.510721730794006819e-04,6.141722661674041683e-01,7.891717199544219241e-01
1.451405432704970508e+03,1.488866311483581512e+03,1.483576452284014294e+03,5.351482393476133907e-04,-8.096747025679618126e-01,-5.868786839184436666e-01
1.597999172151259700e+03,1.468629984164735106e+03,1.535847956985169958e+03,1.831778785973752488e-01,-1.056062359821273583e-01,-9.773910106575834922e-01
1.566952605173779148e+03,1.448540759998617432e+03,1.555386267651699427e+03,-2.328689063019188099e-01,7.323250027504157877e-01,-6.399001194126718861e-01
1.486967202227514917e+03,1.463921199170798218e+03,1.585939237352982445e+03,6.589197599947871353e-01,1.935619152680252419e-01,-7.268827517875121602e-01
1.491947371855453184e+03,1.494804560079092425e+03,1.536601706384332374e+03,-8.369799625086098149e-03,9.991098800547638659e-01,-4.134481867406473304e-02
1.397736029313419976e+03,1.397702108939390655e+03,1.600935244418947377e+03,2.792296413390541211e-07,9.671919029903892628e-01,2.540468909271505482e-01
1.471830845446082321e+03,1.395169763190776621e+03,1.564303270323277275e+03,9.910323772386685215e-02,-5.349229764280055699e-01,8.390685058814031372e-01
1.424442900129654163e+03,1.470758511307935123e+03,1.505273777762588679e+03,-6.052941441882194514e-04,4.971428952902457454e-01,-8.676684708351634079e-01
1.346878920809953797e+03,1.334074404535994518e+03,1.506235188901326637e+03,-9.805935529035948450e-01,1.725014823925651031e-02,-1.952913628136904722e-01
1.437790035303060904e+03,1.390022436381374973e+03,1.497066489582211943e+03,7.508350043411479158e-01,6.029850821235304137e-01,-2.695473743008969802e-01
1.344922627750447646e+03,1.448620917930398036e+03,1.471000964962477610e+03,3.828561666658720775e-01,3.984069205163399130e-01,-8.334825021142320267e-01
1.452144468833462497e+03,1.462667141749461507e+03,1.534705906360536346e+03,1.875467025398655204e-03,-2.641709499796749405e-01,-9.644740493192508479e-01
1.417435819849404197e+03,1.429404724440815244e+03,1.465203020568205829e+03,8.184702207989770217e-01,5.644020229638725406e-01,1.075028099147283950e-01
1.494539644172182534e+03,1.612402798815702909e+03,1.465010979849405658e+03,2.180840259572627837e-02,-3.183583423400250245e-01,9.477195573790456740e-01
1.504814289735406646e+03,1.528583606479872060e+03,1.569718317947577134e+03,-1.288633787382530149e-01,-3.648533730872236536e-01,9.221042488607439358e-01
1.497301301133629522e+03,1.495942931382272263e+03,1.429000495935431672e+03,-1.697431193325446006e-07,-9.911623646318318270e-01,-1.326543136780956589e-01
1.494956504889687722e+03,1.500416620443020975e+03,1.392936433951162826e+03,8.983049647983793688e-04,-9.351065801264938360e-01,3.543654566296262631e-01
1.522682842699532330e+03,1.523318348502935123e+03,1.418561474763538627e+03,9.009422813283403109e-01,-3.403656954288877823e-01,-2.691731767656193042e-01
1.340130341452354969e+03,1.467454832536757294e+03,1.458053166236717743e+03,3.662986667643248612e-06,2.623540584571790735e-01,-9.649716824848434404e-01
1.495085596049198784e+03,1.446135687142344750e+03,1.487300980208766759e+03,5.444725202438800704e-02,-9.695398025794316199e-01,-2.388055023679933608e-01
1.456888342542708870e+03,1.522430663100438096e+03,1.532503954485318673e+03,-6.267240023597542287e-01,4.715541163121735324e-01,6.203658116427885894e-01
1.638110825803350735e+03,1.393383646107583672e+03,1.417664408795622194e+03,-4.925187456877264808e-02,-9.970893768590933792e-01,5.819817356418344190e-02
1.466071373602653239e+03,1.482425810281715940e+03,1.521154998562399214e+03,-1.736932784341699842e-01,-2.745066345311616418e-01,9.457678111593591508e-01
1.476434643922324994e+03,1.469146459766953512e+03,1.484189612201283353e+03,-3.474981243686827703e-01,5.814280570948753002e-02,-9.358763100455509409e-01
1.572828529691721997e+03,1.422652393723523346e+03,1.566463811670353152e+03,-1.161807214089646961e-01,1.267554511446660100e-02,9.931472048638830818e-01
1.386468329687019377e+03,1.541483544620387875e+03,1.466189810668137625e+03,-3.187187385129239270e-01,7.332738196391653807e-01,6.006062530081746065e-01
1.616022182529229440e+03,1.367661787806354369e+03,1.524244995911166825e+03,2.464318626601603307e-02,9.377971242533714724e-01,-3.463080523360163587e-01
1.312715832864761978e+03,1.474228977309259790e+03,1.478722024242069210e+03,-2.420749371235381142e-02,9.227323383984670224e-01,3.846804244068877665e-01
1.550191413698086535e+03,1.388009549107289786e+03,1.468802931967352606e+03,1.577484194967626249e-02,9.867016919066181613e-01,-1.617743043566561012e-01
1.453822931047110842e+03,1.599436290245855844e+03,1.661218961986346130e+03,-4.388387268310725564e-01,-8.181466423706902358e-01,-3.715597440666161821e-01
1.508050743279174640e+03,1.300547914213382910e+03,1.427855235443478250e+03,-5.544577930358264573e-02,5.161788535397199285e-01,-8.546842438677799692e-01
1.472128627221273064e+03,1.626842281678748122e+03,1.427929292949745786e+03,2.422966991151560140e-02,-3.183405896233240107e-01,9.476667093943172970e-01
1.490034211438786315e+03,1.443357619545548914e+03,1.449305258427320723e+03,2.934571879325133074e-04,-5.930709664477851195e-01,8.051501367071665083e-01
1.427396676159888557e+03,1.511411072406101994e+03,1.484154021950972492e+03,7.914759504644390542e-02,-9.968381360976081851e-01,-7.027703736681933933e-03
1.530655059789471579e+03,1.352373715085139338e+03,1.451416612639982077e+03,-3.077342970808919203e-03,1.319721030058948752e-01,-9.912486539655130935e-01
1.548059806434929442e+03,1.486865489067439285e+03,1.609931984381783877e+03,1.791211195429004421e-02,-5.901012150735911455e-01,8.071305422383719952e-01
1.510945581514495643e+03,1.271425239159514149e+03,1.535287517059665333e+03,1.883505907179843647e-02,-7.993250449347428788e-01,6.006036239399769050e-01
1.428582764257029794e+03,1.403416708956259981e+03,1.436590851227646226e+03,-3.436762499231215719e-03,-2.426709009316123031e-02,9.996996033819031124e-01
1.540366958641979863e+03,1.551130310223393053e+03,1.491948585925136513e+03,-1.193547406916369361e-02,3.241391123650125827e-01,-9.459341310545709147e-01
1.447136277256601261e+03,1.553905437748486520e+03,1.478620227221513460e+03,-4.767612914331605112e-02,-9.984424628504691146e-01,2.897645746117899143e-02
1.571244096112136504e+03,1.376159945770010381e+03,1.475738638492576229e+03,-4.836844616681517483e-07,1.315932289959738377e-01,9.913037990859205895e-01
1.467325416440957952e+03,1.468527926600149158e+03,1.408947816752657673e+03,-9.809770985891262934e-04,-9.288244764295446876e-01,-3.705187305242667040e-01
1.447630697094379684e+03,1.501047126632837944e+03,1.539992255475921183e+03,1.216690469996151158e-02,-4.246364738475157941e-01,9.052821833596252921e-01
1.512960197835890767e+03,1.292853889924086388e+03,1.587472986069327135e+03,-1.338566941557662038e-01,-7.922722237583900151e-01,5.953042154147955012e-01
1.522732411841590874e+03,1.463975864095840052e+03,1.440658533313011048e+03,1.504964578841746852e-04,-9.714945996794331906e-01,-2.370616378592582674e-01
1.547448355413541549e+03,1.522421245894328649e+03,1.453470435187972043e+03,-1.308994972709336124e-01,2.667946593859850668e-01,9.548224606372291978e-01
1.422447193337244471e+03,1.563929531083679876e+03,1.426454615190535833e+03,-1.021229537626812921e-02,-4.006326822198695292e-01,9.161818394622657236e-01
1.459905904029050362e+03,1.444369728662117723e+03,1.624865179740435224e+03,3.920992055386097741e-01,3.609747937632112880e-02,-9.192144390721171954e-01
1.492266550283626202e+03,1.471526198693096831e+03,1.486692719105973538e+03,-4.416930579215013614e-02,8.589895902727258115e-01,5.100842638515072913e-01
1.356586081025516705e+03,1.446741104142196036e+03,1.489903783525833660e+03,-3.198929298427148345e-09,6.230921108794162944e-01,-7.821484650370625902e-01
1.510614578965541796e+03,1.412205691469189560e+03,1.525721731243020940e+03,-1.188833841638543658e-02,6.979726386481230893e-01,7.160257419313037497e-01
1.485212417790318796e+03,1.448930021111515771e+03,1.518399615583367449e+03,2.274013572452333529e-02,-7.781639664625238373e-01,-6.276493667060792925e-01
1.604202054124953065e+03,1.446359119902243037e+03,1.512477463747290585e+03,2.085059307832082769e-05,-8.237602603221072517e-01,5.669382974180761092e-01
1.478381578061740129e+03,1.244934359859534425e+03,1.567267302196413993e+03,4.717530183145072359e-02,8.413888180620280322e-01,5.383672981685412307e-01
1.472858827091349212e+03,1.617007557546296539e+03,1.608390799467925717e+03,3.999754104651889020e-06,7.568348238571284137e-01,6.536061882977788340e-01
1.397664386534558616e+03,1.610974418628121384e+03,1.450203974493006172e+03,-1.599757553577266928e-02,-4.880233100839360683e-01,8.726839785350110068e-01
1.435609280662657511e+03,1.545173250063574869e+03,1.548618990172053827e+03,-1.004539621238089223e-02,5.203018439105453474e-01,-8.539233462309264722e-01
1.390106499048302567e+03,1.492708506512041140e+03,1.494420860545108098e+03,-7.590052154623173897e-02,6.576883656538710099e-01,-7.494565527851164699e-01
1.664650792982026815e+03,1.459171757724345298e+03,1.568678886728366479e+03,1.886680960058396417e-01,3.579787130466450806e-01,9.144701146319649254e-01
1.565824101924607930e+03,1.676412999878009714e+03,1.391788607529532328e+03,-2.479116341776268495e-01,5.569582389845580961e-01,-7.926773250614644883e-01
1.403861613158155706e+03,1.563202808999268427e+03,1.375589001039659479e+03,2.712187598656466414e-01,-8.070391679640539495e-01,-5.245266110206689980e-01
1.498521882353413503e+03,1.583990746465378834e+03,1.475886088353302739e+03,5.677502432450935721e-02,-1.830809136909265084e-02,-9.982191194338908558e-01
1.459103248217390956e+03,1.380950622768554240e+03,1.458975193234963854e+03,-2.728230917373050124e-01,-6.958539032946876590e-01,-6.643454717874168747e-01
1.623754617267772574e+03,1.498208511080379822e+03,1.351711206679041425e+03,5.437547453054040181e-07,9.928625222240594628e-01,1.192644622785154068e-01
1.559976507391260611e+03,1.517504246029328442e+03,1.370934542339847667e+03,-1.491159953158753605e-09,9.914583027574662699e-01,1.304240541207192794e-01
