x,y,z,nx,ny,nz
1.486335182718651140e+03,1.688785428026775890e+03,1.556329623010331488e+03,-1.729731183209222509e-03,7.325972993805577316e-01,6.806601244162518993e-01
1.463998817665272554e+03,1.555837653402283649e+03,1.464242975465859899e+03,2.674977440490429979e-03,-9.602425121637118144e-01,-2.791543700700684916e-01
1.469111350860415314e+03,1.469881149301638516e+03,1.605802100994574175e+03,-5.800001604123431603e-02,-8.792057238307424694e-01,-4.728988193286983721e-01
1.455804296070883311e+03,1.485664473252904372e+03,1.472988093035521615e+03,-2.795197173251638863e-03,-9.968681141779132115e-01,-7.903258700139915993e-02
1.500717741854942233e+03,1.485239697967814436e+03,1.465181951867364887e+03,-7.689646048271637190e-03,-8.273262585535495761e-01,-5.616690584778883943e-01
1.445335989696971410e+03,1.517167896594630975e+03,1.442868108950940950e+03,3.191260950504721795e-05,-4.441438988844240154e-01,8.959554654475455626e-01
1.447734925143956843e+03,1.615802196420545215e+03,1.672877623244181677e+03,5.067118187028654686e-02,-3.879533910527578899e-01,9.202850632812282772e-01
1.304017619692428525e+03,1.740739278578331323e+03,1.544244484813693816e+03,-4.289827057104374577e-03,1.277932268485853784e-01,-9.917915549930066410e-01
1.421307014370329853e+03,1.663104748800689322e+03,1.478787754171737561e+03,-6.324434588142544000e-02,9.377758443342122385e-01,-3.414331830641043064e-01
1.474246830601892498e+03,1.557193197050276012e+03,1.466500997359243229e+03,1.742853013570600743e-03,-9.490975404074034616e-01,-3.149774932530743365e-01
1.451548128305180626e+03,1.521982869747677114e+03,1.419274754476893349e+03,1.926069149042888839e-01,5.303811564454482402e-02,9.798415864923920582e-01
1.458542424223781154e+03,1.564348986111848717e+03,1.371196007167445714e+03,-1.281775645574420933e-02,6.555835692306711815e-01,-7.550138335647996746e-01
1.408279759587755052e+03,1.561540834450429202e+03,1.412931791872708800e+03,2.513739319815031514e-01,-9.670587258846720102e-01,4.010694466639845579e-02
1.517479014542119330e+03,1.418418861378783731e+03,1.607864939968764702e+03,-7.470280358804244347e-01,-1.517823010142792528e-01,-6.472335333613719044e-01
1.335204672375262362e+03,1.444182206173232998e+03,1.522690318270417720e+03,-8.428810889238871340e-01,-3.234389860891524471e-01,-4.300449885908488312e-01
1.504540782219283983e+03,1.705583857920888931e+03,1.500487308869501703e+03,-5.601538985333877341e-02,-1.749673685441266169e-01,-9.829794993001239600e-01
1.393123495029565447e+03,1.429976155581804960e+03,1.496401605776848555e+03,-1.245452740438316719e-01,-9.667913409441675210e-01,-2.231658078396540068e-01
1.453941947381158116e+03,1.449271974587594741e+03,1.528147342986609374e+03,-3.684095376601327354e-01,8.990193833828058478e-01,2.367246519968857210e-01
1.407356771688175286e+03,1.653661698752389611e+03,1.450488609732290570e+03,1.207472269978770718e-01,9.280728812143715922e-01,-3.522794832611996774e-01
1.541445730837421024e+03,1.677599705271632047e+03,1.474254137140911325e+03,-5.247134651318478837e-02,1.750011070388208523e-01,9.831690446359061530e-01
1.590711670929175853e+03,1.600278320117052090e+03,1.559291569218048380e+03,4.194154161990923158e-05,9.729761810396390098e-01,2.309054987877658394e-01
1.317604721759375934e+03,1.588475657570779958e+03,1.592652059948943815e+03,1.469935969408512623e-08,8.014827287848262927e-01,5.980179223565363911e-01
1.501317639642164067e+03,1.270382486529737434e+03,1.558273173316203156e+03,1.788476200464720056e-01,6.271984329286647286e-01,7.580472640512200266e-01
1.423504430645053390e+03,1.580167225717758811e+03,1.414299780728347969e+03,-2.000141010763247310e-02,4.798487931454592514e-01,-8.771231836581179220e-01
1.441030503684382211e+03,1.705694572922786620e+03,1.445759892560200342e+03,-1.458984699531508666e-01,-9.194312453318074230e-01,3.651846403847391898e-01
1.477685513832727338e+03,1.508233266315444553e+03,1.574547119816211080e+03,-4.723750393913044845e-04,8.959411657897677905e-01,-4.441724938636948949e-01
1.451933164945300859e+03,1.543532392860305208e+03,1.555847917070060930e+03,3.684129780668866094e-01,5.696133548871793462e-01,7.347193365674133947e-01
1.437975733646272829e+03,1.698060799029291275e+03,1.472210062360749816e+03,3.938198729715463794e-03,6.416275201045738008e-01,-7.670062685762222277e-01
1.465054360250111358e+03,1.414136943261886245e+03,1.349238108281289669e+03,-9.907200274946165175e-02,7.012032301874834284e-01,7.060444520324835604e-01
1.515565638162756159e+03,1.422101874468104143e+03,1.609312619401164056e+03,7.258819924211123986e-01,-6.761409481557351109e-01,1.262091569808615477e-01
1.550404938896805788e+03,1.542407047772843043e+03,1.266828471596269765e+03,-1.529329453872991769e-03,1.230911036873583719e-01,-9.923941965491582806e-01
1.355351159247888518e+03,1.555725915993554963e+03,1.533566269604220452e+03,2.816273153148136088e-01,-8.972909346639919015e-01,3.399338668599971580e-01
1.475544628698660063e+03,1.547827492062217971e+03,1.477809643790548080e+03,9.609001370104311435e-02,2.983530956083286709e-02,-9.949254060332074490e-01
1.568018803716446200e+03,1.553954917567205939e+03,1.439584456100795478e+03,-1.652085246733933921e-01,-6.420232902668251418e-01,7.486736526218888965e-01
1.416672393704649494e+03,1.621770253564056929e+03,1.484871650415269414e+03,2.301608965665400408e-01,7.225110895516152487e-01,-6.519230684418403365e-01
1.547066503330625892e+03,1.508343664881911536e+03,1.524718139908487274e+03,4.273614121525429882e-02,9.975516675370489361e-01,-5.535605502637469533e-02
1.421451861738112029e+03,1.601189980039515149e+03,1.587603347735877605e+03,-2.661870087610884728e-01,6.018366428444164029e-01,-7.529522771707291007e-01
1.430610390653124796e+03,1.318342552759091859e+03,1.533663887048120387e+03,3.019610304561293895e-02,2.272367276517341106e-01,9.733712883411911321e-01
1.433777958253066117e+03,1.587837517261055609e+03,1.408882893153384202e+03,-5.224687829153114652e-04,-1.825232312306493687e-01,9.832014020980105462e-01
1.415924802248475771e+03,1.739680707783642447e+03,1.555420049924570321e+03,-5.481071750774928891e-02,4.374118124773620497e-01,8.975893780295948199e-01
1.506560655870820028e+03,1.423796268104348428e+03,1.403467652106673313e+03,-2.357248602775264970e-04,2.365889135114243244e-02,-9.997200614641205130e-01
1.596224991088473416e+03,1.283834097692396654e+03,1.543851483634075521e+03,6.044963104287295330e-01,-7.288652766448141529e-01,3.214648023960502421e-01
1.419461150004649426e+03,1.620445481198649077e+03,1.505379214926713075e+03,2.766164862251265650e-06,-4.471591014423237365e-01,8.944544359494461805e-01
1.507570513271758045e+03,1.593186967010352191e+03,1.452961962149319788e+03,-1.161359675541150497e-05,-6.983131232440311642e-01,7.157924152785435368e-01
1.342072730303747448e+03,1.652984520363093907e+03,1.392980146025662179e+03,1.188952869196320816e-01,9.101643059998348884e-01,3.968184053596020555e-01
1.399177832940057669e+03,1.632932725600607455e+03,1.631312032706464834e+03,2.770631588411088808e-01,2.248610673730533083e-01,-9.341699558393202762e-01
1.433680649626568538e+03,1.686154193651530932e+03,1.407485216374648417e+03,-3.001621113314644762e-01,-1.501057863436545403e-01,-9.420036941685476783e-01
1.489926299512662126e+03,1.463708188837110811e+03,1.586496844821537479e+03,1.900660449658189144e-01,9.804423350607361920e-01,5.106590028289401811e-02
1.574097737145126302e+03,1.488038293025178291e+03,1.507016125465861933e+03,-4.040225620218088412e-03,-6.359835530716496932e-02,9.979673971524126719e-01
1.357480007049353844e+03,1.660986163105534160e+03,1.483281979047401819e+03,-1.053745762322943948e-03,6.099894591712915620e-02,-9.981372742347955906e-01
1.501016376351387180e+03,1.681175632563712043e+03,1.401084197597259845e+03,2.857564662691395793e-02,9.729270411007234776e-01,2.293390614676118766e-01
1.480950467366895964e+03,1.602118254533139179e+03,1.405569458252349932e+03,-1.254286763150122596e-03,-7.537700240108159699e-02,-9.971543181843736114e-01
1.405548208649548769e+03,1.729619537567085445e+03,1.439149842532909133e+03,8.485113644803664312e-02,-9.792266967961532620e-01,-1.841612362175363837e-01
1.401097677494575692e+03,1.394814488273806546e+03,1.524508621665660712e+03,9.328050733327047928e-01,-1.549182288191874868e-01,3.253844457626904330e-01
1.468474721786449209e+03,1.660036754007543550e+03,1.428958158436688791e+03,-1.113966459981353962e-02,2.189812514833986146e-01,-9.756654751354935096e-01
1.398534299952125366e+03,1.735852916601414108e+03,1.447942642542767089e+03,7.163866684160093978e-01,-5.949591917732163227e-01,-3.644361417866948116e-01
1.510005557051350934e+03,1.626475801171325202e+03,1.483944650305222240e+03,3.426134747128617604e-05,-9.667256729593622921e-01,2.558153085087523371e-01
1.380320690567232987e+03,1.494296608251902853e+03,1.455672557994424324e+03,8.103531923091784948e-05,9.509012536894480006e-01,3.094944250953694520e-01
1.527156069184842181e+03,1.493902216888254543e+03,1.619296657928220384e+03,3.650728437773681566e-04,9.909518491251214645e-01,-1.342173589269340939e-01
1.336128332680061021e+03,1.651283075775455472e+03,1.407093635954826595e+03,-1.366403548582799041e-02,5.860806709646647628e-01,-8.101374829347488538e-01
1.588335577328432919e+03,1.452678005225502829e+03,1.527817528588970163e+03,-6.611522924285447023e-02,1.951872806808467864e-01,9.785349773628847503e-01
1.379881680634442546e+03,1.516920235595196345e+03,1.510798351784488432e+03,-4.159986648757511840e-02,-6.324411822531342819e-01,-7.734905313567023155e-01
1.494870942341547106e+03,1.475791058359553745e+03,1.531938524601505151e+03,-4.871433343174233488e-02,-2.010128568697757967e-01,-9.783765865408636797e-01
1.484508870818018067e+03,1.565623032489826528e+03,1.416071060736275058e+03,7.524575643688070636e-01,4.980604939661181785e-01,-4.309795333590551447e-01
1.303063241751192891e+03,1.342049874944098065e+03,1.600590056907434700e+03,-3.052323710499462099e-06,1.174153464907184558e-01,-9.930828950289839474e-01
1.433279718237998850e+03,1.749588533636045895e+03,1.468696960163101494e+03,5.372462620660289380e-03,-9.542643834544577500e-03,9.999400354991475615e-01
1.587988071515738739e+03,1.518892313277075345e+03,1.553312842302935451e+03,3.288359078322975609e-02,7.669217347683249253e-02,9.965124083445227043e-01
1.482439313594811892e+03,1.413912576267434133e+03,1.466932974105674020e+03,-3.350908970390620301e-01,9.414892373632962608e-01,-3.622301272168715336e-02
1.327782246910217054e+03,1.641957413846432019e+03,1.501110403412676988e+03,1.907182587862327749e-01,-8.527494054156247172e-01,-4.862561026134748499e-01
1.469171361064816892e+03,1.518474324046285574e+03,1.484211900143278854e+03,-1.107541650323187882e-01,4.132126088766367444e-01,-9.038743578580805682e-01
1.522854734953379193e+03,1.480502890888852107e+03,1.588044857163005645e+03,-7.446021269060949521e-01,-1.513811159352289604e-01,6.501164744452524458e-01
1.503308613423715542e+03,1.593874950696762880e+03,1.346728131503524310e+03,2.637876220034355133e-06,3.168400733994032603e-02,9.994979358017325177e-01
1.345455487033668533e+03,1.534817261994546470e+03,1.374311533127836356e+03,-2.887372756933663672e-04,-8.489442910467842607e-01,5.284822677534775082e-01
1.320242344830536240e+03,1.562277481591350579e+03,1.604925617660557236e+03,-1.513314509423285652e-03,2.831448921873806479e-01,9.590759510629969231e-01
1.441074827609248587e+03,1.383545971434191642e+03,1.501500532747894340e+03,-2.210736712284183322e-02,4.846129596893974378e-01,8.744492801872377763e-01
1.383048607783603302e+03,1.421918406598343836e+03,1.654362973926006134e+03,1.024750509202283361e-01,-9.765702047321750401e-01,1.892339799514198007e-01
1.381484421244437499e+03,1.589990300653925260e+03,1.464136390012051834e+03,3.171216528705410598e-01,5.481342822067811205e-02,-9.467995275491811746e-01
1.429695103223094520e+03,1.516233415086709783e+03,1.470385654602872137e+03,-6.665442455171513569e-02,-9.923149266555026937e-01,-1.042510145004077182e-01
1.335017890070701242e+03,1.632197959876384175e+03,1.491615163749132535e+03,-4.130531373443461773e-01,-5.263577102354637799e-02,9.091845694570215297e-01
1.357082647219856426e+03,1.704235163529152260e+03,1.476655645533656070e+03,6.336993311861298661e-01,-7.734666299785252219e-01,1.321097891584188666e-02
1.413281457893259812e+03,1.704495643942178276e+03,1.394390932080860239e+03,1.392994149437040601e-05,8.473150803215296900e-01,5.310905332103712517e-01
1.457449661215987135e+03,1.607210285031587773e+03,1.448917770537571414e+03,1.049709331483230333e-02,-6.362592682543972700e-01,-7.714038855180330723e-01
1.604701680948473268e+03,1.648944551537359075e+03,1.545602071014234980e+03,-6.224744758398705853e-06,8.394421906959598223e-02,-9.964704551797048948e-01
1.318839125350418954e+03,1.407831709130343825e+03,1.609491462285298894e+03,-2.793678442308072738e-07,-9.805791540965209663e-01,-1.961237429565156898e-01
1.420496818135466128e+03,1.657067352580556417e+03,1.570405945046428542e+03,7.052499008361936550e-01,-5.014148766443481398e-01,-5.012042486354960635e-01
1.498605648417600378e+03,1.434896604463822314e+03,1.540801843622861952e+03,-2.946374266998877944e-01,-8.483548927920839811e-01,-4.398667555787774686e-01
1.403250032579288245e+03,1.506562234327659326e+03,1.421351570383188800e+03,-9.344822409989780187e-06,9.867387046306886900e-01,1.623167542073984948e-01
1.479255942416306880e+03,1.429875832858876947e+03,1.532057363910443428e+03,1.017246908581059643e-02,-9.994165695755338197e-01,3.260431460053223734e-02
1.539678692443268119e+03,1.645652132287252471e+03,1.405214446667606126e+03,-1.352612029262370286e-01,9.809386550239224123e-01,1.395125874708282587e-01
1.469964834088844782e+03,1.353940193177797028e+03,1.468972873344217078e+03,-6.950713771926911137e-03,-9.988393769252931209e-01,-4.766116533985637060e-02
1.378932072443274365e+03,1.584354561318893047e+03,1.441677952171263541e+03,4.094286539839746969e-02,9.979938163479791235e-01,4.829103751385781934e-02
1.453123172061073319e+03,1.461234651527917777e+03,1.531112162953281995e+03,2.810857449647332848e-02,-9.053210510796569910e-01,-4.237967702942075365e-01
1.545794835411512395e+03,1.700554787167353197e+03,1.583107109386697857e+03,3.173009541731696214e-07,9.919979816659223459e-01,1.262537301256315136e-01
1.373654021615342117e+03,1.337438002376358781e+03,1.494133212913640818e+03,1.212656299215395190e-03,-3.352899263689621545e-01,-9.421142153370768435e-01
1.452054736430071671e+03,1.390467325779073008e+03,1.394466907492969767e+03,-2.170060677839742991e-01,5.174217281654396317e-01,-8.277578883751136596e-01
1.277293278294911488e+03,1.385487409457930880e+03,1.608779108163643969e+03,-6.138278782007951066e-03,4.741168489768390892e-01,8.804405346472113925e-01
1.528016231998765761e+03,1.617362888702773262e+03,1.402454593809894277e+03,4.943392614582462485e-01,-7.539680714482579482e-01,-4.326208984983393457e-01
1.447419479988097009e+03,1.693317662133831845e+03,1.478960502753055835e+03,2.381622254405581576e-03,-1.672982251952958854e-01,9.859034596358516866e-01
1.428831573958237641e+03,1.603686266287476656e+03,1.653035340362867828e+03,-1.303366060800628147e-02,-3.024036202752422575e-01,9.530908530332155015e-01
1.558975349069091635e+03,1.467032986874077551e+03,1.574547941929604121e+03,-1.913458562336056365e-02,-7.745022030681046887e-01,-6.322817450122014682e-01
1.470730456447544839e+03,1.423913535374199228e+03,1.447013735912591301e+03,1.689751074055793195e-02,-9.421069550799090475e-01,3.348864872174379115e-01
1.499152716714483631e+03,1.602602292001021169e+03,1.433127242069536806e+03,1.340157555369546893e-01,9.887946927539656983e-01,6.576346135545062255e-02
1.460102359518681851e+03,1.645081985015453256e+03,1.412333728116562042e+03,5.728269949831860802e-02,9.881799201296961321e-01,-1.421940146090998058e-01
1.443592770284582457e+03,1.483289313060477980e+03,1.470479581979908289e+03,4.267762019145138197e-01,-9.019271383072613446e-01,6.625338228571152344e-02
1.432748919417404295e+03,1.603997343130274203e+03,1.648884615116798841e+03,4.829515266366876843e-03,1.852846763891197457e-01,9.826730201230067241e-01
1.465093211125891912e+03,1.628806867096247970e+03,1.414473893002642171e+03,2.434324560225567535e-02,4.583855038953715821e-01,8.884200224061445939e-01
1.406407402827453325e+03,1.663822483740897951e+03,1.521597979261644923e+03,7.548609861122411724e-01,-4.603011187096475165e-01,4.672341722951159348e-01
1.325949358040556035e+03,1.431525221437975461e+03,1.573995055539238137e+03,-4.138563692536669988e-03,-9.956434134987042217e-01,-9.315076729265926725e-02
1.455039402390420719e+03,1.710633880233761602e+03,1.402687714944880327e+03,4.789023636570364671e-04,-3.438289174504197132e-01,9.390321859113236469e-01
1.471347937796196902e+03,1.610971947947020453e+03,1.491484401208069585e+03,1.996313247816911829e-01,8.570167866773948928e-01,4.750469045463400208e-01
1.522046592700660312e+03,1.681727892166404899e+03,1.512329522874841587e+03,-9.924801818597413889e-06,5.248872931957928589e-01,8.511717390415944884e-01
1.508647930686298196e+03,1.405836768843089885e+03,1.545430893706573670e+03,-7.792430181568990033e-01,6.010652028168062683e-02,6.238329302572562796e-01
1.298758903221302035e+03,1.555405264292690845e+03,1.451307968708814997e+03,2.480340349887190658e-04,8.218360555708310589e-01,5.697240000587084907e-01
1.525378027588178611e+03,1.467077071302419199e+03,1.406267467497986672e+03,-2.064199625817053282e-02,9.988474476742341679e-01,-4.333225432799365368e-02
1.483155591174116807e+03,1.711060054468126282e+03,1.512666274201978240e+03,-2.080495639947597977e-06,9.995863657021292203e-01,2.875930280936405889e-02
1.476906438934970311e+03,1.405818393633151118e+03,1.461948956747489319e+03,-1.047696372223218481e-03,8.966467036257498302e-01,-4.427455151770466335e-01
1.482649543809984834e+03,1.475436773283994171e+03,1.548810112744327853e+03,-1.719284971028243736e-01,6.413541073517416147e-03,9.850885535701155993e-01
1.366385962741226876e+03,1.557226057572252785e+03,1.578324510092234505e+03,1.160943033164811566e-02,-6.382444545192594854e-01,-7.697462162315495959e-01
1.372785408789372696e+03,1.719605758648094252e+03,1.388365443149778002e+03,-9.316383744938602050e-06,9.993360454449664587e-01,-3.643443683688458307e-02
1.486593052855611859e+03,1.639801077808406717e+03,1.423915449013999705e+03,-2.017259721703568414e-04,9.645383898692785341e-01,-2.639425198315194510e-01
1.520573442556486725e+03,1.682716166958598023e+03,1.561309829271386661e+03,5.467239932577333128e-08,2.481695267414958574e-03,-9.999969205895570257e-01
1.551468956216758215e+03,1.575849718133222723e+03,1.396980419991655253e+03,-1.098336097360347969e-03,-9.634535855529265946e-01,-2.678730709553066025e-01
1.562486515790002613e+03,1.662069887737015506e+03,1.511725948232239034e+03,1.861033489145992939e-02,8.584518168044937836e-01,-5.125564687527528474e-01
1.545233216316762309e+03,1.567892020577150788e+03,1.418722114230400848e+03,-1.070952817351081554e-01,-3.225218461036879480e-01,9.404840559073539552e-01
1.300850291873674223e+03,1.550074676944154817e+03,1.513864029895584736e+03,4.362890341892530777e-02,4.734271811615359260e-01,8.797517962038522432e-01
1.581916495419271769e+03,1.415064515509131297e+03,1.608831828758492748e+03,8.360246248293272658e-04,-1.463698689702082889e-01,-9.892295802898691814e-01
1.419331361268958290e+03,1.481459211289225550e+03,1.529844897804494167e+03,-9.295959720961609926e-05,-8.221896028279622459e-02,9.966142854326991429e-01
1.413505031668938500e+03,1.623110344012471842e+03,1.571947793057079252e+03,-1.740706255213461118e-01,1.859084578127230269e-01,-9.670250579195465157e-01
1.447351292272528099e+03,1.659268485684395273e+03,1.343064400624577956e+03,-3.919220332500677473e-01,4.923865086306773442e-01,-7.771439030009981153e-01
1.570256391801184691e+03,1.422115611604787091e+03,1.615009037674002002e+03,-1.464318280427754082e-01,1.997873210130531041e-01,-9.688357683831033684e-01
1.490987489888340860e+03,1.629738406542891198e+03,1.369262995907447930e+03,3.778542544270875880e-01,8.978463769199821476e-01,2.260487687712790517e-01
1.551924163915075496e+03,1.505403428383476921e+03,1.383814747773786621e+03,-2.312883132381380767e-04,-6.655729315382749589e-02,9.977825781370166514e-01
1.398007669623225866e+03,1.697162826962933877e+03,1.448772733854622174e+03,-3.533764733415034609e-02,8.096689300489721131e-01,5.858220501092801236e-01
1.506580645409074123e+03,1.477952582820415046e+03,1.358856279168124729e+03,-1.172389080351743801e-01,3.718753981809208575e-01,-9.208494592877283225e-01
1.496368522273605095e+03,1.702437237394718977e+03,1.388910989664782392e+03,-2.792916160665393685e-08,-7.134215380900073011e-01,7.007351204194689487e-01
1.528480491034365969e+03,1.500140563122219874e+03,1.428624794111025039e+03,-1.984313360859646935e-01,9.002033738241751459e-01,-3.876324168780408419e-01
1.541879589808183482e+03,1.550790864047242849e+03,1.385759042667313679e+03,-6.638113826005391793e-01,7.413490034443984689e-01,-9.877298933391553959e-02
1.452507519237517727e+03,1.558413711953361371e+03,1.393200546643748567e+03,1.663616252978590837e-01,4.839272316509996563e-01,-8.591497215822481159e-01
1.390162333605583399e+03,1.663767122455239132e+03,1.430400010116109343e+03,2.441939888245910906e-01,9.587539599555819914e-01,1.454652538973682796e-01
1.440338769069268437e+03,1.632607102516224813e+03,1.553641497356722084e+03,-2.224238772501819150e-04,-9.141541661104515271e-01,4.053666378854133834e-01
1.348682211329846950e+03,1.524216206402880289e+03,1.535013041098201938e+03,5.180247192354084937e-04,-9.487466174372197747e-01,3.160373198719164112e-01
1.510103860154977838e+03,1.451922228894892896e+03,1.522457945734263831e+03,1.833384644838334391e-03,9.999936470150773138e-01,3.056898792750897646e-03
1.389236757658791248e+03,1.461437538902146798e+03,1.589631411434971824e+03,3.845152675709564427e-01,-2.251899023161066937e-01,-8.952304267057158427e-01
1.450776633288686753e+03,1.544809578353561392e+03,1.291777409411862664e+03,8.723156737822657103e-02,-5.152510395871728877e-01,-8.525884234829108621e-01
1.444946914605553729e+03,1.338044006743227783e+03,1.493165739919122871e+03,-1.216868886873040262e-01,-9.833361518364353016e-01,1.350641092708004809e-01
1.429641301875368299e+03,1.488590160018552069e+03,1.335632281766661663e+03,3.289888891177410223e-04,7.606780128202264013e-01,-6.491293034351339752e-01
1.546393568138031696e+03,1.712465902956644413e+03,1.482412488419391593e+03,2.658242030172247028e-01,8.277093749377157916e-01,-4.942010559787112234e-01
1.347992730655938885e+03,1.531521271016175433e+03,1.457860323082291870e+03,1.509755465403962993e-01,-9.873822404642329520e-01,-4.777756338136434494e-02
1.506145503485882728e+03,1.602264721771026871e+03,1.349633746366690275e+03,-4.668476546686331177e-05,1.545846187167995989e-01,9.879795511429952937e-01
1.507305425916765216e+03,1.529942094757019277e+03,1.401261599949045149e+03,-9.079821353425561459e-03,-9.970019007501428332e-01,-7.684248007965487071e-02
1.440819864785239361e+03,1.489917629025801261e+03,1.368190885897346561e+03,-3.139672808873248799e-03,-1.086563352115718223e-01,9.940744153598581878e-01
1.482328806385394728e+03,1.515791861899077503e+03,1.595136891776108996e+03,4.478764636960349405e-02,6.120951689538164375e-01,7.895147692577195730e-01
1.508101158903437636e+03,1.523101884388336430e+03,1.503798983483756047e+03,-3.746872879456027983e-01,-7.076623571946813462e-05,-9.271512450749925804e-01
1.401962514609321488e+03,1.304952379103874136e+03,1.513296090111646663e+03,1.844238779381054808e-04,-4.921656616665779915e-01,-8.705015378872876797e-01
1.403021598431201937e+03,1.458856940211590654e+03,1.512439211014642751e+03,-5.698584636401121672e-02,9.596275217285606951e-01,-2.754407973690139455e-01
1.520365298915563017e+03,1.516557203674748280e+03,1.358231055310937563e+03,9.677713557301914800e-04,-5.648183911380030287e-01,8.252146681021131913e-01
1.346890678070862350e+03,1.550269007256822533e+03,1.387320004747128451e+03,3.450344172850829810e-02,9.036681546400796572e-01,-4.268411634300052215e-01
1.525286605684278356e+03,1.479791951545432539e+03,1.509018265356259008e+03,-2.278112019045443470e-01,-8.921509543817036647e-01,3.900881065639176803e-01
1.459152179572484556e+03,1.478886547256872291e+03,1.578800394584266542e+03,5.233926064692417252e-02,-9.604276248401371063e-01,-2.735678695294209151e-01
1.414717058541129745e+03,1.583757220530733321e+03,1.624846591906854201e+03,-3.063354532605069847e-02,-9.911320808489415546e-01,-1.293011377088535141e-01
1.392018426340883479e+03,1.498755989960769739e+03,1.419669671812181832e+03,2.196636220719541122e-01,5.896001008721188930e-01,-7.772513198379382704e-01
1.462823520830346297e+03,1.652424951554171002e+03,1.604371613465108567e+03,2.542072903915496677e-05,-5.591479353631312321e-01,8.290679017625360858e-01
1.479442765104026421e+03,1.481643644998129048e+03,1.427669201220425521e+03,-7.444947220313910885e-07,-3.925287236342910879e-01,9.197397464073627793e-01
1.391948104213946181e+03,1.352644539139769904e+03,1.341202774390888862e+03,-7.141267716871149140e-01,-6.328152345879832774e-01,-2.992788546374352543e-01
1.481238414199208364e+03,1.707927474641627668e+03,1.371360627311970575e+03,7.240078976429875635e-02,5.463182236479303261e-02,9.958782504034353611e-01
1.416185788554813143e+03,1.635956452310359282e+03,1.480641467037338771e+03,1.410107838697943206e-01,8.091717428682038138e-01,5.704007796068127911e-01
1.442910562618868653e+03,1.438877882622035486e+03,1.455916327539185659e+03,1.721575505921140170e-01,3.974601507112709431e-01,-9.013252500461181871e-01
1.535083310809164232e+03,1.496303012598968053e+03,1.500610610455043343e+03,4.055993158640267687e-02,6.019386903191213944e-01,7.975115704782013148e-01
1.469941638478650702e+03,1.347603187141452509e+03,1.417329296814994223e+03,-4.447691824279225640e-04,-1.114793647286128758e-01,9.937666493800642042e-01
1.417605622503469704e+03,1.604545237475169415e+03,1.405330351611307606e+03,-4.303410564767817803e-02,1.694555823826232044e-01,-9.845978221337230440e-01
1.350253774927504764e+03,1.770503840341151090e+03,1.430556146066251131e+03,2.895970835154539347e-01,9.566847360919735754e-01,2.979672713527858202e-02
1.411620706546206520e+03,1.689646438214076625e+03,1.438200981358686249e+03,2.175715834277925412e-07,-9.273171845432383043e-01,-3.742764209120771346e-01
1.458378545047440412e+03,1.524403069973823222e+03,1.656908230200614526e+03,7.302378534646692954e-01,-6.805343959671809051e-01,-6.021306563277218499e-02
1.404427048830668127e+03,1.566590602718657237e+03,1.426808695280936945e+03,-6.793433960072388367e-02,9.156578780759978553e-01,-3.961761928995411464e-01
1.486559922736497128e+03,1.590981390452325513e+03,1.465178563600234838e+03,-2.072501493014466262e-02,9.997196656626922140e-01,-1.144831181529808520e-02
1.542668214437883762e+03,1.458678646467946919e+03,1.488525605780449951e+03,-3.987161324193596451e-02,9.986198905075719390e-01,-3.418433471826818476e-02
1.410957912100855083e+03,1.567075667849168894e+03,1.635831604139046249e+03,2.999129183915407110e-04,-1.230943172085637305e-01,9.923949310245387956e-01
1.308335349212826259e+03,1.647944845366475192e+03,1.484965389535247823e+03,-9.726548469370118744e-01,-1.738504832757155338e-01,-1.540083056031011921e-01
1.442095426469225004e+03,1.669416240388307870e+03,1.477977013964381740e+03,-4.408414964927808710e-01,-5.703184567361055946e-01,6.931057876516053540e-01
1.525078038383786634e+03,1.459669077389247832e+03,1.512821766314414845e+03,-9.285145846861512413e-04,5.446891185614393116e-01,-8.386375271721558944e-01
1.395684853994587456e+03,1.781372912030986527e+03,1.467331514394754095e+03,-8.083245859408361156e-02,6.917903088734694839e-01,7.175599502385744399e-01
1.367480268534954348e+03,1.545891744618363191e+03,1.307699660221129079e+03,4.091163986944558288e-03,-8.068302561165747733e-01,-5.907691598180241366e-01
1.431348205927058416e+03,1.386978812623873409e+03,1.497102645350429839e+03,-4.513201674209244563e-01,4.951765001934745336e-01,7.423680624429438435e-01
1.407570397905490154e+03,1.523981211906409499e+03,1.473161609985091673e+03,1.325895879369749092e-02,4.520401270110943615e-02,9.988897823320774805e-01
1.510461071599778279e+03,1.479951659435385864e+03,1.506730422106251353e+03,3.023503251317887774e-01,9.372462689755464149e-01,1.736482426750109165e-01
1.394386986388515879e+03,1.797831981859372945e+03,1.538687658765713422e+03,-1.412617352648072588e-01,9.887344943403856279e-01,-4.948961357130923083e-02
1.397173859786213825e+03,1.776309061469042717e+03,1.537848009765142706e+03,4.580287661887387785e-01,8.824739460388462131e-01,-1.070017939393972245e-01
1.432178199929286620e+03,1.547660491181667112e+03,1.503570617248493363e+03,-2.763157618706517239e-07,9.904074921501581086e-01,1.381774203434058268e-01
1.472264920337950343e+03,1.594227065842888351e+03,1.554573280687636952e+03,1.153972203407688940e-01,-8.301971236834101431e-01,-5.453954687796889189e-01
1.456361530069784294e+03,1.666515350064032191e+03,1.304783167957503338e+03,7.817892251902743991e-10,-5.340826245672604111e-01,8.454322859551478553e-01
1.462526615724387739e+03,1.647003745513565946e+03,1.539014632515215226e+03,6.294090793554632990e-05,9.574155160172442836e-01,2.887135703909258222e-01
1.470869536134199279e+03,1.619242531776759506e+03,1.372513407800393907e+03,-2.250741606963749947e-02,-9.869943813294382862e-01,-1.591713147711848741e-01
1.502577727414279479e+03,1.522318827923695380e+03,1.372840296896546761e+03,2.247877194729680506e-02,-1.245416279326250902e-01,9.919597208171474501e-01
1.567314249371384903e+03,1.507740310933361343e+03,1.340425035206579196e+03,-1.906012826283947359e-01,-4.128759245954068402e-01,-8.906203579246876334e-01
1.448122309895661147e+03,1.443767655029076423e+03,1.443771775652638098e+03,2.594268531262911015e-02,9.923120139983407917e-01,1.210117513026187086e-01
1.461729007552926078e+03,1.545519628743429621e+03,1.437044484522247103e+03,-7.767106453332205725e-04,-9.020436430949754225e-01,-4.316441389298808495e-01
1.408196973307065036e+03,1.359201678588224013e+03,1.503086479467780009e+03,-1.179967623111025515e-01,-2.257521917023446456e-01,-9.670122605353486112e-01
1.510302683028955016e+03,1.469046758744136014e+03,1.520625859908875782e+03,1.035142701446707114e-01,-8.676445577533283826e-01,-4.862897462186996922e-01
1.426792216690153964e+03,1.468736293673923910e+03,1.498961310828847445e+03,4.271147825674811438e-01,-7.131484160387943083e-01,-5.558707576529746675e-01
1.391305135971936807e+03,1.602782539688614179e+03,1.409937019671748430e+03,-7.163940715189306419e-01,1.398580320731964907e-02,6.975556835129188560e-01
1.424519200385385147e+03,1.633480359086261842e+03,1.532744472965388695e+03,3.598078751212985260e-03,7.081471096937739240e-01,-7.060557519499817136e-01
1.337118073801278115e+03,1.830819330739512907e+03,1.459342044515417228e+03,-1.601671152510277807e-01,-3.732480721587360106e-01,9.138010570260635124e-01
1.486975879506561341e+03,1.664090688245862339e+03,1.473182661714869937e+03,2.740195809342111932e-01,-9.003654414128440253e-01,-3.380167764684082754e-01
1.536132705685867450e+03,1.495128087208712941e+03,1.380443382318341946e+03,-3.730847734021450202e-01,-5.101652772102381606e-02,9.263935803721655704e-01
1.473541141891210600e+03,1.637817485513627844e+03,1.418114444593852113e+03,8.996550046072568363e-03,-1.442246586575931244e-01,9.895040727164133854e-01
1.568150567584145392e+03,1.619659460305452512e+03,1.433306832407829233e+03,3.505201517853866668e-08,6.985954911790922539e-01,7.155168339768406272e-01
1.298357437587849518e+03,1.618334074079933316e+03,1.534221595004871915e+03,1.139810878937451144e-01,-8.630330999214127496e-01,-4.921200870139270656e-01
1.302894052681861922e+03,1.705301398631754182e+03,1.481509613857014529e+03,-8.255984776507302534e-04,9.412616392307070479e-01,3.376771311473075188e-01
1.449614777580619602e+03,1.389230218496502175e+03,1.533635286873264022e+03,-2.537878859038272261e-01,3.441326952287975804e-01,-9.039714580909230524e-01
1.498267676662831036e+03,1.458183257212887838e+03,1.344536273289062819e+03,-6.654184916985195729e-03,7.550293675262932380e-01,-6.556572092152548326e-01
1.282070198787823756e+03,1.511468412242850263e+03,1.475866901058013127e+03,2.942106615810630849e-02,-4.322236778780435551e-01,-9.012863546885071520e-01
1.490391478563007240e+03,1.446517428830466542e+03,1.509503414318601926e+03,-1.522111062184866871e-05,1.652829107899680683e-01,9.862461960226327484e-01
1.467058606459859220e+03,1.595621468235238126e+03,1.508857888448967060e+03,4.838593474915799802e-02,8.598220232873439173e-01,-5.082960648957538519e-01
1.442643061941943188e+03,1.542932194138779323e+03,1.279277112285856447e+03,-2.058712322012964920e-09,-5.140940865067562537e-01,8.577337991584473853e-01
1.442199752996781172e+03,1.692608458103133671e+03,1.427745171670180753e+03,1.207918207449239039e-04,1.966599964164361669e-01,9.804717391229710310e-01
1.585990389634871235e+03,1.505368415996847489e+03,1.610475287069356909e+03,-1.518219209908601230e-05,-1.753117201593976104e-01,-9.845129763209086171e-01
1.401513203410740743e+03,1.470896549665795192e+03,1.500165582546389032e+03,2.383198524511735532e-04,1.281949472572158910e-01,-9.917489595161507188e-01
1.340341752291657031e+03,1.721688566187621973e+03,1.403864607091519929e+03,1.576784946408803451e-03,-8.724322699783638724e-01,-4.887324912972659252e-01
1.489074237894908265e+03,1.456807838519985353e+03,1.611809392158764467e+03,3.556184093992071499e-03,9.945077902630563571e-01,1.046021446280266110e-01
1.362888944225762316e+03,1.482780594253443269e+03,1.530891165277694881e+03,1.100114359327662855e-01,9.935367615275380038e-01,2.796761443854261023e-02
1.456366408982156372e+03,1.489236920103096963e+03,1.569198428545557817e+03,-2.420210573620524552e-01,1.928200237297492126e-01,9.509186328189247472e-01
1.374182900081427306e+03,1.373609698811822000e+03,1.534397351018681320e+03,6.878940283885910389e-01,4.106339634567260366e-03,7.257995203099282255e-01
1.468256624159427474e+03,1.559976452106786610e+03,1.360708689572413505e+03,-5.035696260258191309e-02,-7.926368878928292672e-01,6.076108460758516960e-01
1.382291205684624629e+03,1.821031840700218027e+03,1.382997225763911956e+03,7.279701904805349066e-01,3.390378358485332533e-01,-5.959133725927593384e-01
1.396316912012659259e+03,1.757236883358397108e+03,1.365136398178865193e+03,1.990025642002380222e-06,-2.162028416591351976e-01,-9.763484681477996308e-01
1.428643572789548443e+03,1.353103646247060851e+03,1.586345737827134599e+03,1.425682319966721789e-01,9.897111951620126691e-01,1.208508983514942382e-02
1.455004638735695835e+03,1.415583973348232803e+03,1.505643206910209074e+03,1.852148879703620077e-01,-7.750625504352558481e-01,-6.041303569486660141e-01
1.413452019664784302e+03,1.547425179115624587e+03,1.445949835557364395e+03,-5.799297753670750177e-01,2.405970539695267973e-01,7.783280242056549447e-01
1.484100816015252803e+03,1.533968999627999210e+03,1.296116826821112682e+03,-8.061742868198113875e-05,-9.894453212333875758e-01,-1.449066933933307322e-01
1.400303216811829543e+03,1.535733520311974871e+03,1.468351571507643030e+03,-7.598972739403378474e-02,-3.025650785719888325e-01,9.500946976798190224e-01
1.314089981427776593e+03,1.689638536833624812e+03,1.557618312759117089e+03,-1.033456637096131087e-01,-9.938805741311970143e-01,-3.900100200074000517e-02
1.396642401208767978e+03,1.705767201482565724e+03,1.473383160183458131e+03,1.148389097599574636e-06,3.953235768385736648e-01,-9.185419258772228313e-01
1.383756307196865919e+03,1.646408679575760516e+03,1.490111629514515698e+03,-4.790274545800029052e-05,8.852374100358602060e-01,4.651394689534842364e-01
1.457671519813261057e+03,1.657423905600553553e+03,1.375087944167198657e+03,9.873850639355977732e-01,5.028843178172791306e-02,-1.501392991386006071e-01
1.285939829950988042e+03,1.461376617563553054e+03,1.565096198722196732e+03,-8.302617020406850568e-01,-3.350240601525340534e-01,-4.454485214291499795e-01
1.435512048254867750e+03,1.749786807757812994e+03,1.354524892198092402e+03,-6.179783179586795239e-02,5.491954190533210323e-01,-8.334059153114865559e-01
1.495163108050536721e+03,1.448897521677115947e+03,1.522810671593494590e+03,-3.427202071830758967e-05,-9.915688849411463668e-01,1.295806514955072930e-01
1.400086714954218678e+03,1.494993522165823606e+03,1.602257361041635022e+03,-2.331764451300680045e-03,8.074547518142717317e-01,5.899248991584408186e-01
1.460805708965590384e+03,1.457558128228610258e+03,1.346055036742975972e+03,-2.945159135283431651e-01,7.961347367146145437e-01,-5.286112538292360163e-01
1.449946157472296363e+03,1.618081809482515609e+03,1.606641201761376578e+03,1.004084325662740057e-01,-7.711443667486798104e-01,6.286927010084988332e-01
1.515254731242145226e+03,1.581231746773899658e+03,1.403286721886612668e+03,-5.891931941240748961e-04,-4.920918591079807836e-02,9.987883203529046572e-01
1.500142412399562772e+03,1.491392209330822425e+03,1.267739179132091976e+03,-5.603439082225067924e-01,1.837739286006869199e-01,8.076149129904650614e-01
1.368722446922683275e+03,1.345027057588961952e+03,1.555686725865986091e+03,-6.425986161392262036e-05,9.857958589866341326e-01,-1.679479689531084563e-01
1.371480264360025330e+03,1.450450124821691588e+03,1.526059473093498809e+03,1.176893784528952776e-02,-6.375590251664088326e-01,7.703116132649514558e-01
1.564656052724069923e+03,1.442030846670893197e+03,1.443595541517155652e+03,-9.738388249603398500e-05,-9.879755042818723076e-01,-1.546104571345665868e-01
1.461118758776852701e+03,1.288640302603270811e+03,1.546865436973396527e+03,3.843162627920040236e-02,8.872464671695184935e-01,-4.596919801309834464e-01
1.421129907652404427e+03,1.438273772439005597e+03,1.443215245979400152e+03,-6.124996209226443028e-02,-9.404723843485148782e-01,3.343054537717198293e-01
1.387476869775206751e+03,1.561605174541137785e+03,1.472523911562599096e+03,-8.310907932702109313e-02,4.596671605884258827e-01,-8.841939732943158159e-01
1.521715241773580829e+03,1.430841944997091105e+03,1.551363048001951256e+03,1.268145409666836297e-03,-9.973304187927447551e-01,-7.300977713915035583e-02
1.398874321511211974e+03,1.626772859351159696e+03,1.485108008070750202e+03,3.155368652365741350e-02,8.110301919810692928e-01,5.841527133908706038e-01
1.389773448638810578e+03,1.434932055742206785e+03,1.519312448196839568e+03,2.345573091814011357e-01,2.879900984848471346e-01,9.284635544189490108e-01
1.537397373756557045e+03,1.585346618600868851e+03,1.470892497930879699e+03,-4.992565424611288009e-07,6.771973479156456754e-01,7.358014351547343956e-01
1.420123522807010886e+03,1.534663680270501573e+03,1.335479164751805683e+03,1.581839508222453172e-02,5.777345286751339737e-01,-8.160714385110799940e-01
1.457905152759753264e+03,1.678698774399486183e+03,1.506896836598428990e+03,-8.125654794482633548e-05,9.919434654331956702e-01,-1.266813118883599876e-01
1.376091906169848926e+03,1.521963413082428360e+03,1.371657114946636284e+03,-3.898325115011987141e-02,2.748103175900532547e-01,-9.607078616706645757e-01
1.505606488121653001e+03,1.695329467982169490e+03,1.401509441382751447e+03,5.348791089334252544e-04,-9.081686446568554283e-01,-4.186041408854780932e-01
1.445070037080763313e+03,1.706936588925748993e+03,1.440513680287803936e+03,-6.392254934209922086e-04,9.829647611871493718e-01,1.837930076337481178e-01
1.505346847918389130e+03,1.658374765327351270e+03,1.508977280317752729e+03,-2.257710385123068431e-02,-3.698724985550888023e-01,9.288081659817094549e-01
1.506714730927165647e+03,1.428075283654351779e+03,1.510145086110240754e+03,-4.244623243744068131e-02,6.884723646894488902e-02,9.967238210168631873e-01
1.458982783391614248e+03,1.402472740686049974e+03,1.514579684586766007e+03,-8.578085654419173589e-02,-5.176491875203760584e-02,9.949683602191277121e-01
1.394828730618923373e+03,1.684962357384275492e+03,1.477460513765081714e+03,6.987433163397687396e-05,9.494270799131712124e-01,-3.139876033303331537e-01
1.491489056995658302e+03,1.463375983278852345e+03,1.609503916578921690e+03,2.103474863555232239e-03,-3.123208760696352670e-01,9.499743395295442427e-01
1.450196636825567339e+03,1.372691994720252296e+03,1.568947271874179251e+03,-1.848735841579256592e-03,-9.278987383496835051e-01,3.728277263627983729e-01
1.404481484090915274e+03,1.586374260633722770e+03,1.381197935785133268e+03,8.123271019988512198e-02,7.068531364946761819e-01,-7.026805036581135200e-01
1.328971422991806094e+03,1.678414362297457956e+03,1.345162438405520788e+03,3.344726077299826072e-01,1.182434275940202478e-01,9.349580560159491682e-01
1.533277264955516330e+03,1.615206455616436187e+03,1.467536293501926821e+03,3.476256733588282966e-02,9.971925377749678576e-01,6.632199121059127733e-02
1.468816271787087771e+03,1.614814475113755861e+03,1.375729527052924368e+03,1.742319490189917774e-01,-8.365006815014843777e-01,5.195284763981619092e-01
1.577976141575121801e+03,1.680460650881425408e+03,1.447819331052354300e+03,-3.678986656370052035e-03,9.943724149074237850e-01,-1.058771246698762825e-01
1.414708293286523485e+03,1.634090421614951765e+03,1.455535041903004640e+03,-8.449849320578852309e-06,9.354738175118624266e-01,3.533960054646667071e-01
1.422103394507297253e+03,1.785008166322317038e+03,1.398216826724378734e+03,-7.884036829672299573e-01,-3.041995906655654558e-01,5.346795692025364533e-01
1.493891069008348950e+03,1.585210976039788193e+03,1.485053771979406747e+03,-1.978259090089686261e-04,-6.643941227838471297e-01,7.473823723337285063e-01
1.451291567074933255e+03,1.416514643261552919e+03,1.603409999352543764e+03,1.013089941030723279e-01,3.897119667353879380e-02,9.940914110601982712e-01
1.355320099043194659e+03,1.637330376488365346e+03,1.450954318527522673e+03,-1.349379648934069672e-05,5.504198410059191193e-01,-8.348880155116230606e-01
1.537962112389338927e+03,1.534934521327904122e+03,1.464612778514937190e+03,7.041631698090987657e-01,-3.006924560820811165e-01,-6.432249040108195537e-01
1.397829911208973044e+03,1.663199842774661420e+03,1.414248475052783078e+03,-1.579446110287119039e-03,-3.049919466836826243e-01,9.523536201475177876e-01
1.467463385660394124e+03,1.415439695207406430e+03,1.622080238945948622e+03,1.413655243220797442e-03,-4.521263278071839253e-01,8.919527931916824137e-01
1.470379345181981080e+03,1.661303393361019062e+03,1.363380820966881402e+03,-1.132834076312382320e-04,9.367496344572087130e-01,-3.500001564444729096e-01
1.432179696128695014e+03,1.626228174299340708e+03,1.526806624064313155e+03,2.074091033571181728e-02,-9.971728651318074732e-01,-7.222251507160545869e-02
1.444282939925909886e+03,1.581334423097139734e+03,1.613872013758879575e+03,7.854956133803883134e-01,-3.601075904620479329e-01,-5.033082203300336399e-01
1.464996121353314948e+03,1.555554269054536462e+03,1.443086268258222617e+03,1.804699250242294273e-01,2.984600795189513711e-01,-9.372044531986017946e-01
1.509694899673707141e+03,1.523705126779132570e+03,1.425186138384611922e+03,4.473197534913523898e-01,-3.718543670880047891e-01,8.134060288773468095e-01
1.458933305004065687e+03,1.603277216199434861e+03,1.397287591117802094e+03,3.391888073296724371e-01,4.897932777324691678e-01,8.031522259636454386e-01
1.552225577725417907e+03,1.607542144552887976e+03,1.517871828503752340e+03,-1.651795003748123269e-01,9.534462665158717209e-01,-2.523013070177652639e-01
1.493835122247865456e+03,1.421468243018393650e+03,1.521674894196846481e+03,-2.464604579184279110e-02,3.090525218734851629e-02,-9.992184134682781105e-01
1.327721482163951578e+03,1.500153456654678621e+03,1.470398990919247353e+03,-5.989046876774366535e-01,7.554414985711628283e-01,2.657467164699272022e-01
1.432387563565585651e+03,1.584083759085457814e+03,1.485698567207089582e+03,2.725346472412673582e-02,5.972655596755706009e-01,-8.015803764351758787e-01
1.448003793081804815e+03,1.356931644334017392e+03,1.504682046477664699e+03,-1.027747932691805248e-02,9.815995422329786280e-01,-1.906743614298775369e-01
1.509047477071836511e+03,1.560385619993262253e+03,1.394976046082454332e+03,-5.158344991456255971e-05,9.399787285876211040e-01,3.412330393469350520e-01
1.562052137800439596e+03,1.676927208656247331e+03,1.396487330237820970e+03,-7.748840360829319096e-02,-7.816923895495667685e-01,-6.188316050643556387e-01
1.507687446782533925e+03,1.505021269456827440e+03,1.617063098811403279e+03,-4.146820084631115400e-01,-9.087346174201855753e-01,-4.733103589811667178e-02
1.463450095058491343e+03,1.488260128288738997e+03,1.412698572893343226e+03,-2.485587906614074001e-05,4.969232119908474354e-01,-8.677945152896995307e-01
1.370911142431925100e+03,1.665042942777052076e+03,1.369682019638794600e+03,-2.995021297427329782e-02,-6.690952005258943291e-01,7.425729576115797093e-01
1.420748734052029931e+03,1.416700483350383138e+03,1.425809882704552592e+03,-5.645789080537582031e-08,9.931493789151099039e-01,1.168516630627403213e-01
1.452794158418825646e+03,1.656617824980486375e+03,1.542542588346426101e+03,1.003640669140942049e-01,-3.680987574770380744e-01,9.243540224482847956e-01
1.405856780798608042e+03,1.485876886120124709e+03,1.513191096974218681e+03,1.426053425319465939e-01,9.021492283995854455e-01,-4.071737785999718917e-01
1.319878722789585026e+03,1.409944779935011184e+03,1.662051530648837570e+03,-4.829894608914269423e-09,-2.130473261651200378e-01,9.770418807880719703e-01
1.441449084047728547e+03,1.583924733313882143e+03,1.487455204408145391e+03,-1.972368517926768264e-03,8.971542993782065656e-01,4.417128851070895035e-01
1.352978044757096313e+03,1.559895697908775219e+03,1.535086183372017786e+03,-5.154471185391865801e-02,-2.107812730716307759e-01,-9.761733440338344892e-01
1.427902420745277368e+03,1.420298853361245619e+03,1.492518699765985502e+03,2.283877726358439291e-04,-2.885800112501757386e-01,-9.574557561296886954e-01
1.440774130617969149e+03,1.526102108962125158e+03,1.471462426534426641e+03,5.903031000996139359e-03,9.734742852799138646e-01,2.287202879583750958e-01
1.440092742242703252e+03,1.465245889038407540e+03,1.314603992731143080e+03,1.105636529423801819e-06,-8.380635508051583749e-01,-5.455726210236609974e-01
1.370741669527917338e+03,1.511195546513647514e+03,1.432190738675622242e+03,-9.639306678034357005e-04,2.781526828747415414e-01,-9.605363896528080758e-01
1.452744623016787727e+03,1.580277020689454730e+03,1.576122050311569183e+03,4.596638006010935379e-07,7.684458755649761219e-01,6.399147883327639397e-01
1.393016728799818338e+03,1.646112732017945291e+03,1.389798726338789038e+03,6.241360005425465466e-04,-5.781711838770777767e-01,8.159152484102936143e-01
1.480689359062434278e+03,1.448177704776974451e+03,1.656832968673592404e+03,5.079406597939568207e-05,8.751323682466298770e-01,4.838835970220605187e-01
1.464051379099269525e+03,1.499088298886397752e+03,1.432565655134118288e+03,-1.219544113352574732e-01,-9.154709554287235873e-01,-3.834580176789773587e-01
1.469695314258397957e+03,1.737650892414263126e+03,1.341630271002533846e+03,9.183677007711608942e-02,9.954430150388540177e-01,2.567511386846700258e-02
1.574527619832702840e+03,1.527756705051989911e+03,1.438162462725868181e+03,4.349931068059731377e-04,-4.007318321500257241e-01,9.161952900351980622e-01
1.385602908126719512e+03,1.488975943500126505e+03,1.615264820679068862e+03,6.140430886020209131e-03,4.180474548856638606e-01,-9.084044366757313416e-01
1.426718589705007389e+03,1.707105676091448686e+03,1.343231579237463848e+03,-3.921854893541270727e-07,5.070245802809493219e-01,-8.619315953083361848e-01
1.449788160047854717e+03,1.529976687962215919e+03,1.407733652110848880e+03,-1.015227798659817590e-02,6.014151380509380473e-01,-7.988721818757077431e-01
1.478538043976866220e+03,1.472028468095877770e+03,1.371100715629579554e+03,1.566336916949683800e-01,-8.293000331010789150e-01,-5.364022200965943288e-01
1.507784994715510720e+03,1.674913395484070406e+03,1.433531930591625269e+03,-4.219087162814922555e-06,-1.574663680104258778e-01,-9.875243505492937723e-01
1.455659116032436714e+03,1.637097354669213473e+03,1.344727540594343054e+03,-8.317935243910657772e-04,-2.292696811564176942e-02,9.997367964882343250e-01
1.451371450865293355e+03,1.556458365330577180e+03,1.380116818801750469e+03,9.449998843632854972e-02,6.120130945711542703e-01,-7.851813320876733782e-01
1.455359187327723475e+03,1.542326916017942494e+03,1.494100299708373996e+03,3.496778089656438215e-01,-3.872152238137321727e-03,-9.368620156426619161e-01
