x,y,z,nx,ny,nz
1.390737791961941639e+03,1.529830817462438063e+03,1.605302864694263235e+03,9.259865724832677322e-03,8.681229085061916706e-01,4.962629047324697007e-01
1.479526068902875295e+03,1.536499817406683633e+03,1.565327322982425812e+03,-6.253082193714647463e-01,-7.496510679057423188e-01,2.168246000210036772e-01
1.576272114367453923e+03,1.606906817630069781e+03,1.695868020893940184e+03,-1.127777668162014725e-02,-9.988861167400019392e-01,4.581852831768645773e-02
1.465044880167442670e+03,1.449789114584116305e+03,1.509665591432850533e+03,5.207411338774304427e-02,-9.519486640627771168e-01,3.017979915505973332e-01
1.565485911755669576e+03,1.450975437483654105e+03,1.525553786770404940e+03,1.421410481238587729e-02,-1.358328645214394725e-02,-9.998067080958906727e-01
1.553457300169777000e+03,1.609047212964907430e+03,1.654810488714759686e+03,-1.798869201264292984e-05,1.313019048293017077e-01,9.913424279554486906e-01
1.514366008991040871e+03,1.498297961480448521e+03,1.440631719779860305e+03,9.127120173931636089e-05,-9.958724599566232127e-01,9.076362250104250129e-02
1.571074340493168393e+03,1.640894328190552869e+03,1.538933835884271957e+03,-3.266513167262919196e-03,9.386596242288186565e-01,-3.448295807124748813e-01
1.590782854621095566e+03,1.420849632463314492e+03,1.577586730368326471e+03,-1.074716738136468263e-03,-9.960184967783987098e-01,8.914033351537210825e-02
1.521005537772217622e+03,1.567974353418468354e+03,1.582999620086412506e+03,3.746022106004722688e-03,9.598093135679293120e-01,-2.806279546065247321e-01
1.479410255023619811e+03,1.460338533762679162e+03,1.560832330570173099e+03,1.373147736905737390e-05,-9.904992166300674583e-01,1.375183684700669595e-01
1.567828682553602675e+03,1.420872662887415800e+03,1.402889366825238994e+03,-3.804052826524572661e-01,2.497342852460652241e-01,8.904631422483140213e-01
1.433749971991320763e+03,1.625079236511702675e+03,1.614374502587363850e+03,-3.191825583038781122e-04,8.301718441387491154e-01,5.575074953054557358e-01
1.366054280537730392e+03,1.476823395390522137e+03,1.563551914814911925e+03,2.000147498208641461e-01,-8.936369520877419648e-01,-4.017550220189263777e-01
1.632515611233676282e+03,1.596531055054723765e+03,1.596550753131129341e+03,-5.479491843783040417e-05,-2.053372011883901338e-01,9.786912847295797802e-01
1.462363214396295689e+03,1.599871233487787777e+03,1.621705362445101628e+03,-1.672415702317409103e-02,6.443952311750368311e-01,-7.645097047197864093e-01
1.481809264366774642e+03,1.455949385356860603e+03,1.632443765518095233e+03,2.374426047118534389e-01,-2.814591298136865372e-01,9.297320945907874279e-01
1.438540054023470248e+03,1.544009259068957590e+03,1.592597788497481815e+03,3.521756694751805583e-02,-8.051289734587645519e-01,-5.920532569588087268e-01
1.491160427739811666e+03,1.485438026411434976e+03,1.423650844911977629e+03,1.362620230451888348e-01,7.975330308924534206e-01,5.876850565661249082e-01
1.596090331744431523e+03,1.439175751544345076e+03,1.433422015222887467e+03,-5.271168506774962653e-02,9.881667337234143478e-01,-1.440416072519223045e-01
1.527085269695102852e+03,1.502355707851364969e+03,1.571506170917120699e+03,-3.534087930417380979e-02,-4.604057651460191081e-01,8.870048216725298085e-01
1.381626447811755952e+03,1.488084312465244011e+03,1.376077419957445272e+03,1.244189932196654302e-01,6.941265510900724856e-01,7.090192135605395407e-01
1.606408884413212490e+03,1.465212743503109778e+03,1.428930584203080116e+03,-9.753934904679071368e-05,2.985342182674260991e-01,9.543989265551026113e-01
1.487399019207961601e+03,1.507293964204323629e+03,1.403285141513063309e+03,1.931743429276550905e-01,4.355768203096401781e-01,8.791794508764477767e-01
1.383423176581590496e+03,1.602523653145376784e+03,1.629477947852318948e+03,6.688809267659456652e-03,8.681407085155325998e-01,4.962730801169150108e-01
1.507122540279312261e+03,1.507543843209605257e+03,1.446511572728934652e+03,-8.115450852314373686e-02,-7.825748908696520401e-01,6.172442676337458467e-01
1.464956136965795622e+03,1.594596330766243454e+03,1.426468336684556789e+03,-2.229196314371731935e-01,-5.742990224799202625e-01,7.877102707839493956e-01
1.422106608989275173e+03,1.484412586167845120e+03,1.562528360781116362e+03,-7.445360256211692854e-11,2.303280105880531337e-01,-9.731130497216393671e-01
1.618204609458217647e+03,1.506401696158188088e+03,1.497794732736873129e+03,8.136576852716445041e-01,4.287188840270227952e-01,-3.926337857049667091e-01
1.529104696643767056e+03,1.667140710786995442e+03,1.590531658540990293e+03,-1.630817428136914493e-01,-3.162968947336600167e-01,-9.345376501472227870e-01
1.516954896736028559e+03,1.574633967922778083e+03,1.604087003690225174e+03,-5.893260904799764444e-02,8.593066332628293558e-02,9.945566191480005314e-01
1.381537432433959793e+03,1.593428317416602567e+03,1.561481899624874359e+03,1.273848196426649975e-07,5.449218038804120035e-01,-8.384868679089145793e-01
1.472691946034850162e+03,1.692249211142150671e+03,1.561713021100931655e+03,-5.890198149648786553e-03,9.247480476879654798e-01,-3.805343005079228624e-01
1.658042853291957954e+03,1.471313537698220216e+03,1.598759947584752354e+03,3.041917327879639556e-03,-2.262153450769666951e-01,-9.740725662858384926e-01
1.603787311971064810e+03,1.502647284780610789e+03,1.689715820496556034e+03,-2.365016969133651534e-03,-2.513502350076892711e-01,-9.678933133648125464e-01
1.517911824809394602e+03,1.574754499078429717e+03,1.531658140987082106e+03,-5.535745905395393976e-05,-1.786965314095082247e-01,9.839042364975172372e-01
1.513100872665050247e+03,1.512115280024099320e+03,1.572982216025591697e+03,-2.092689522492561516e-01,9.777938669357557622e-01,-1.120979069028657168e-02
1.500106844717462991e+03,1.446892758300114565e+03,1.497132931116374721e+03,-9.548539792049998143e-02,7.782002828222476243e-01,6.207147965042703053e-01
1.637519363216330930e+03,1.610440084563089158e+03,1.537653062961806427e+03,2.012298274040640739e-02,-1.256416448512925887e-01,-9.918715857633442212e-01
1.440012874966345862e+03,1.563955992486966807e+03,1.491435622505021456e+03,2.156631517900102490e-01,-8.687551382144685919e-01,-4.458182530874645888e-01
1.564062321536038780e+03,1.462874210715974641e+03,1.696268199798344085e+03,-1.267730418943391613e-01,1.806332290268315433e-01,9.753462115680751054e-01
1.540183139088020880e+03,1.571383926600952236e+03,1.518152609960322025e+03,7.655882934779625372e-03,1.717261801518475683e-02,-9.998232286994503948e-01
1.264963982900930660e+03,1.573869136545727997e+03,1.497707659784108046e+03,1.649925043083616538e-02,-2.695061835595741750e-01,-9.628573060211849111e-01
1.496770907058244802e+03,1.582148511704065868e+03,1.589336744292723779e+03,-8.847834225345342640e-02,-9.193598250352139623e-01,3.833393993099348251e-01
1.514617079975030720e+03,1.562127566352530948e+03,1.381852454048126901e+03,4.936898333338951006e-01,-8.445275750340892618e-01,-2.074693313957312046e-01
1.396528703589673796e+03,1.694757606317755972e+03,1.493152171010234952e+03,4.588406879635271204e-05,-9.604024528185882703e-01,-2.786164505457124352e-01
1.327739872262701738e+03,1.546133017793566069e+03,1.595689406830464577e+03,3.058462580731381025e-03,7.551663972926545565e-01,-6.555260164224413488e-01
1.576485995993708912e+03,1.596651527240189125e+03,1.657637192697738101e+03,2.400016039778342120e-03,2.595786909441216150e-01,-9.657189773069311256e-01
1.392551497376950920e+03,1.473935188674467099e+03,1.502913069358646680e+03,4.759396236790407967e-05,-5.986679867029232049e-01,8.009972780427430106e-01
1.465403868821234937e+03,1.510065908227100408e+03,1.475095721450581323e+03,-1.198521251612672239e-03,9.982333477499659713e-01,5.940325737453252403e-02
1.462988834786127427e+03,1.476416443402617233e+03,1.623564911327016489e+03,-7.245304035734144096e-03,-9.289569904632082320e-01,3.701167591976464721e-01
1.441010099611767146e+03,1.427263273382062835e+03,1.459301502124672652e+03,5.961209208676727802e-07,7.049564051314570756e-01,-7.092506375490809090e-01
1.478876603971975783e+03,1.608466433450750628e+03,1.487273085581163286e+03,6.094722040413026454e-01,-9.263211287199993316e-02,-7.873772438710087140e-01
1.488154073935262431e+03,1.550173600976665284e+03,1.684341959715603934e+03,3.700648505902173410e-03,1.307633922951851602e-01,-9.914066977966667915e-01
1.556425314899343675e+03,1.429264246828117621e+03,1.606102675563533921e+03,-9.794154583440237705e-01,7.213432308099884671e-02,-1.885258586783573886e-01
1.409378000440794494e+03,1.585897351017247274e+03,1.553356948360100432e+03,2.044617347758270406e-03,8.233481328099793162e-01,5.675329697367562654e-01
1.553787383190041965e+03,1.456713168103128055e+03,1.472813418063112067e+03,6.644843949200127239e-04,-9.738495220143132958e-01,2.271930169106930741e-01
1.577598652056648689e+03,1.633331285997239320e+03,1.650862691099562880e+03,3.682005637943106240e-03,3.694301895917462275e-01,9.292511920103673217e-01
1.457438603571807334e+03,1.582675084159556945e+03,1.509648014883174710e+03,1.271637639109551160e-02,-9.991976206184332021e-01,-3.797905635928394696e-02
1.402106035539992718e+03,1.501277524840080332e+03,1.459404767855864065e+03,2.143738218676579028e-04,5.491876221203301212e-01,8.356990545367884993e-01
1.480012367601087817e+03,1.408297713115513943e+03,1.461148720941379224e+03,1.550726583381886459e-01,-9.878423070751090052e-01,1.095659565984473914e-02
1.503900881272509650e+03,1.502327609149050431e+03,1.556898709534677209e+03,-3.922506460944173712e-02,-9.988336986531198836e-01,-2.815380509475960691e-02
1.545446059839964164e+03,1.478656403729189151e+03,1.491657254338163966e+03,-1.294705536112987221e-01,-8.180233893092891950e-01,5.604240450681314822e-01
1.502217895482724998e+03,1.397740614750850682e+03,1.534295074804542992e+03,-7.239729720558983443e-03,4.316201051876283890e-01,9.020264248409766150e-01
1.431697250517538350e+03,1.500559056005711454e+03,1.450551913110914029e+03,-1.501210061850980493e-01,5.900719875866826669e-01,7.932709076774943080e-01
1.491517723895348126e+03,1.503018757081412787e+03,1.716783914025452987e+03,-3.073360710756466458e-07,-9.278025799128689077e-02,-9.956866091933624929e-01
1.484780299005692996e+03,1.530504325991009182e+03,1.414093652741896221e+03,-2.122998148192995274e-02,-6.286494274785686676e-01,7.773989871469764168e-01
1.391697884937259005e+03,1.609433940489534507e+03,1.631335537035749212e+03,2.525964670705761056e-02,-8.854496848055228020e-02,-9.957518459962867441e-01
1.489225678589518338e+03,1.624281840227286693e+03,1.615824058810557744e+03,-3.180629127367926075e-08,-8.164967985254844018e-01,-5.773499614598007756e-01
1.505630260398873588e+03,1.572503018805551619e+03,1.529046844228514601e+03,-4.440655668814350726e-02,-9.982926727787425625e-01,-3.794465969510399384e-02
1.484463557846214599e+03,1.583453639871812356e+03,1.651213292126237320e+03,1.759470169295859841e-03,-8.856676227221944586e-01,-4.643164506307524420e-01
1.431728099293454989e+03,1.646831370579912800e+03,1.620605710087533680e+03,1.879670017766445766e-01,8.421054118963176016e-01,5.054966681374192250e-01
1.420196876769634173e+03,1.507243109061788346e+03,1.448763416042867220e+03,4.543791247988197557e-01,-1.191043364071186182e-02,-8.907287760690955070e-01
1.392965265853548544e+03,1.598162376043929953e+03,1.484859693022142892e+03,-4.309273414633038035e-01,8.209256848514363547e-01,3.746767224295757259e-01
1.426000229814804470e+03,1.528356945871089010e+03,1.513937093127819253e+03,3.080587319555275552e-02,-9.023083501756158364e-01,-4.299891154203998589e-01
1.490299190905638625e+03,1.593477708007628962e+03,1.487642912250433710e+03,-5.748482557847149919e-05,-9.574924982934471807e-01,2.884581640502965616e-01
1.370572694369288001e+03,1.593847595902145940e+03,1.361764123058402447e+03,-1.347614984026993261e-04,1.573416682986159554e-01,9.875442173676817204e-01
1.410504284440953143e+03,1.567156277162662491e+03,1.369166429154509160e+03,-1.522739995382263760e-03,-9.863775974863928653e-01,-1.644898672863406852e-01
1.439045891363723968e+03,1.626387767926372362e+03,1.619508330609897030e+03,9.109579970145319575e-03,-5.334526055676602763e-01,-8.457809013957704458e-01
1.458219368673128429e+03,1.480446960032176321e+03,1.511961026389027893e+03,-1.304533989211410089e-02,-2.170960963403092969e-01,9.760630635675638933e-01
1.551242624258844444e+03,1.602665832303188836e+03,1.545725757202370005e+03,-2.815402427914336504e-04,-9.999954775686299424e-01,2.994257400344969150e-03
1.481027542036560135e+03,1.396089648324536256e+03,1.427209364273490564e+03,-2.653516311400316852e-02,-9.616601677545600912e-01,2.729571520821256758e-01
1.485053284739502260e+03,1.604948616482779016e+03,1.501231815830761661e+03,1.518162163956191825e-07,-2.500946433380883960e-01,-9.682213948129690939e-01
1.390751082077310457e+03,1.610242049766708988e+03,1.553992426908931975e+03,2.359467827963650233e-02,-9.254763767888333215e-01,-3.780697913913434460e-01
1.471057129033509455e+03,1.585042738485116388e+03,1.506380753629786568e+03,2.302762031453040936e-08,-7.392119020543792551e-01,6.734729124925117327e-01
1.452597640516464025e+03,1.557347628262153876e+03,1.633604857943961179e+03,2.566651331048966540e-03,2.916790644247714837e-01,-9.565127995365428903e-01
1.518066283174107639e+03,1.481225556924203147e+03,1.342547976670296293e+03,4.206790605186138852e-05,3.102350532308315034e-01,9.506598813335684905e-01
1.443518403991320383e+03,1.466051445527005626e+03,1.465523047868654430e+03,2.194596584923190138e-02,-9.172336571246786363e-01,-3.977446326735685211e-01
1.391286028218531328e+03,1.624266340086267519e+03,1.479965320006309412e+03,1.696869194379713652e-03,-3.948223440422150843e-03,-9.999907660406678334e-01
1.549373599634216134e+03,1.392368128218152606e+03,1.657712952150673573e+03,-6.650764976885553681e-02,9.383179972752422326e-01,-3.393170619223290774e-01
1.652239884412472747e+03,1.428930868054017765e+03,1.408124549629057356e+03,1.233124131667694698e-03,-9.018368167182246875e-01,4.320750344748180982e-01
1.572206337752887521e+03,1.544449819147479730e+03,1.581235130264697318e+03,-6.668742555364663618e-05,-2.976721667238615976e-01,-9.546681500451918989e-01
1.373181413461430338e+03,1.521778322113503918e+03,1.545039224001411185e+03,-1.229400990189258996e-01,-5.607204125870116629e-01,8.188274244072850649e-01
1.469796027102759808e+03,1.460147378183699175e+03,1.527220850734533769e+03,7.849885555681614946e-01,4.120356585214804412e-01,4.626225067306837802e-01
1.414553012622946653e+03,1.521927364966185451e+03,1.422071737218720500e+03,-5.493598970569089218e-04,-9.241754751799106105e-01,3.819677856569713703e-01
1.469650929702781468e+03,1.469731433856453350e+03,1.520896558462980238e+03,1.852376349120357819e-03,1.902517174090258278e-02,9.998172890794049250e-01
1.436404143162098080e+03,1.506715552972825662e+03,1.512585420608171034e+03,1.314224748136414377e-04,7.014015953985109908e-01,7.127662903789409032e-01
1.540549805599235015e+03,1.581436708074397529e+03,1.572756794711776365e+03,-5.943113205356505002e-01,7.834272079043507198e-01,1.817577073974157020e-01
1.656245930499125961e+03,1.498405001020895952e+03,1.366151205101296000e+03,1.824252712321501949e-02,9.985630116363370945e-01,5.038970128833034079e-02
1.550039561206794588e+03,1.510605354607840354e+03,1.449675396726549252e+03,-2.253866325772026780e-01,-9.741761348076645177e-01,-1.348051285033546876e-02
1.400935967922973305e+03,1.511671264320955288e+03,1.363951966863198322e+03,-1.847731307577395369e-05,2.860774649838679351e-01,9.582064932398406398e-01
1.612322310521763711e+03,1.515580191186249522e+03,1.387391296330611794e+03,1.282837280946976834e-03,1.204935198646660960e-01,-9.927132848910272811e-01
1.404899251276804989e+03,1.613103558743295935e+03,1.494465818485708041e+03,-1.376471557620161784e-05,6.427023996465065503e-01,-7.661159346333652476e-01
1.397092311077509521e+03,1.592475537957948973e+03,1.556942014619922247e+03,2.702478162822753369e-02,-5.323381086021740094e-01,8.461003482494300343e-01
1.588857469587070909e+03,1.404901007374455048e+03,1.434429703664330873e+03,-3.590415623120409711e-02,9.821229621741095484e-01,-1.847846820915574340e-01
1.565398118646838384e+03,1.574415784011298001e+03,1.622985886641668458e+03,5.908621314603503157e-03,3.172336703274621361e-01,9.483289970283139692e-01
1.439467375938212854e+03,1.548295948831590295e+03,1.583650172511562687e+03,1.487014378070216928e-05,-6.239404997475948011e-01,7.814718501351155533e-01
1.390304446411040090e+03,1.522336450906113441e+03,1.539066745194575333e+03,-5.693927323059628370e-02,-8.646037929334697836e-01,4.992175882408682042e-01
1.593848558077947473e+03,1.478251813582967543e+03,1.564441903353519592e+03,-1.354620656083387886e-01,9.703068068117901568e-01,-2.003864502301228867e-01
1.437861847541029420e+03,1.399849489632017139e+03,1.457807501196419480e+03,-3.284265412398686829e-02,-9.614799410673875446e-01,2.729059966273097437e-01
1.469470523823044687e+03,1.524276876388869596e+03,1.639201364825758446e+03,-4.198697240162182175e-03,2.899789514235432963e-01,9.570238130123972509e-01
1.479496111268919549e+03,1.490181179869562811e+03,1.704757904350531362e+03,1.699622822043263238e-04,-9.843616514041579890e-01,-1.761593323037459469e-01
1.389547197073236248e+03,1.537318297467538514e+03,1.572080012894405172e+03,2.567661571530912243e-06,-2.264603693925172356e-01,9.740203802221039098e-01
1.474739489421744565e+03,1.536436185490286562e+03,1.596372599032780727e+03,1.950958487630793242e-02,9.116637775352951500e-01,-4.104735470502698380e-01
1.636697180258051276e+03,1.460113038845878918e+03,1.683860172030393414e+03,-3.334686829127042618e-01,2.121297392824807448e-01,9.185856580789910630e-01
1.538914320404767523e+03,1.557649169730647827e+03,1.547118618836057522e+03,9.102915831644365907e-01,4.080507326758410214e-01,6.974118713280531845e-02
1.605225251447141773e+03,1.641224325034550475e+03,1.583232190327099488e+03,2.047491502664978147e-01,9.449678086031519930e-01,2.551737176295860166e-01
1.452919719378076024e+03,1.446291301705257865e+03,1.389619327332497733e+03,2.743602292204806292e-03,-4.834847969778265364e-01,8.753484584654113165e-01
1.415418188233197725e+03,1.682186520620278316e+03,1.622463023118506271e+03,4.498344230235885172e-02,-5.755550158390918547e-01,-8.165249008212138726e-01
1.342999197227855348e+03,1.513226746944594652e+03,1.521725070270869082e+03,-2.624159639347813933e-01,8.801036656731087149e-01,3.956708222006476428e-01
1.521909975025993162e+03,1.539922089288758343e+03,1.482849059249356969e+03,-1.249301600313305980e-03,9.265730089974344441e-01,3.761128796557648424e-01
1.532011920347722935e+03,1.612802194396866525e+03,1.523732478743837419e+03,-5.623381797836454179e-05,-1.902893728934797191e-01,9.817280435036802588e-01
1.441144180884197112e+03,1.603130831956995280e+03,1.677471821715629403e+03,1.941753991550180776e-03,-7.471542567745545482e-02,9.972030057903320532e-01
1.543878395454506062e+03,1.587199076104926235e+03,1.478961143805440543e+03,2.216426950841619559e-01,8.176286260718337306e-01,5.313736402416993077e-01
1.331179229407645380e+03,1.538993181547619997e+03,1.545389730254665892e+03,-2.137527336068173033e-03,-7.210753183947530287e-01,6.928533872175218766e-01
1.537148492606472928e+03,1.690733096694552842e+03,1.525697002070918188e+03,-5.836670830908952286e-03,9.939924691524081313e-01,-1.092927469776047156e-01
1.556972566383095455e+03,1.569524457444343852e+03,1.531732244228485797e+03,-4.124894419693032888e-02,2.500264198897647061e-01,9.673599712411846685e-01
1.656004662927875188e+03,1.507289520024989997e+03,1.353688405043021021e+03,-1.053565653515831199e-04,-9.992563875914948213e-01,-3.855724001520752231e-02
1.475469954524855666e+03,1.628884687352049013e+03,1.719182126785421133e+03,-1.546013225910794764e-01,9.799416213051020952e-02,-9.831050682614896896e-01
1.568104015011317415e+03,1.361370675694982083e+03,1.430103966940815781e+03,-7.307315386474724228e-01,6.412970713319430249e-01,2.340288117454141503e-01
1.507157714924866468e+03,1.526472103802615948e+03,1.582075077532795149e+03,1.874671567045562044e-04,-9.218386872743555838e-01,-3.875737342756318538e-01
1.626097898101485043e+03,1.459392268406238600e+03,1.378376879301846429e+03,-1.384829474057706086e-04,5.306206286783147208e-01,8.476094202187132165e-01
1.510590521780773543e+03,1.502944578409815449e+03,1.491502771450389901e+03,-1.241232296502633725e-01,-9.583701393897489096e-01,2.571382892283088362e-01
1.618338757315567136e+03,1.493558042204282629e+03,1.532596279257315473e+03,-1.571384553106789858e-02,-9.994671212221267753e-01,2.861028931311667550e-02
1.449049225960928879e+03,1.491990617883941695e+03,1.421436398567257811e+03,7.950014543054767494e-06,-4.231803641480495481e-01,-9.060454620692725003e-01
1.575719186009727991e+03,1.486585624422992396e+03,1.439660393814080862e+03,-5.557437364713124078e-02,-9.131939296375158888e-01,-4.037181391353635851e-01
1.354791730163726243e+03,1.558709293693687187e+03,1.431611261687426577e+03,-3.030653917583222071e-02,-3.802208350638726642e-01,9.243990644015792624e-01
1.470230024795970621e+03,1.431604280069963352e+03,1.411041136097268918e+03,-6.471472609885896288e-02,-8.429614321933384113e-01,-5.340674377459324607e-01
1.451431341115457144e+03,1.523201598450784331e+03,1.605569033346154356e+03,2.741071143674531779e-03,9.998295537536650013e-01,-1.825787418436998835e-02
1.543619989580042784e+03,1.503916393092136786e+03,1.313761654932040301e+03,-6.502842522371361511e-01,-5.032974537064111020e-01,-5.690536568593790312e-01
1.575350564475314059e+03,1.517057535797072887e+03,1.568326834914745405e+03,3.350677327438800288e-03,-1.801514282237635101e-01,-9.836331815623066133e-01
1.430426456486628467e+03,1.603143385652366078e+03,1.463843268936933782e+03,1.313663894289968502e-09,6.302060919055166854e-01,7.764278986004917726e-01
1.460945682090013179e+03,1.604499896487109481e+03,1.592473643652166629e+03,-1.975526025664931028e-05,-5.734204991861436423e-03,9.999835591162692383e-01
1.334855817536733866e+03,1.596848750111873187e+03,1.477838238692432014e+03,-2.532156465092096909e-01,-7.525455815236832269e-01,-6.079119871265118435e-01
1.511483710573131475e+03,1.446344979159388458e+03,1.624908074892873401e+03,-1.243363722759773351e-04,-9.788540726547652060e-01,-2.045597442989368353e-01
1.509432141957747262e+03,1.569299688825934481e+03,1.630062930620735415e+03,1.737311433940292834e-03,3.172387293184715240e-01,9.483441202271374326e-01
1.401443271174285428e+03,1.539956990569139862e+03,1.664510944150375281e+03,-1.966902206418623487e-03,3.005598157948601856e-01,-9.537609388232830554e-01
1.400652097207738052e+03,1.624440166572379212e+03,1.513175526427262866e+03,-5.390954463959283204e-04,3.303628066802853369e-01,-9.438538686356189311e-01
1.563654791407097946e+03,1.453139284441488599e+03,1.444086537863660851e+03,-2.482593216694549687e-01,-7.712501758343915936e-01,-5.861232596302951015e-01
1.528517948624144992e+03,1.548078958377336448e+03,1.547244099910251634e+03,-1.255600723556541396e-04,-4.926071016936915958e-01,8.702518184960081893e-01
1.552024055377639797e+03,1.523392064491338715e+03,1.624568691695177222e+03,2.341103129232062474e-04,-9.052713521297149901e-01,4.248337606706873992e-01
1.445336914142610112e+03,1.430124984216626444e+03,1.515152878317548129e+03,1.574756516776732937e-02,1.988299107865426629e-01,-9.799074858209332328e-01
1.542720454272637426e+03,1.598034908341013761e+03,1.672566232122812380e+03,-2.106547085409307685e-02,9.997551512785129990e-01,6.773730860684771225e-03
1.390665124387641754e+03,1.568052512265242513e+03,1.492120836630012946e+03,-5.451699117895182634e-02,5.515030140093638567e-01,-8.323895261302736159e-01
1.465698162679058896e+03,1.622431765790705185e+03,1.385023584776121425e+03,-4.081032863122980404e-05,9.803319680194192420e-01,1.973555948375658731e-01
1.489801975110412513e+03,1.593290407232904954e+03,1.462789034305184714e+03,5.535389427382509742e-04,-1.517768098666270604e-01,-9.884146364665735707e-01
1.303765031115758802e+03,1.672417598696276173e+03,1.449509851040570538e+03,-1.817280562143400169e-02,5.494915587364859189e-01,-8.353016078119284149e-01
1.436326966942562649e+03,1.550167403990609728e+03,1.682316730698288893e+03,-7.815300608048327468e-04,-3.407390690199270655e-01,9.401575804375549295e-01
1.549422812318754723e+03,1.609252033805819110e+03,1.514122595327693489e+03,2.640750571306962891e-01,3.092085400984346810e-01,9.135942441432159944e-01
1.536131663473776825e+03,1.593181245544463309e+03,1.722099472961736637e+03,-1.118670442461892484e-01,-2.458760775861200676e-01,9.628243447703663804e-01
1.560789115315074923e+03,1.507058606660603118e+03,1.514648171138535872e+03,1.586201920813812665e-06,-9.837238762503600631e-01,1.796867699427264764e-01
1.411712600430635575e+03,1.581952622317244959e+03,1.593376703421146203e+03,-2.159458075190249723e-02,-9.640225687309958991e-01,-2.649418069302049705e-01
1.299772268695340472e+03,1.628394852004310451e+03,1.546638193156359421e+03,4.872791114811221569e-02,9.707764937618066359e-01,2.349863609545771448e-01
1.596586223998464448e+03,1.445668420067597708e+03,1.363779385027083663e+03,2.064132093418295788e-01,8.113353651493715457e-01,5.469264230837106444e-01
1.431119464417543895e+03,1.611047177538119286e+03,1.327586757241192572e+03,5.024034855603652650e-02,-9.361446710340345367e-01,3.480072733026529086e-01
1.549435080106416763e+03,1.579236104411150336e+03,1.446389125117868844e+03,3.483391879537781066e-01,9.028556868464845259e-03,9.373250745054115818e-01
1.454970945380452577e+03,1.488646573771602334e+03,1.400395578876421723e+03,-6.010369911666375853e-02,7.714019473299256191e-01,-6.335034183081352799e-01
1.328648760757368109e+03,1.532930120219708897e+03,1.434084561469849859e+03,2.500838033618639766e-01,1.002944205145025747e-01,-9.630156387669541740e-01
1.513448182622630156e+03,1.573008099744981564e+03,1.464705513281835010e+03,-1.178013110687762964e-07,5.678361565274925304e-01,8.231416034559734252e-01
1.493745054240712761e+03,1.427707486158361917e+03,1.481751410975779436e+03,3.332600548393743756e-02,-9.614645489739539475e-01,2.729016277430311721e-01
1.516097629473158577e+03,1.515843126127395180e+03,1.518400404828129240e+03,1.581381044900924101e-04,-4.708424921136653701e-02,-9.988909091930618933e-01
1.394867390203620971e+03,1.501802716251730772e+03,1.380772197977054930e+03,1.729930068054933920e-02,-8.298225916348154207e-01,-5.577590883243788156e-01
1.475885470735127228e+03,1.585927069167451691e+03,1.558449015332832232e+03,-7.107290994724994870e-02,-6.884088110061594712e-01,-7.218323561608441796e-01
1.556770676330190099e+03,1.402574540204328059e+03,1.632495170829617791e+03,3.843744378746516421e-01,-2.225887017498348885e-01,-8.959411595422261954e-01
1.447654237348631796e+03,1.524901831336381520e+03,1.548172343695698828e+03,1.098865718136525227e-01,7.384485278580285028e-01,6.652959589831832776e-01
1.366943467238341327e+03,1.544687772989554333e+03,1.398155592295149290e+03,-3.175182816685407500e-02,-5.609448196447062163e-01,8.272440575318934508e-01
1.627050634980129644e+03,1.506339201211269028e+03,1.603586902313671317e+03,-6.126814681426345430e-03,-8.620386729942812742e-01,-5.068054739287235488e-01
1.453377141884084949e+03,1.685684978220742551e+03,1.483584350714842230e+03,-5.183419214811076352e-04,3.833820305333869305e-01,-9.235897086833252390e-01
1.404032676550449651e+03,1.561878565750824691e+03,1.339884914460661321e+03,-7.676524783211517884e-03,2.490415530997583393e-01,9.684623770683675748e-01
1.528320756658939445e+03,1.665183517953896626e+03,1.511809857169978841e+03,1.168215279079940406e-05,9.998414127596332301e-01,-1.780868311661758588e-02
1.484640265895083303e+03,1.586230979603809828e+03,1.494754390609919483e+03,-3.008941324967539643e-03,-9.811458853029363381e-01,-1.932451759429459903e-01
1.399155651855713359e+03,1.517227938070443543e+03,1.644744430408092967e+03,1.578601238992629816e-02,5.735813966628653393e-01,8.189964488415696353e-01
1.495869253247604092e+03,1.491433507059844032e+03,1.588033092279182938e+03,-3.251742627421378568e-02,2.110659530501639847e-01,9.769307961424530395e-01
1.577127180294590062e+03,1.431540880928974275e+03,1.343854108465461422e+03,-1.103671102124812944e-04,-4.270479368478787702e-02,9.990877280876994115e-01
1.532787027576496939e+03,1.602422080307605938e+03,1.551083528427518786e+03,-5.651981735710547537e-03,3.253341691518056855e-01,9.455822193150438260e-01
1.446309178608135653e+03,1.554057039099450094e+03,1.514567889738149461e+03,-6.423844872888492992e-03,9.998266666096137234e-01,-1.747486633303129561e-02
1.503996052292869535e+03,1.571050295582037279e+03,1.520841955030869713e+03,-9.371924537827232005e-01,1.213289338172544585e-01,-3.270314883791567429e-01
1.578033897793307233e+03,1.583602672341471589e+03,1.532100299519341888e+03,8.136219757838099493e-05,-9.272276294366333937e-01,-3.744982197414485348e-01
1.544915184922967228e+03,1.560098056252757942e+03,1.542829009394140257e+03,2.012894946770711959e-07,-2.547747987050477114e-01,-9.670004146559411096e-01
1.388004941904115640e+03,1.465756927432036719e+03,1.355675335854706418e+03,-1.611947053252233211e-02,3.503323158801295856e-01,9.364867490358933511e-01
1.419214801143904879e+03,1.625098720498735929e+03,1.542554390842438806e+03,7.557295202376772790e-03,-9.949935952219001178e-01,-9.965256021107397888e-02
1.484783812642196381e+03,1.577838481633222500e+03,1.507187721183450321e+03,-1.251695228665306546e-02,2.569255294543200119e-01,9.663501426605529687e-01
1.494485990257659751e+03,1.546735878506924337e+03,1.422771643406096700e+03,2.768415405668930504e-02,9.627652495540826028e-01,-2.689175744819045089e-01
1.597773129699549827e+03,1.474574188659431229e+03,1.703956120649457034e+03,-3.096730440489002534e-02,-3.814999157400138508e-01,-9.238500096597159761e-01
1.379943958768587208e+03,1.673043279395765012e+03,1.422296093919868781e+03,-9.551916546196036239e-04,3.505365735595187826e-01,-9.365485562457800395e-01
1.576550787214677939e+03,1.562042490052774383e+03,1.605514978485014126e+03,-1.057376492673270801e-01,9.658449929432453285e-01,2.365649998074147442e-01
1.433698960792285334e+03,1.549223101645585757e+03,1.453244605424064957e+03,-5.122665858902571978e-01,8.588112342295455282e-01,-5.119466912140298656e-03
1.501888202035354880e+03,1.606743898680384973e+03,1.516194357445817786e+03,7.764335439147604379e-02,-1.672224564050699136e-01,9.828571409888083865e-01
1.233824495686994624e+03,1.539464679514921954e+03,1.564573092344906399e+03,4.455799971783681824e-04,-7.428856729002825121e-01,-6.694181641231140567e-01
1.481618442002714346e+03,1.466178031982672110e+03,1.401871213003681532e+03,-1.399841132463201625e-02,9.657445209066264358e-01,-2.591168941215853949e-01
1.399699844406860166e+03,1.512982903392485696e+03,1.594020048976342878e+03,-5.558332994794565329e-03,7.899861590196110006e-01,6.130994809097141118e-01
1.522240475344852484e+03,1.584820333602857545e+03,1.578614335600795584e+03,-1.699391392016244007e-01,6.563922644310508092e-01,7.350305328096843338e-01
1.457794093610109485e+03,1.584432815930914103e+03,1.590190735007152398e+03,5.250093461954720431e-02,-1.220572291744211196e-01,-9.911335352364669671e-01
1.594058787576273062e+03,1.538137461068107768e+03,1.494911260295730244e+03,-9.810697206566549176e-06,2.144703850631188569e-01,-9.767304919140323838e-01
1.469053356057170731e+03,1.572849887807622508e+03,1.556800964649761227e+03,5.211073800688180713e-01,-2.578424338206320582e-02,-8.531015597401208073e-01
1.552063082413147868e+03,1.706546564856769464e+03,1.552141135012179575e+03,-1.060624242412674390e-01,4.552515357177323030e-01,-8.840230774084529841e-01
1.513130282245738954e+03,1.428144107438462015e+03,1.533626444059816095e+03,1.648669985443041580e-02,-2.383466611540531466e-01,9.710401937327954869e-01
1.521300289191176262e+03,1.481825797643131182e+03,1.633241025882994791e+03,-6.665021726610122470e-04,2.831014741192710571e-01,9.590897304873771123e-01
1.554395551846574563e+03,1.560116630455587483e+03,1.294077083523344072e+03,-4.084668178331482893e-03,-8.012817978963281407e-01,-5.982731782771987250e-01
1.430755326315650336e+03,1.653604573127001686e+03,1.488567993304053289e+03,-8.217422529606869912e-04,-9.624519495412766634e-01,-2.714508603115223240e-01
1.449721016630038093e+03,1.548628291768107147e+03,1.501845258141585873e+03,5.526096687685853447e-05,8.439649316179149707e-01,-5.363983511769901957e-01
1.548840160907979907e+03,1.540240968717764417e+03,1.571569817797060296e+03,2.439724642174895611e-02,-1.574838480377607416e-02,-9.995782924529267310e-01
1.502884238379141834e+03,1.498411181125829444e+03,1.628854787797543622e+03,7.013981559613145789e-02,-9.030418477665490551e-01,4.237874791101285399e-01
1.485379154707540465e+03,1.487938194573750025e+03,1.458277986214044176e+03,-2.894435552170958326e-02,9.952088198558882715e-01,-9.338966304941402619e-02
1.565455439605605306e+03,1.546334609317212880e+03,1.480890568107340414e+03,3.292851035525770631e-02,-9.260712600010938544e-01,-3.759092105891661539e-01
1.484108492677119557e+03,1.444226680397436667e+03,1.511125037258990687e+03,-6.760388968017128075e-01,1.285450498039105750e-02,-7.367538067175711802e-01
1.494956506923574352e+03,1.447436288451627661e+03,1.417915274317949752e+03,6.108079608034900909e-01,-3.019228123412885934e-01,-7.319537214926975510e-01
1.528107940251460832e+03,1.397721890636894841e+03,1.540875569401817529e+03,1.062356499819377541e-04,-2.236607734173489126e-01,-9.746670442506712995e-01
1.477988780454839571e+03,1.670628372387881882e+03,1.611369291168311065e+03,-1.026065611679549455e-04,-9.996343761833573760e-01,-2.703892424642012973e-02
1.438712079173076290e+03,1.472019053865737988e+03,1.416086471267923116e+03,3.586700392141260935e-04,-4.127779604735270502e-01,9.108316127051796496e-01
1.478043048825739106e+03,1.643129671485805829e+03,1.634456717323552539e+03,-1.116525078208688987e-02,-1.340689911500647369e-01,-9.909090991543961779e-01
1.466061748195996870e+03,1.606427424345622285e+03,1.583472853370231178e+03,-1.135399880030178710e-04,-6.756000754073013814e-01,-7.372682857809088608e-01
1.600506400136035836e+03,1.576108636130750483e+03,1.574625319092410109e+03,4.136529051905010745e-02,-7.202437852058376500e-01,-6.924866804586509161e-01
1.466926620626957401e+03,1.576599844060686337e+03,1.471732493051450774e+03,-8.647629488463083325e-01,-4.310184051946294725e-01,-2.576978398941587867e-01
1.421103327406657172e+03,1.582041910606771808e+03,1.602699991301238015e+03,-5.820621285478413259e-02,6.263836491435875731e-01,-7.773387684083861160e-01
1.424647767687946043e+03,1.621379035889165834e+03,1.560562038747521456e+03,-3.452563443452551112e-07,7.940741289132743352e-01,6.078209257589815007e-01
1.559732934948061256e+03,1.574344840745801548e+03,1.628805766361386532e+03,-2.538476672916574819e-02,-8.674680836550160423e-01,-4.968447820577366891e-01
1.425080214732426157e+03,1.410601968787709666e+03,1.366368434195620694e+03,4.439119907291537307e-04,7.855905561557612327e-01,6.187465402093383915e-01
1.521422953126544826e+03,1.562772485988139806e+03,1.289777114108621845e+03,3.356191275009684852e-03,-6.285278516882539801e-01,-7.777798375069089332e-01
1.610699501770483721e+03,1.532110083515086671e+03,1.627707346783900903e+03,-9.959788529896099890e-03,3.278171503773603113e-01,-9.446886886858055776e-01
1.393733188769902654e+03,1.645045642645470252e+03,1.560844976660554039e+03,9.254016388486746569e-01,-2.577371118576438080e-01,2.778549765389627946e-01
1.484060013055637228e+03,1.542163255218141558e+03,1.593836853260029557e+03,1.016727716378525853e-01,8.104595602376337693e-01,5.769037603681383963e-01
1.315707478038904355e+03,1.550324832833114669e+03,1.508394872779832667e+03,-1.649264351336710704e-02,7.050483284993342981e-01,-7.089674514321767651e-01
1.520025969610872608e+03,1.519645745721742742e+03,1.415046869394477881e+03,2.197947262998268536e-01,8.179792758313585432e-01,5.316015261464084318e-01
1.434328735515378639e+03,1.438135785225839527e+03,1.478285059534475977e+03,5.178027621814104741e-04,8.495779063368232853e-01,5.274629019605449054e-01
1.430188044201717730e+03,1.601597411438846621e+03,1.428928098311041140e+03,5.699058365664486092e-02,1.112482874509265474e-01,9.921571911313805670e-01
1.424630281501546051e+03,1.595708966645448299e+03,1.607063853066005777e+03,3.034166002876555468e-01,-1.900308285974529054e-01,-9.337165795103172794e-01
1.444305279206285149e+03,1.571172393117697993e+03,1.547976705061705616e+03,-1.680759961345535125e-01,-6.185213937275889640e-01,7.675817513624580979e-01
1.472889724832438333e+03,1.665990741502436322e+03,1.580745034378253877e+03,1.653249017431453888e-02,-9.948070037968046453e-01,-1.004275956371574741e-01
1.390019012268535107e+03,1.640011127568363918e+03,1.456664811424734353e+03,-3.993028136059498766e-03,-7.784062228224529756e-01,-6.277482042965846221e-01
1.448483953196184530e+03,1.556870354400665065e+03,1.687719713164311770e+03,5.152067788671569337e-01,8.342166504952236439e-01,1.965821839482366495e-01
1.557746188245507028e+03,1.535000752968307324e+03,1.660059091020693813e+03,4.350231236703548665e-02,-9.761118122392218321e-01,-2.128691589352086633e-01
1.585654213573906191e+03,1.458379603356758025e+03,1.520377182658619859e+03,-2.707934643157411432e-05,9.994768686671495761e-01,3.234174185195391044e-02
1.519380810862936869e+03,1.522418799147613299e+03,1.623262302732575563e+03,-7.833966597221695858e-04,8.771354243829478925e-01,4.802424737382350317e-01
1.574844501868104999e+03,1.463124653288574791e+03,1.360134319861926542e+03,4.104271416021391117e-01,-4.048247221470425705e-01,-8.171086254439292595e-01
1.563139255816111927e+03,1.544001415257263261e+03,1.529764224179702296e+03,9.443854401614254490e-01,6.488120449135484358e-02,3.223764410047076368e-01
1.581814273595876784e+03,1.611543897332958750e+03,1.488917986829913161e+03,-3.299466935970721826e-01,-7.915279927230306489e-01,-5.144109409025140467e-01
1.460494826756766997e+03,1.553108515948572858e+03,1.291879757865265674e+03,5.449830386149799762e-03,-5.339095307513292976e-01,-8.455240459748366577e-01
1.371446890381642788e+03,1.551108658590601408e+03,1.595971176993758945e+03,-2.722129262316374133e-03,-7.485128562589201673e-01,-6.631146914579653107e-01
1.535699778492115456e+03,1.491652324506124842e+03,1.651687661735426900e+03,-8.147000670895693242e-02,6.925523614161159525e-02,9.942667400018025958e-01
1.535643317744688829e+03,1.630978605681056706e+03,1.529695684897898445e+03,4.506604786633541441e-07,8.137772628531774188e-01,5.811768805303489938e-01
1.479191219378905771e+03,1.563894508791828684e+03,1.440180740427439105e+03,-2.450492919415177859e-04,-2.725090120945524719e-01,9.621531989647468253e-01
1.300584524961406942e+03,1.601235693122986049e+03,1.573179223834234335e+03,3.985237171140686152e-02,-4.002361219263619874e-01,-9.155451027526291252e-01
1.592212798307968114e+03,1.617823631584617033e+03,1.622746173559848557e+03,3.156109420101504276e-02,4.032431516477581468e-01,-9.145484448524406895e-01
1.529513223828124410e+03,1.421041034505529069e+03,1.566763381904516336e+03,-6.981422796583609536e-01,-5.334516086717578931e-01,4.775214535064793431e-01
1.354027913366717939e+03,1.574098124496396167e+03,1.593677137957489549e+03,-2.986195706893504317e-03,5.650179414102845382e-02,-9.983980317959592066e-01
1.414453142147522613e+03,1.580308279708171767e+03,1.434328274227702877e+03,8.800991158547723269e-05,-9.888842933468864338e-01,1.486870761905173255e-01
1.502579276151184104e+03,1.531611216818018420e+03,1.464140490547589025e+03,3.165063903527310929e-01,9.484995697848953577e-01,1.312520414139213727e-02
1.621400893888450355e+03,1.450829943540635668e+03,1.513197047476292710e+03,7.408115577587738310e-01,-5.621913388207449014e-01,3.676127506574784487e-01
1.538878692918034631e+03,1.543779891434308183e+03,1.418438852602968382e+03,6.792396156158578280e-02,9.336095897075131766e-01,3.517946410222151377e-01
1.407506742290918964e+03,1.507739577180016795e+03,1.370166566936311483e+03,1.456048867883649118e-05,6.774480135161109473e-01,-7.355706551862080111e-01
1.536467498412838722e+03,1.463706702228281301e+03,1.517361296631598407e+03,-1.024513007585264347e-03,9.841065242576155780e-01,1.775761788267009034e-01
1.399370411833810294e+03,1.525758581096041780e+03,1.545799123518207807e+03,3.940834700967942158e-04,-7.991237247275412292e-01,-6.011664638648761549e-01
1.523983834268114833e+03,1.471518010322806504e+03,1.474015348612277421e+03,-4.121551270671941491e-01,-1.050545724626126692e-01,-9.050368434693268904e-01
1.486486651239612229e+03,1.468783658965970744e+03,1.521934721555529450e+03,1.914114608460321457e-02,9.475984382244478921e-01,-3.188899753851711094e-01
1.440095961755053622e+03,1.577662457802394783e+03,1.313279529732674746e+03,1.858441860317325365e-03,-7.236981575412863021e-01,-6.901141376360865332e-01
1.509190803708711428e+03,1.572339624619472261e+03,1.682771736950867307e+03,-2.592270553313323263e-07,8.777222060104079571e-01,-4.791698332284243245e-01
1.603307431252749666e+03,1.412541712186470022e+03,1.375075133448517818e+03,1.511865809454351200e-02,-1.404250791076129268e-01,9.899758700771655873e-01
1.651080810655532332e+03,1.503252114973404105e+03,1.403867691368295937e+03,-5.182608171959853655e-02,2.614864309975605816e-01,9.638147662584088948e-01
1.413285179499519700e+03,1.685347054494313852e+03,1.526014450141213501e+03,-1.827065791043416820e-02,-9.739153829785608396e-01,2.261747330212711404e-01
1.325489280427471840e+03,1.577385638886292554e+03,1.347308171567344971e+03,-2.730764011162291522e-05,9.989398106201760053e-01,4.603535611266211525e-02
1.437296751985688616e+03,1.455647996640823521e+03,1.560923987863727234e+03,3.379191432615360379e-09,-9.585037630753694415e-01,-2.850798768246471937e-01
1.426932995018122710e+03,1.487337972074823938e+03,1.546335234969082421e+03,-1.869266897359676133e-02,-6.404993006216772589e-01,-7.677312225185231043e-01
1.558659403576031991e+03,1.601652535515994941e+03,1.459635957552789023e+03,-3.529729516002425016e-01,8.595445968257187097e-01,-3.695851478432615744e-01
1.562283018119716644e+03,1.381339638442256501e+03,1.517881361004484233e+03,-2.115619611658819607e-02,6.003229956827879077e-01,-7.994777771897851881e-01
1.497623326982994513e+03,1.452808697995207240e+03,1.586919344187421757e+03,-8.702368841358601535e-04,4.360052692078836278e-01,8.999436915222677191e-01
1.436777852881482204e+03,1.555888716907016715e+03,1.551355821092919768e+03,3.746972705114722576e-03,9.873497491688397742e-01,1.585131950715031324e-01
1.573846346249433964e+03,1.529354693708797640e+03,1.643889578645142819e+03,1.281843643700262322e-03,9.945818099140902868e-01,-1.039489310425335267e-01
1.493224510286706391e+03,1.540664687960950459e+03,1.520442860741514778e+03,-1.405951530939630045e-01,2.384015038750988413e-01,-9.609358593977936902e-01
1.507734603037422403e+03,1.522679271736431247e+03,1.675129454812766880e+03,4.654404245597178289e-05,-4.389919206240884830e-01,8.984910080019867795e-01
1.501021844416123031e+03,1.458045092991719685e+03,1.498856824210083914e+03,-5.105082682841189724e-05,8.215138710994651650e-01,-5.701885275809961406e-01
1.577265346970711562e+03,1.554595492975542584e+03,1.638768985772389669e+03,1.080023294622186290e-03,4.638532577633914800e-01,-8.859113888036272977e-01
1.608727209254402851e+03,1.548220902182906229e+03,1.598900155956194567e+03,6.357705210632540183e-02,-9.874993533612447250e-01,-1.442324012023409596e-01
1.444787848588447105e+03,1.533469822026020438e+03,1.452867645393813518e+03,1.343167576934617034e-04,9.954211940771824363e-01,9.558571201264881578e-02
1.522341292687843179e+03,1.510997899280100683e+03,1.389154018275892668e+03,-8.028287280241198920e-02,9.714414142855751777e-01,-2.232851068598916133e-01
1.425045034665956564e+03,1.569788254609228488e+03,1.516016980674050501e+03,-3.808684796973776276e-08,6.917092623389340389e-01,-7.221760840643549617e-01
1.469833665870561163e+03,1.565192916289973255e+03,1.493982444529327040e+03,1.549613277626171182e-01,9.605436327631488025e-01,-2.309608548135809181e-01
1.531136474937147568e+03,1.456571328322931095e+03,1.411919898407991923e+03,3.769266631961283587e-02,9.660376748623027421e-01,2.556373870394432757e-01
1.463476847890912723e+03,1.585709170398324659e+03,1.409784236718634475e+03,-2.495799772413279430e-04,-8.240076331691311706e-01,5.665786425456236231e-01
1.390803720381259382e+03,1.631671384890734089e+03,1.614920632451225856e+03,-1.243040624897733815e-01,5.293372036009930115e-01,8.392559948742811526e-01
1.425801998764010023e+03,1.591642900086691270e+03,1.486891632648152154e+03,7.830361897848523919e-03,3.661487569581080570e-01,-9.305233867080294763e-01
1.406141534650757421e+03,1.590499128143522285e+03,1.478928685488684323e+03,-1.760356246039956885e-02,-8.364194455327614852e-01,-5.478071063096668913e-01
1.592448728716720098e+03,1.470781199128988192e+03,1.396295593704165185e+03,2.186409652787160707e-02,-9.893058744834366536e-01,1.442076558147407095e-01
1.503731767316777905e+03,1.417005208849878954e+03,1.496010481024712817e+03,4.291197932716110777e-07,6.487269029568504264e-01,-7.610212910161116007e-01
1.615822625951684586e+03,1.513737507209742489e+03,1.670975646450481236e+03,-4.760032863565368810e-01,1.978826929387803302e-01,8.568916566363994347e-01
1.334783801486805487e+03,1.666821369348421058e+03,1.665983954060381166e+03,3.283813503450606075e-01,-5.908097639628633220e-03,-9.445267508799499723e-01
1.519043597449759091e+03,1.445141809951236837e+03,1.430349327054691003e+03,-7.268394602139393972e-03,4.761751545474424696e-01,8.793204152250913008e-01
1.525371007547877980e+03,1.482584692112133098e+03,1.562869523752337955e+03,3.227814200610201190e-01,3.690477568533087060e-01,8.715594690122598909e-01
1.470423422009227579e+03,1.574532388738633017e+03,1.530648848344782436e+03,1.793921422455758419e-01,9.419597188219472894e-01,-2.837786944388554500e-01
1.492272170267708589e+03,1.437948755513853484e+03,1.363158411571298984e+03,-1.342680943285641884e-04,8.979639721699383959e-01,4.400689567066335406e-01
1.588793084845799967e+03,1.563930046482510079e+03,1.510831545239794195e+03,-1.467425427680536017e-03,-1.481942653893562056e-01,-9.889571812613139334e-01
1.550300532225850247e+03,1.600962092390441967e+03,1.681830643148678064e+03,5.310731806770450925e-02,-9.730706634297340285e-01,2.243058107585997607e-01
1.523584870888332716e+03,1.635391713052406203e+03,1.713601641810797219e+03,-1.424365593704585414e-03,-8.070324000530268438e-02,9.967371560423049504e-01
1.470134361961217792e+03,1.538735711956041996e+03,1.589160170581501234e+03,7.501637210061368188e-02,6.623873475319450033e-02,-9.949798861962779739e-01
1.564722637988963697e+03,1.412717754251080805e+03,1.416909545391902384e+03,-2.690889703350581030e-03,-9.360893715053010544e-02,-9.956054067742664548e-01
1.616759778312137314e+03,1.586438774206928201e+03,1.665421251036443209e+03,-8.878015480778088386e-02,4.958415301617666859e-01,8.638629874460095337e-01
1.539553161454119845e+03,1.579828749458174798e+03,1.582527862042667721e+03,-8.867507638264222614e-01,1.981846814322094363e-01,-4.176073693062306025e-01
1.483319832228818768e+03,1.515745503690688111e+03,1.540128690187440043e+03,2.572125463444652638e-03,-6.090004487051757787e-01,7.931657062981826156e-01
1.361164083308180125e+03,1.599262310126447346e+03,1.555210374628142517e+03,7.387190513358466992e-01,6.063043131022191057e-01,2.944303705583260489e-01
1.594401636250897809e+03,1.659189470393442434e+03,1.545708021090129023e+03,1.342883805761838911e-01,1.560812110773889816e-01,-9.785730868927683401e-01
1.392413127068259882e+03,1.558936624633997098e+03,1.554850267604150986e+03,-2.790675041745980969e-04,-7.363593882315845329e-01,6.765905508389359335e-01
1.404636075574069082e+03,1.440597267935872196e+03,1.601200117238967778e+03,4.575867269134942246e-10,-8.132709322579407818e-01,-5.818852040946734805e-01
1.359603255671637726e+03,1.545583809109062031e+03,1.524257874307523480e+03,6.147799256793961414e-02,-5.967691819861012936e-01,8.000543730656409780e-01
1.320172551877280739e+03,1.525880400002758506e+03,1.567340641269242951e+03,-3.488707675370196458e-08,3.714141339278027032e-01,-9.284673075120410957e-01
1.452013120100049264e+03,1.521402719961783077e+03,1.533168672745273170e+03,-3.575024316293327203e-02,8.634882623870145935e-01,5.031003287950081004e-01
1.515443320052852641e+03,1.536186738227903561e+03,1.575910087122883397e+03,-9.651624514862467905e-03,-8.399983874246241822e-01,-5.425030463216360399e-01
