x,y,z,nx,ny,nz
1.577063923711338248e+03,1.553971197601549648e+03,1.506279372510579378e+03,8.708542131876328973e-03,6.273297601112845512e-02,-9.979923521824827226e-01
1.713107117306157306e+03,1.317918154885722515e+03,1.425837774359981722e+03,3.183794237924911924e-02,-3.960333532619836894e-01,9.176840025461512340e-01
1.653845271864410051e+03,1.456185342782221596e+03,1.472882725523477347e+03,2.417583847395076056e-05,6.565218007501611996e-01,-7.543070492546748440e-01
1.543323403413722872e+03,1.437663973826005531e+03,1.402338092643012942e+03,3.561599638386390154e-01,7.624968113675817394e-01,-5.401376609835031317e-01
1.530157102262975513e+03,1.574293585479960029e+03,1.448619008226466121e+03,-5.593774194830047203e-02,-9.597477792893377435e-01,2.752365694723539757e-01
1.453629894977646472e+03,1.431518494687460134e+03,1.522081707876430983e+03,9.653323584341642893e-02,-5.541372030437989871e-01,8.268091040744501852e-01
1.557125034869979572e+03,1.446906757682236730e+03,1.490611002532593602e+03,3.592532816435097670e-02,-9.684714454613312373e-01,2.465206484705153023e-01
1.570656907211882753e+03,1.436965617424949414e+03,1.430764542349223348e+03,1.218237612281280677e-02,-9.284252871963327713e-02,-9.956062748762416481e-01
1.590322660536178091e+03,1.389934154032649531e+03,1.419526345406995915e+03,-9.212991737269052943e-07,-8.646715398090240590e-02,-9.962547020122886066e-01
1.425741704460017218e+03,1.453092128478541099e+03,1.547730837105344335e+03,9.325254833168385030e-04,6.235917455448092284e-01,7.817496180265142147e-01
1.528677867181601414e+03,1.586181376862489515e+03,1.497076949092894210e+03,2.118513848926371207e-02,9.412937568268416877e-01,-3.369232156827448033e-01
1.570338118025815675e+03,1.379066727545404547e+03,1.432847421678750379e+03,8.011076007966592435e-07,-5.903321118757534069e-01,8.071604534958778387e-01
1.579065924607019724e+03,1.367718158325559443e+03,1.482771934119459047e+03,5.106265520023941518e-01,5.010685043514780945e-01,-6.987065752782918304e-01
1.572937572058495334e+03,1.543432449415733117e+03,1.586869003873963720e+03,6.409835756833315301e-01,7.642118119500060924e-01,7.155670604701813708e-02
1.717146560085741612e+03,1.437785218900103246e+03,1.512328486032845376e+03,4.058540254589698137e-01,-9.097180859209655912e-01,-8.772407974464320468e-02
1.789777743131298394e+03,1.516257775909160500e+03,1.380585340638618391e+03,-1.055017604751850441e-01,6.033320888604408738e-01,-7.904807202506167751e-01
1.569039868765809842e+03,1.320222984354431901e+03,1.460401147145452796e+03,-3.181215503412019446e-02,9.289114100229608484e-01,-3.689330279620406383e-01
1.593320960250623557e+03,1.545256153615202948e+03,1.510531236605261711e+03,-3.968928824744157556e-03,-9.961215561557256182e-01,8.789819660197679962e-02
1.736052401009632149e+03,1.489816899164537972e+03,1.564178549648971966e+03,-3.408654942819444589e-01,-8.779380257281402811e-01,3.362075813965251236e-01
1.547032888580852841e+03,1.546820238964381815e+03,1.399229791985072325e+03,1.257424011311492583e-03,2.971726993974099784e-01,9.548229184606495945e-01
1.473827466106418115e+03,1.469116312504431789e+03,1.532721350932029736e+03,-3.226278526103489308e-01,-6.219894623674195877e-01,-7.134706563159577408e-01
1.466770509909767043e+03,1.388305899437543530e+03,1.473196894219785008e+03,7.523623587569667516e-04,9.545790225564131370e-01,-2.979569157548186964e-01
1.552099062099732919e+03,1.509754087194327667e+03,1.527911197932942969e+03,-1.255290622522837463e-01,-9.882499613138359118e-01,8.720360367131707591e-02
1.616232636382427472e+03,1.441672828252873387e+03,1.511854620368739234e+03,1.529125260660847528e-06,-1.813610978340481350e-01,-9.834165710369592306e-01
1.635720560711801227e+03,1.379640665795242285e+03,1.542442093707243203e+03,-3.376840783744215237e-03,9.160314581442935422e-01,4.010922146294549351e-01
1.505237670724859072e+03,1.483683077408977624e+03,1.563624906076453954e+03,-4.574922458245340162e-01,-1.208073447153057700e-01,-8.809690292361369579e-01
1.410504817813619638e+03,1.391144451906555560e+03,1.490898834442434691e+03,-3.175613838652169285e-03,5.455697189819614934e-01,8.380594234340971171e-01
1.591309676033508140e+03,1.626849933085895600e+03,1.484969020239597285e+03,-2.969322177457630121e-04,4.772103936058518237e-01,8.787890259133906978e-01
1.608725347473268130e+03,1.260665781970684975e+03,1.509196414789192659e+03,-1.406432850216173501e-03,-3.943978632658693417e-01,9.189387070952852454e-01
1.609812599207089761e+03,1.384356760359678219e+03,1.411929031120258514e+03,-3.967555576482673096e-01,-2.193536709831815125e-03,9.179216828640203163e-01
1.685731184759602911e+03,1.336324583487414202e+03,1.444214402745694315e+03,-6.686627852880744349e-02,-8.166921170813191966e-02,9.944139181722470022e-01
1.561947101985849031e+03,1.603613416122724857e+03,1.512259975464976606e+03,-6.398949194793939199e-01,3.997878464118019837e-01,6.562805572968571921e-01
1.588372759708315471e+03,1.518946069504599791e+03,1.485914497430703477e+03,-8.949028653115659359e-04,-9.998291025695216216e-01,1.846523229982957245e-02
1.579820961282068765e+03,1.461338505093564891e+03,1.513602695112155970e+03,-1.804395847769871535e-04,7.219715130537065484e-01,6.919227570910627678e-01
1.563948943457260157e+03,1.401923811609355198e+03,1.499001220746740728e+03,9.387100979306420845e-01,2.754012393119526642e-02,3.436057240746998032e-01
1.571283056640844734e+03,1.418919859523148034e+03,1.516313662001628927e+03,-9.112611041725479836e-06,-9.863953329581945928e-01,1.643905320730261188e-01
1.564736478588346927e+03,1.541467982130135397e+03,1.474470212377350208e+03,-6.876632434824072834e-05,-6.021879286900874706e-02,-9.981851993776466037e-01
1.447792566585389295e+03,1.699053000812239588e+03,1.431573424164799007e+03,2.092041083654816724e-01,-3.686569783436950409e-01,9.057183189941011570e-01
1.814427493356539344e+03,1.467388744743550888e+03,1.414246291340464040e+03,3.336855539612837603e-04,-7.968213289827653645e-01,-6.042149107164525024e-01
1.520566341224804546e+03,1.317567480690460798e+03,1.393388874396865049e+03,6.290298099212818239e-02,9.897896591062275151e-01,-1.279048306698456761e-01
1.555030039433832826e+03,1.546290314043337730e+03,1.461811261306167353e+03,-1.617962693605341784e-01,-9.660088776328945581e-01,2.016155141735104794e-01
1.470261888718298678e+03,1.264203513471823271e+03,1.467144798101540573e+03,-2.306466874216956883e-02,9.976606279613786654e-01,6.435287461739122583e-02
1.565226707225298014e+03,1.488533771415590763e+03,1.409665222219859061e+03,2.157503067701713531e-02,9.309198664273830859e-02,9.954237289085458018e-01
1.443840038081068997e+03,1.359076295162176393e+03,1.443289537666844353e+03,2.061077033033608640e-06,-9.940515394095255086e-01,-1.089106835590724492e-01
1.542797583350333525e+03,1.432286797698479859e+03,1.472863143322496398e+03,-8.810016814531161644e-02,-1.044103215137541646e-01,-9.906244723073230896e-01
1.566418237940185463e+03,1.354282202153025082e+03,1.526586398263404817e+03,1.525968201240418196e-02,-9.980671087378134576e-01,6.024274695448506717e-02
1.462503119798110674e+03,1.274818674609810387e+03,1.417979437096841593e+03,-1.362198761171800848e-07,-9.822559208428002786e-02,9.951641739229131201e-01
1.403385954069712398e+03,1.349326586186781242e+03,1.363033102975444763e+03,2.766812689723881502e-01,-9.580095998004498625e-01,7.526673959997831620e-02
1.496298535339523141e+03,1.418323857577510353e+03,1.453071418753518628e+03,2.102666613944776013e-06,-2.015920751055771953e-01,-9.794695683124647889e-01
1.377726507099273249e+03,1.473023697013536776e+03,1.536980788311454035e+03,6.007243328700160462e-05,8.202974179294230117e-01,-5.719371840767342174e-01
1.561949848787729934e+03,1.459613396004374636e+03,1.504218208267261844e+03,5.943144295469167827e-04,-5.470993105245447463e-01,-8.370674950169351147e-01
1.638245636907553035e+03,1.479131017975247914e+03,1.534109646478051673e+03,3.340254670788097734e-08,-7.448815553884742258e-01,6.671967239443299391e-01
1.575779498498379780e+03,1.534495649640592774e+03,1.508721402657723502e+03,1.962288127764662618e-02,9.270842410929311939e-01,-3.743390875229397063e-01
1.611233904734561520e+03,1.513613648184215663e+03,1.451483036893783947e+03,-4.217603836071661672e-01,-3.385428897742272677e-06,-9.067073280877766539e-01
1.481435096168205291e+03,1.440723938484506789e+03,1.555413223300494337e+03,-7.519811928247849839e-04,9.455936168136371833e-01,-3.253492682727130991e-01
1.511371742758770779e+03,1.393568869127218704e+03,1.438401197451294365e+03,-9.407390309770788939e-01,7.525531310265543006e-02,3.306761458680199661e-01
1.654475794727422908e+03,1.451202905323164714e+03,1.490324913763387485e+03,3.367677449775897640e-06,-2.235673657519732516e-01,-9.746884799562279822e-01
1.609205026491749777e+03,1.391646344456088400e+03,1.449477425898526235e+03,2.076034434169745091e-01,8.809530803032894486e-01,-4.252322666326737721e-01
1.456120777010594111e+03,1.406122710296857349e+03,1.421846369349851784e+03,1.292939049611082081e-01,-6.275734977647041690e-01,-7.677464366855002442e-01
1.642379390973672116e+03,1.422015233284612123e+03,1.356083660526349831e+03,7.333149096097558094e-10,9.727445853706736534e-01,2.318792177665699727e-01
1.479432043225696589e+03,1.353874670318554308e+03,1.519693768591145727e+03,-1.424615034578735617e-01,-9.448429118572124752e-01,2.949179410373434784e-01
1.434891828202168199e+03,1.368226306924422488e+03,1.495134042770801443e+03,-1.251898834787066662e-04,7.759977248422629259e-01,-6.307356937474877245e-01
1.451104572712571326e+03,1.499134751881481634e+03,1.571378438901908794e+03,1.834760835168229229e-04,8.171841797936578722e-01,5.763765979214401369e-01
1.644043495918795998e+03,1.464859698830465732e+03,1.435218825890789049e+03,2.232282191461672782e-01,7.538732984488243360e-01,6.179354432808661368e-01
1.506366129232113963e+03,1.385909244614086674e+03,1.552166258501406901e+03,3.322709688891601482e-02,8.454037097131709144e-01,-5.330933573357891087e-01
1.408553988705834172e+03,1.393918166237912374e+03,1.588979953492088271e+03,7.168047100186767313e-08,-2.171892670046851048e-01,-9.761295110270780118e-01
1.581212959080009114e+03,1.432792871359683431e+03,1.524655665216971556e+03,-7.787755531290996419e-06,1.385125167321438477e-01,-9.903606831088754836e-01
1.632362061301578251e+03,1.487833240572176692e+03,1.478712013022482552e+03,-1.651473265455215278e-01,3.888627159283174076e-05,-9.862689080685473897e-01
1.679321865126646117e+03,1.412853657687073110e+03,1.349054433297024616e+03,-3.020586427412917183e-09,9.999959045041957317e-01,-2.861987916715161544e-03
1.619310241053801974e+03,1.427646544278529063e+03,1.338594802480980434e+03,-3.820674083336612625e-01,-1.405009681774127420e-03,9.241333894178879182e-01
1.691369476648440695e+03,1.416411253513423617e+03,1.476204321861454900e+03,2.943230161776538845e-01,-9.512933228817863629e-01,-9.173317823240299818e-02
1.543131571713777475e+03,1.446978440863740161e+03,1.483150605252680862e+03,3.628481989611768207e-03,-3.567391424371817443e-01,-9.341969912024097322e-01
1.571413972966734491e+03,1.461813438767736216e+03,1.377240310935632579e+03,-1.236647463753166951e-03,-9.811123191619682826e-01,1.934349707050784239e-01
1.667620809295691060e+03,1.523798319006058364e+03,1.393798264938323655e+03,1.254793539947609560e-01,-4.286225294261225560e-01,-8.947277010294306665e-01
1.547693239868496903e+03,1.337944850041651534e+03,1.415826729807052971e+03,-2.354151257537564212e-01,-9.668319434713528171e-01,9.907427340006048910e-02
1.473656691281121084e+03,1.548202347402779196e+03,1.560574492659457746e+03,-4.659023322936572953e-02,9.871407355951481444e-01,1.529134339955227351e-01
1.596757609480251176e+03,1.512861452280266576e+03,1.533786314141560752e+03,3.337677289601502228e-01,-9.272411002488443188e-01,1.697735112262704349e-01
1.444593125151918002e+03,1.493820172443435695e+03,1.534158580623533680e+03,-6.513352234444283462e-02,9.048785174388834784e-01,-4.206572154909674066e-01
1.512156370266644444e+03,1.570963246347450195e+03,1.395584833788951073e+03,9.525079270968745959e-01,-2.807753491002614177e-01,1.178721856726232531e-01
1.519801611061371204e+03,1.616666673714357557e+03,1.447180088296882104e+03,-2.775420002959073235e-02,-2.368473528518284521e-01,9.711503672592617376e-01
1.599390098234473271e+03,1.450869164512935640e+03,1.526433215146307475e+03,-3.206228032506828033e-06,9.744221839783018257e-01,-2.247251818570335513e-01
1.655705196056591831e+03,1.422960177149525407e+03,1.604360448282375955e+03,9.390873479747234879e-05,-5.180185664742373852e-01,-8.553693681498804047e-01
1.661097045614466424e+03,1.380927094861243404e+03,1.470914139612872987e+03,-2.951903534085549216e-02,8.582142586970884501e-01,5.124421067023593457e-01
1.412587131925699396e+03,1.638735635187729486e+03,1.401488706922188840e+03,-5.378514696616415458e-02,-9.388281971809899762e-01,-3.401599243645854198e-01
1.623298571946534139e+03,1.389463794119091062e+03,1.584371129377437001e+03,-3.004070309864212418e-01,5.810883026532958073e-01,7.563676356464724693e-01
1.502226377128923104e+03,1.472173385331992677e+03,1.535063627355161316e+03,2.146554902949514634e-02,-9.983426032910247550e-01,5.339734692811796968e-02
1.553306497994056144e+03,1.461938062806651487e+03,1.550880815663989097e+03,-3.004684876485076428e-01,7.465031108290176576e-01,5.936765057275030788e-01
1.643693576421308080e+03,1.410984648832966968e+03,1.390363102492641701e+03,-4.888472567550612019e-03,-9.385206991099562801e-01,-3.451883546386165236e-01
1.643162916986881783e+03,1.471763293835184641e+03,1.487533616989855773e+03,4.282150907490522851e-01,-2.856552108887546598e-02,9.032252471336825739e-01
1.433066605240152739e+03,1.443492290837205928e+03,1.538846974712048450e+03,2.133316623325625661e-01,-7.867828811561857760e-01,5.791910736242373847e-01
1.556937771475033742e+03,1.495165982980457329e+03,1.478395775395580358e+03,-6.770494578492131750e-04,-9.988844015686170197e-01,4.721751695014897443e-02
1.648762511155121274e+03,1.529108165505163242e+03,1.459217053657325778e+03,2.409462611565215129e-01,9.692023425137634707e-01,-5.090892358444578519e-02
1.471981133953051540e+03,1.380965839417295683e+03,1.504706363456313511e+03,2.187487311361766397e-04,-1.380084468765976902e-01,-9.904310277549376318e-01
1.465532601471634962e+03,1.467895563638661088e+03,1.392991305770857707e+03,-3.364354798928016477e-01,9.342438391137216636e-01,-1.183199769580561972e-01
1.605698622556972623e+03,1.403555821493581789e+03,1.460773845267258366e+03,-3.514565884448501709e-01,-2.237219592092763634e-03,9.362015067746921604e-01
1.491681513202631550e+03,1.569970612483189825e+03,1.551767664669414671e+03,8.591190102968224718e-01,4.505523070813510222e-01,-2.427285412354312222e-01
1.714241172738036312e+03,1.452890646623383191e+03,1.340016334805919314e+03,1.764634215177978971e-01,9.843031671964385110e-01,-2.817075308220775339e-03
1.512952436182135898e+03,1.345999617306890514e+03,1.542094540150133071e+03,-1.507959717797109078e-01,9.867690134651799783e-01,-5.956080053162611521e-02
1.465792030447729076e+03,1.342501593930330500e+03,1.448966191274912035e+03,1.007414133359186247e-02,-9.849954491750763097e-01,1.722860318794893486e-01
1.427968928986943183e+03,1.422149682838273748e+03,1.451855123620601034e+03,-1.049540974461067935e-02,2.741593626514393645e-01,9.616270016200924031e-01
1.606400314989292383e+03,1.479566362234035751e+03,1.525284381590382964e+03,-2.139239825487343830e-02,-9.952858516166541714e-01,-9.459618844655651171e-02
1.652785276681204550e+03,1.304480850986329415e+03,1.593380860068060429e+03,-6.241391207031335431e-02,9.687318204242123532e-01,2.401315549395177662e-01
1.610492377483834616e+03,1.473250117695921972e+03,1.493842792322496507e+03,-1.913863623865367266e-04,8.641056357278817934e-01,-5.033104545651456707e-01
1.569277363211402644e+03,1.458632392331128358e+03,1.350614794363986675e+03,-1.144861284427954595e-02,-7.168879132073433524e-01,6.970944334601750780e-01
1.543814230787775159e+03,1.532706271234481392e+03,1.521621518776421226e+03,1.287332703068129296e-02,2.588927605236396572e-03,-9.999137837358859082e-01
1.438443214577994922e+03,1.411486508609777729e+03,1.536796869699620402e+03,1.482354075876252120e-01,6.894139111691848232e-01,-7.090378854643367701e-01
1.707475828306157609e+03,1.403058152171236998e+03,1.386018807235761415e+03,1.807822469177074176e-01,9.230678602224812179e-01,3.395047932263624002e-01
1.446794846788497580e+03,1.236633407613376676e+03,1.390996764169513199e+03,-7.800312893116897461e-01,-1.627198888629786955e-01,-6.042130629696471633e-01
1.655857990246119698e+03,1.516031661134629758e+03,1.511940599269638142e+03,-3.149311082249923365e-11,6.678987282584928353e-01,7.442521674746321869e-01
1.770906243599354866e+03,1.531758374616418905e+03,1.363303458148041955e+03,-7.089012382151828329e-02,-7.725882102521290928e-01,6.309374356653612015e-01
1.545577817283003697e+03,1.424030522347607985e+03,1.397712439159380665e+03,2.660371391368407555e-05,-8.638405988676984837e-01,5.037652419928736469e-01
1.497144508389829298e+03,1.495512232011838478e+03,1.526457704959368584e+03,6.787399777594807504e-03,-9.121011901146238721e-01,4.099089535442545507e-01
1.606154471905812443e+03,1.437189533630174537e+03,1.420275727125522963e+03,-6.970727840028111133e-02,-9.975456250037726402e-01,6.604647898143082424e-03
1.537644094787755876e+03,1.463769786713450003e+03,1.456055828313008305e+03,-6.111961584283242405e-02,-2.346893963916064363e-01,9.701470402885162825e-01
1.532038341708855569e+03,1.393558386038403114e+03,1.604988667107710853e+03,2.127329148469675642e-03,5.799892987118253629e-01,8.146213156126342891e-01
1.561627137047431688e+03,1.418652903128233447e+03,1.524010537057489046e+03,-7.883947107893614923e-04,-8.343723992600600159e-01,5.512005785435923899e-01
1.616608374588835431e+03,1.531510971349660167e+03,1.512175036923902553e+03,-2.082224020595339065e-01,-6.771420952639950475e-02,-9.757347063155910050e-01
1.523201128549388841e+03,1.446390513854786150e+03,1.504907822624933260e+03,-2.431128780080099930e-02,-1.713619029491756651e-01,-9.849081477493746295e-01
1.529114855381120833e+03,1.632171566486489155e+03,1.473363906444751137e+03,6.548342982661274903e-01,-3.931859829380271454e-01,-6.454431226958468049e-01
1.664947555940659868e+03,1.303253694774983842e+03,1.469147321929668578e+03,-3.268647230579671548e-01,8.473510953784708644e-01,4.185159184321955439e-01
1.518541539754355199e+03,1.412129738092614843e+03,1.556003719609661630e+03,-9.591479190369351926e-01,-1.796214050065257639e-01,2.185667409982552378e-01
1.492660286658789573e+03,1.464405356980137640e+03,1.506327557441925819e+03,-8.066840592713724056e-03,8.740898218934158859e-01,4.856973433581743826e-01
1.425934482326268608e+03,1.299940061505518997e+03,1.444704333374882026e+03,-9.978957775798380503e-02,9.890897936418210357e-01,1.083670627287802446e-01
1.540269109145394395e+03,1.356205443638047200e+03,1.522954759494605696e+03,-3.168320830481737016e-02,-8.454461162309455657e-01,5.331200979718586641e-01
1.502252570773022853e+03,1.474105081324884850e+03,1.555523678716013137e+03,-5.170327705836083032e-01,5.144337074892643136e-01,6.841308900652622871e-01
1.461058344220404706e+03,1.380709798487338730e+03,1.510353520828977025e+03,-2.429277693510843456e-04,9.780724751300907682e-01,-2.082646738623640525e-01
1.452811393965792831e+03,1.450031191509974860e+03,1.489112272586161680e+03,8.551812677646106721e-06,-9.764732115096138587e-01,2.156387421846258368e-01
1.548125177942851906e+03,1.442304743166591152e+03,1.535776467861375750e+03,-1.488596803170710581e-01,4.557468454211313080e-01,8.775737054313939023e-01
1.493801103975294836e+03,1.433163979079357659e+03,1.520000299753906575e+03,1.085270646711051709e-02,1.475299227688015302e-01,9.889980488606487929e-01
1.529321013698629486e+03,1.453794180776400708e+03,1.434710958687880293e+03,-9.919690933611672312e-01,2.817210716562094062e-03,-1.264491247103054494e-01
1.462669642481679830e+03,1.442300125520486517e+03,1.417190747116113698e+03,1.989244470785833750e-03,9.588320023830976258e-01,2.839669595436321581e-01
1.401036985790931567e+03,1.490420560368453380e+03,1.558638963098299882e+03,-1.015496367692931640e-05,3.143605297787248065e-01,9.493036696516642392e-01
1.498583779503592950e+03,1.598245327259649684e+03,1.446838192289079643e+03,2.220342422044724702e-06,-2.746768600394384197e-01,-9.615365944954695765e-01
1.669754272175162669e+03,1.300621520130844146e+03,1.489190510286771541e+03,-1.292583353516603417e-01,-1.648741280745862903e-01,9.778081635135609240e-01
1.483041708208646696e+03,1.450454460969799129e+03,1.482929686838227553e+03,-1.008168835807724678e-01,-9.621417063069694908e-01,2.532178764814488892e-01
1.394522035178087663e+03,1.600143690515366870e+03,1.607242116690178364e+03,2.826471676715545684e-03,-7.912073758694716519e-01,6.115414126840513775e-01
1.547302264368266833e+03,1.522845807098362002e+03,1.401828045604641147e+03,6.967275416479163930e-01,-7.153292157479012037e-01,-5.361758859500920238e-02
1.549737553118020742e+03,1.700749200178976707e+03,1.480342087786614229e+03,-1.659394231148444976e-01,2.380495659065423320e-01,-9.569725764242250632e-01
1.828638067773569901e+03,1.517466831579199606e+03,1.401243557131047737e+03,4.999158427403040394e-01,-7.570370041702437769e-01,-4.206888689925061264e-01
1.606092778886081533e+03,1.452805780270527976e+03,1.338834881430429505e+03,-1.167047852792118395e-02,6.058495640740282351e-01,-7.954936238853453911e-01
1.556186948111812399e+03,1.527803699904787436e+03,1.547457714761813577e+03,3.040712691705558246e-01,-9.489619640832843706e-01,8.373681381687779479e-02
1.661664940794502400e+03,1.423621463997167893e+03,1.390520096478596315e+03,2.663174174720318588e-01,-1.209304211572551913e-01,9.562692436702940890e-01
1.544925542635474130e+03,1.353097191474556894e+03,1.495817048597798475e+03,-3.283954168153125353e-01,4.487303620068207820e-04,9.445402314648959630e-01
1.478291257931148493e+03,1.412184918110671333e+03,1.487229817866558733e+03,4.307407364087770026e-08,9.187801942308108094e-01,-3.947694956416866741e-01
1.651201342469881183e+03,1.485248374007356915e+03,1.426854115095448151e+03,-6.294789338909259069e-01,1.681579618688363864e-01,7.586034350355015388e-01
1.478963043275617565e+03,1.573586083709746163e+03,1.501440276792804298e+03,-7.145167424666781786e-01,-2.183133784185473381e-01,-6.646842058739526049e-01
1.514086133968277863e+03,1.382358805468600394e+03,1.461974864125445492e+03,3.975631066750895393e-01,-2.446703087878336624e-01,-8.843528799119260153e-01
1.504592920545561356e+03,1.402482645474299488e+03,1.380120006277566745e+03,1.942952222383413918e-01,-3.186979382949908235e-01,9.277289424944528129e-01
1.498260382208613692e+03,1.491210384156761393e+03,1.569272726162527988e+03,7.791539304023588075e-01,3.760225666180933013e-01,5.015238599832492206e-01
1.547965021501781166e+03,1.448908011670554288e+03,1.460451908571468493e+03,1.722189516490955691e-04,-9.839607042891986843e-01,1.783852649613665298e-01
1.505645179360348493e+03,1.395547777878741954e+03,1.554852673492543317e+03,-4.498011864897391576e-02,9.941230063109011139e-01,-9.846947369464416344e-02
1.526198233741051126e+03,1.548553824469281153e+03,1.531725221113646057e+03,-3.094272644354786328e-01,6.381025928647948708e-01,-7.050388989291316300e-01
1.565804530842408667e+03,1.298052870504904831e+03,1.428367946082987828e+03,-9.273063898425504140e-04,-1.427360353737829601e-01,-9.897603570100358406e-01
1.444472668682156609e+03,1.449116907997439512e+03,1.580137856640727477e+03,8.781356476883200868e-01,-1.358932725558455457e-01,4.587055730346834004e-01
1.605952980520548408e+03,1.461656861058069808e+03,1.552706434988122965e+03,-2.530289945882134919e-02,-9.389915159861172977e-02,-9.952601230874457139e-01
1.495715254482088994e+03,1.430368331609862480e+03,1.521704545457508402e+03,-1.278021759195049067e-01,4.571024601767231799e-01,8.801840402612554071e-01
1.574627492192306818e+03,1.406251912863699999e+03,1.303635057555540243e+03,2.621536028059920972e-03,-8.383369867923233798e-01,5.451460576073365871e-01
1.597843608704390590e+03,1.513644844017549985e+03,1.508914276869337073e+03,-6.306294138348148559e-01,-5.952170222091753837e-01,-4.980193157687760053e-01
1.537325360179313975e+03,1.500021996329676767e+03,1.569557925551973085e+03,-8.149393224066014962e-01,-5.655759173789240979e-01,-1.264823405715502780e-01
1.601794761294412865e+03,1.469808616082974140e+03,1.511979846527335212e+03,-2.948391592703915320e-03,6.200433924265564833e-01,7.845619787468569584e-01
1.415968035654726691e+03,1.303988073355805454e+03,1.432103571396431335e+03,-7.489799799335358776e-02,9.822786403947088019e-01,-1.718108335376727913e-01
1.612712184896678536e+03,1.457838706090390133e+03,1.407982895748572673e+03,-2.665325974476227822e-02,-3.382525167439185965e-01,-9.406778612582435972e-01
1.744566008118358923e+03,1.487157578700610884e+03,1.410872947286218050e+03,1.456989104557197545e-01,-1.241226104556528709e-01,9.815117956834192858e-01
1.623761346044524316e+03,1.357977605427718117e+03,1.532677526164569372e+03,-4.177195421131765611e-03,3.311599833869749432e-01,9.435653747576541184e-01
1.504216631490346572e+03,1.574286965607447428e+03,1.399344182239363363e+03,3.034797213335843624e-02,-6.018791709540254747e-02,9.977256212121196066e-01
1.695497886864540305e+03,1.457446530122376998e+03,1.467858399355602387e+03,4.201905342901569862e-02,9.918736532581527987e-01,1.200876976265901341e-01
1.539606419670981040e+03,1.599340459932626800e+03,1.486186308411378604e+03,-3.991064891716905594e-01,-8.293715413157590755e-01,-3.909691250681688879e-01
1.397836568245756325e+03,1.335917245409768157e+03,1.478043298978786652e+03,-7.650822863452332034e-03,1.844231889565405569e-01,-9.828171509922952742e-01
1.612059198506588928e+03,1.376974919390713239e+03,1.479202993745886261e+03,-4.932225998566985153e-02,-9.985389504527721893e-01,-2.207439916696070370e-02
1.596603634537219705e+03,1.500161576881894234e+03,1.513664175028299269e+03,8.075145341508118595e-04,-9.956462512616431892e-01,-9.320885295353679989e-02
1.513008519262002210e+03,1.473525438657153018e+03,1.524625033523427419e+03,-8.786502764098073903e-02,9.419366950995657906e-01,-3.240910355788282904e-01
1.451257049750345459e+03,1.418316050957176003e+03,1.563640997611806597e+03,9.630949994874499966e-07,7.571085778725112903e-01,-6.532890641292995459e-01
1.458197424573868830e+03,1.683669034010106316e+03,1.429920077024632292e+03,3.086649890159480616e-05,8.992900522042845957e-01,4.373527192709270039e-01
1.538503079279522126e+03,1.683577846940160953e+03,1.465689988784810794e+03,-2.245932417423255646e-03,-3.699809788480813988e-01,9.290366144981542229e-01
1.565123973272294052e+03,1.531498288906859671e+03,1.489104587168870694e+03,8.436225916567018090e-02,-9.289447190245173624e-01,3.604784573659358671e-01
1.548122504619921529e+03,1.409250953469409069e+03,1.347935088685674600e+03,2.283879224021761745e-01,-8.270392998930928274e-02,9.700510382784717223e-01
1.663525720318721824e+03,1.430665286327096055e+03,1.445078242129781302e+03,5.312271141727335777e-02,9.124286604838482972e-02,9.944107385416519618e-01
1.513776520412857508e+03,1.744826828668152075e+03,1.438309327568935032e+03,-4.647268087949821443e-03,-6.065483466992149797e-01,7.950330219656084330e-01
1.514997478631732974e+03,1.499912271216176350e+03,1.482120897334497840e+03,4.940889758311446119e-05,9.721535817588560224e-01,2.343446415691810281e-01
1.856793494967809011e+03,1.557605796902563043e+03,1.316386084095457818e+03,1.567808162199118560e-01,-8.380437231078118332e-01,-5.225920912384871553e-01
1.594921961652808250e+03,1.424531085873454003e+03,1.460025025466439047e+03,5.048614577955996136e-02,-9.851230103948903638e-01,1.642674754016561489e-01
1.388360488752911806e+03,1.486810345196868411e+03,1.547952790624305635e+03,2.707237711743025336e-04,9.291179338072400595e-01,-3.697834390375059344e-01
1.614549228088879772e+03,1.386872405151661951e+03,1.361931761520090959e+03,-1.829268072435887293e-01,-5.923944892108153892e-01,-7.846059854119927790e-01
1.496781117049447857e+03,1.464365551504653922e+03,1.546098421323995581e+03,3.236773739899245712e-05,-4.110935237896629069e-01,-9.115931733237845336e-01
1.437465975954288979e+03,1.509501561052947409e+03,1.387610704321220283e+03,-2.018708761745894795e-02,5.102585283712386677e-02,9.984932868255895766e-01
1.484087638044781443e+03,1.567084472450033672e+03,1.459911141898790902e+03,1.039960072800859628e-02,4.363687242699348240e-02,-9.989933291416356331e-01
1.620802887628902226e+03,1.415241519949573330e+03,1.446853769758790804e+03,-2.529082864800103608e-02,-1.285722855226362031e-02,-9.995974518076025106e-01
1.766476412894629675e+03,1.515584700869161907e+03,1.370225488897973037e+03,-7.094950469935946968e-03,-6.776510920224011469e-01,-7.353493449773899071e-01
1.609377229701203305e+03,1.331442008677715421e+03,1.493422666722847907e+03,-5.758022830610172449e-03,-1.948894564348571390e-01,-9.808083120282006240e-01
1.674713713563666488e+03,1.427398785785067275e+03,1.369819775507825398e+03,4.739681953289672600e-09,9.170918783759220982e-01,-3.986759167756724342e-01
1.685655203296683112e+03,1.405643496140811294e+03,1.525172822023280560e+03,5.462122582374998730e-02,-2.708608160503364615e-01,9.610676042912157380e-01
1.537471638372113148e+03,1.480814404782328211e+03,1.539414525777063318e+03,4.596481734852277817e-02,-7.589723967119975379e-02,-9.960556433133690435e-01
1.606112308201337100e+03,1.381861014242671672e+03,1.490795279096011654e+03,-3.754116529628714633e-04,9.494591447927714922e-01,-3.138904130990143870e-01
1.543728577529027234e+03,1.403637462941587728e+03,1.540438376670449770e+03,-4.362790127168249960e-03,-9.143859085345955595e-01,4.048201777773295928e-01
1.521242349238464385e+03,1.491159019833623006e+03,1.468553826141448553e+03,3.630897098374909204e-02,7.692188031901808776e-01,6.379530479939469201e-01
1.574551007858203093e+03,1.578247517339849082e+03,1.421816521882877623e+03,-2.330267169132040073e-02,6.304812539935250593e-02,9.977384022757038728e-01
1.663167766850392127e+03,1.385339545964266563e+03,1.435095545877966288e+03,1.230683379797313862e-02,9.946497366184967603e-01,-1.025692121770665072e-01
1.516347586787781438e+03,1.530680625899530469e+03,1.520066092480582256e+03,9.486751317317170251e-01,1.874908016168671532e-01,2.546815535975742728e-01
1.762169505412485250e+03,1.400684329035372684e+03,1.494649256712000124e+03,3.994128608742215925e-03,-1.049328799967177706e-01,9.944712854739704566e-01
1.603622806184940828e+03,1.457253392788375550e+03,1.432814269622818756e+03,8.151908914103217496e-02,1.252459984903609401e-02,-9.965930827094064970e-01
1.448866283563561183e+03,1.546817602143688873e+03,1.509231593869522158e+03,-2.122831527500956134e-02,-9.872179316168218088e-01,-1.579560512446075426e-01
1.561679795573108322e+03,1.413824970501732878e+03,1.372592056109304622e+03,-2.277997471703925407e-03,5.405570008112076108e-01,8.413043085599355431e-01
1.458128579568933219e+03,1.679655890274650119e+03,1.412781349346629895e+03,8.062467178259809242e-02,9.371283359752378139e-01,3.395440239677768313e-01
1.444156879339093393e+03,1.624091075778423374e+03,1.549707324247613542e+03,-1.733935720553417747e-03,9.031336818558138857e-01,4.293559667274679525e-01
1.588547254211217023e+03,1.484444296821278613e+03,1.534255917751464267e+03,1.890003308877021347e-06,4.184473675542067506e-01,-9.082410476208299110e-01
1.575907251412818823e+03,1.542465254624384443e+03,1.582623669063679017e+03,8.047791880193395653e-07,9.997768162145856952e-01,2.112623390902411760e-02
1.569133017343751590e+03,1.534593155225957389e+03,1.442944249332027766e+03,-1.806166620265431122e-01,3.647057601984645336e-05,-9.835535674625387470e-01
1.522995785568320571e+03,1.473336412457936603e+03,1.387616721509366698e+03,-1.020271668952014814e-02,-6.426231604410828635e-02,9.978808843287862995e-01
1.651797867899012317e+03,1.391939554513778603e+03,1.547362125743552269e+03,2.324501999841616096e-01,-1.617145764923421936e-01,9.590700184435052567e-01
1.618426015493179420e+03,1.489037160169367780e+03,1.496302630169002441e+03,-6.782770618345452130e-04,9.859436941895324269e-01,-1.670765448174133527e-01
1.650392330027763819e+03,1.401721596964019454e+03,1.547238001558967653e+03,-2.136447794259845878e-01,-5.260372534104496012e-01,8.231893562531118480e-01
1.492407615392917478e+03,1.507705746978220532e+03,1.454988473009658492e+03,6.069597498200762383e-06,-9.595701655152375498e-01,2.814695319501200332e-01
1.852739049591867797e+03,1.408821333679045438e+03,1.402928343939865044e+03,5.586595156596943393e-05,7.870223737506819583e-01,6.169244525019554892e-01
1.645163253373114458e+03,1.425568047473654360e+03,1.444857723541954556e+03,1.176715842660710533e-02,-7.927856433810638315e-01,-6.093869522983208498e-01
1.625996139991098971e+03,1.541137879722705748e+03,1.434740035350203243e+03,-9.716840943785864937e-02,7.697291190313366727e-01,6.309321544528848635e-01
1.613955639750724913e+03,1.353253868219485412e+03,1.503260069235106357e+03,-1.388450263014700571e-03,9.224748023732742830e-01,3.860548033534301759e-01
1.648616254346069582e+03,1.459105708677863049e+03,1.412855351253323079e+03,9.903205253892200660e-03,1.482733620028547916e-01,9.888968281100256608e-01
1.430293917945565681e+03,1.471293778391431943e+03,1.580925122087445516e+03,-2.040885178842323482e-07,-7.988906131469686311e-01,-6.014763405368649396e-01
1.524896362793338540e+03,1.401611845524689898e+03,1.290727276402220241e+03,1.972350798436420108e-04,4.805293259218487156e-01,8.769786360153918325e-01
1.585413920724597801e+03,1.496154982307937189e+03,1.346021026338915135e+03,3.235297897942840352e-04,4.433751218180287390e-01,8.963360958264054990e-01
1.566817528031218444e+03,1.370764408499541332e+03,1.387325399802428819e+03,2.491088448559249102e-01,2.785309319218751689e-01,-9.275587870196037032e-01
1.627181546374116351e+03,1.426589230261608691e+03,1.508284387256194123e+03,-2.816417842867604976e-05,-2.889116133542206089e-01,-9.573557744516092427e-01
1.495443701788376984e+03,1.562518801244236556e+03,1.506912716290763683e+03,7.572255167084388817e-04,-1.834967665289162775e-01,9.830200218118394506e-01
1.565659525434778743e+03,1.474200183872589378e+03,1.422816839366399336e+03,7.842954498289148590e-01,-5.868964247617777241e-01,2.010801680412643844e-01
1.463626269771006491e+03,1.513080877996276286e+03,1.509163249740103765e+03,-6.256161657605455728e-01,4.287333984192514547e-01,6.517607584221014605e-01
1.502377209512748323e+03,1.518632344796504640e+03,1.552732297843958349e+03,3.859395771353486186e-06,-9.410049345094373408e-01,3.383928385973833386e-01
1.515974903188043982e+03,1.624418835615689432e+03,1.442199100733300838e+03,-2.492924374181475916e-02,9.010572129848670730e-02,9.956201543740166304e-01
1.493179785795163298e+03,1.427396525923455556e+03,1.504241716248226567e+03,9.380721434309492457e-01,2.726271673802695972e-01,-2.137640786593365816e-01
1.583840153910882464e+03,1.672274997850695399e+03,1.406664783502544424e+03,-2.390430599564005433e-05,4.192576301656581600e-02,9.991207283527165917e-01
1.546011697532169592e+03,1.383848645606943364e+03,1.539766321057689083e+03,-1.391683292447898476e-03,-2.584208121968999405e-01,9.660314420561622040e-01
1.599856696257500516e+03,1.533491789675170367e+03,1.372264115291701273e+03,8.848637063522920565e-01,-3.429055155910658570e-01,3.153284455257880925e-01
1.524119171666547345e+03,1.474801046413548193e+03,1.507256662675036523e+03,2.040713018322468930e-01,-8.774533664020026658e-01,4.340858135879181456e-01
1.490424089269397655e+03,1.665173724476766438e+03,1.571762753817926068e+03,-1.315991326215168178e-01,-9.895648387391738909e-01,5.867791939373177834e-02
1.510506048407212347e+03,1.403817861985702621e+03,1.430138189929491091e+03,-2.309625202601784111e-01,7.632494138941684492e-01,6.034125010515403176e-01
1.562978386785328667e+03,1.485475533944405015e+03,1.457409383410065857e+03,-1.410346316479022010e-04,9.781434227317140628e-01,-2.079312979710364606e-01
1.584764137210794615e+03,1.428405820560867369e+03,1.469945879323656527e+03,2.154230009077376471e-03,-9.633066646525192400e-01,-2.683945400508495616e-01
1.620476068356384985e+03,1.504439881233356573e+03,1.337436130988878404e+03,-7.763077049281179587e-01,4.639946624928129593e-01,-4.266793883554942379e-01
1.433651227272396682e+03,1.448086653004108484e+03,1.364325344445429664e+03,2.065170648489811941e-04,3.819759876074236282e-01,-9.241722254223155852e-01
1.633536157875236540e+03,1.545682420618812557e+03,1.507216758031222980e+03,5.807498477548714844e-01,2.196570069170708517e-01,-7.838880109077619451e-01
1.565724220626599617e+03,1.674198776771104804e+03,1.418931980559895237e+03,1.042107131753073207e-01,3.679674496115899474e-01,-9.239805643442051686e-01
1.596983537179669383e+03,1.505424179589749883e+03,1.346870604676523044e+03,1.957332079650068871e-04,3.462846095671842095e-01,9.381294851274072366e-01
1.440519288786158313e+03,1.509702639576986257e+03,1.615509794726749533e+03,-3.282861342675866823e-01,-7.718944776181873024e-01,-5.444328512040670365e-01
1.556626819472394345e+03,1.438047732990259647e+03,1.405318040466248249e+03,-4.015235579822877821e-01,8.822451989624434665e-01,2.458093596528882485e-01
1.510177370277802765e+03,1.359375051574105555e+03,1.517907555605065909e+03,2.536463145014332121e-01,-9.296426197117133583e-01,2.672604474204565150e-01
1.481861205490494967e+03,1.627727965942490755e+03,1.472722273163202090e+03,4.752689033892030790e-01,7.855942431594744590e-01,-3.961832336002077959e-01
1.642931616578435751e+03,1.383702567542583438e+03,1.383276804631707819e+03,-6.913611736773637604e-04,5.641934122315519495e-01,-8.256423654429595471e-01
1.514502896259824638e+03,1.593077403762657013e+03,1.394565961314076048e+03,-4.809404750189706125e-03,-9.771874765618822067e-01,2.123240572251998692e-01
1.614625300624931242e+03,1.489761858458891766e+03,1.513738939306322209e+03,2.016154424458048711e-01,9.262631249000127243e-01,-3.184145675339710158e-01
1.647234840480530238e+03,1.474230722689842878e+03,1.523112087320290584e+03,-3.002891540165079642e-01,8.517790335712254191e-01,-4.293004797906928571e-01
1.482273322106283331e+03,1.609061291956204968e+03,1.461090467934071057e+03,9.439837568317498151e-02,-9.128964855557331060e-01,3.971258658515826601e-01
1.781217630903101508e+03,1.476595486250147133e+03,1.324154833807767773e+03,-2.928337042369912324e-01,-5.040804245747795287e-01,-8.124969829010766365e-01
1.532564707811985954e+03,1.452048392232870810e+03,1.490231228994667845e+03,-2.547240140261214369e-01,9.538439178324823464e-01,-1.590517434434493560e-01
1.464758180555301578e+03,1.468880187147183733e+03,1.467340772220369672e+03,-4.134358782124198523e-02,8.733708822075795242e-01,4.852978568446613128e-01
1.626109935049433034e+03,1.533529325314176731e+03,1.598428993531317019e+03,4.347285882273483337e-01,5.595223521518843945e-01,-7.056527418073845759e-01
1.491679885881933842e+03,1.544773442780870482e+03,1.458529793568558716e+03,1.827539949831641364e-01,-1.749592349362812937e-01,-9.674658874752146698e-01
1.376393750629040824e+03,1.598464840515919605e+03,1.522597554271267654e+03,9.277835721638567901e-02,5.457005974061971409e-01,-8.328283343059049715e-01
1.427724433559901627e+03,1.646861497017571992e+03,1.529620242566548541e+03,1.306578785265235756e-05,9.324674096569398607e-01,3.612541069067062849e-01
1.724294890293149820e+03,1.378405285489739754e+03,1.367687660764464908e+03,-1.589269134544902398e-09,9.969647202376247241e-01,-7.785465048097536811e-02
1.462361613329884676e+03,1.715312031337225335e+03,1.486737300551528051e+03,-1.515218409192267170e-02,-9.053890412046006197e-02,9.957776449378198391e-01
1.385758598756222455e+03,1.235318527413934362e+03,1.415170742837469334e+03,8.093100467225258776e-02,-9.435027907725477281e-01,3.213295135638086775e-01
1.666060754573898521e+03,1.433139178999766727e+03,1.413025893210185586e+03,-1.975229256110185797e-03,-9.191618228244361477e-01,-3.938751603382038557e-01
1.668337448112205948e+03,1.455444050957290983e+03,1.457139540836113156e+03,5.435013109983911558e-04,-8.840809124673605635e-02,-9.960841902211047261e-01
1.532064756365137555e+03,1.593066000318149236e+03,1.384325586880509945e+03,3.360717244278041971e-01,2.798882853332833598e-01,8.992876868796306766e-01
1.527432183726824860e+03,1.478450524597549474e+03,1.407952225417364843e+03,5.026385206654542248e-01,-8.327773501065989237e-01,-2.320267284014387310e-01
1.526598888609561982e+03,1.458718255451196683e+03,1.540457257893337783e+03,-3.487733026268439313e-02,-2.664866586194467590e-01,-9.632073673989366425e-01
1.631539744703339693e+03,1.364051782389565915e+03,1.412865332223261930e+03,2.032040699580751342e-01,7.792702557562958265e-01,5.928287901628860324e-01
1.615716695833088579e+03,1.369828546247415261e+03,1.557310259628663061e+03,-3.532673022667740787e-07,7.582584513925534342e-01,6.519540788212324633e-01
1.539463071000878244e+03,1.483937381685182572e+03,1.531137606906470182e+03,6.398134687947744370e-02,-9.336606946412797647e-01,3.523976369578132872e-01
1.606532535092491798e+03,1.470588790145613757e+03,1.516525411183568167e+03,-1.682391896147797286e-04,-2.024750207238620037e-01,9.792874132135298559e-01
1.530441201404518097e+03,1.529739785824425326e+03,1.316233448017675300e+03,-1.755279579098995846e-01,6.482821332186170515e-01,-7.408914979546598056e-01
1.623373854710205933e+03,1.349212509751159132e+03,1.467140042545843471e+03,-1.874381205061274522e-02,-8.304813141063157600e-01,-5.567310449670093142e-01
1.730867615500160809e+03,1.383563041530191185e+03,1.521371148947618167e+03,-2.748628151340120913e-03,9.749152049053947389e-01,2.225596286112058453e-01
1.567586119815167194e+03,1.526293732400065437e+03,1.388439057709059398e+03,-1.722305249414358020e-04,1.295895867392770906e-01,9.915677028551250771e-01
1.617183138533277315e+03,1.411955278900906706e+03,1.502161053515699678e+03,2.168629942876231940e-04,2.372351208139689416e-01,-9.714522378495111798e-01
1.497610909787419587e+03,1.433231333305132466e+03,1.502881173329597004e+03,-6.040632842940149017e-01,3.635057126069183853e-01,7.092045864699865199e-01
1.575642561752638358e+03,1.358367659910488328e+03,1.461968864357863140e+03,2.910733146114352372e-03,7.629885353162001449e-01,6.464054630095508180e-01
1.372568048908492301e+03,1.371788960183004292e+03,1.592120133576264607e+03,1.694577413931528856e-09,-9.809912107081294463e-01,1.940521695663267876e-01
1.337105750754198880e+03,1.374753169598258864e+03,1.647491829096916263e+03,-1.890235659289245194e-10,3.022669205628739086e-01,9.532233257392715986e-01
1.442000130773756382e+03,1.627533692481866638e+03,1.497981551660215018e+03,-7.495105510155587458e-01,-5.910814075243319143e-01,2.980884157350100483e-01
1.600061237220866133e+03,1.369650855177264020e+03,1.459571186565326116e+03,-3.194587007122509756e-04,-2.255541053787346040e-01,-9.742305905138358701e-01
1.518068578005165136e+03,1.391454482882822049e+03,1.468118980154314841e+03,-3.802564096298395313e-01,-9.232009064162490786e-01,5.572386676855753396e-02
1.533247871872875294e+03,1.449442555234245901e+03,1.513676236040350432e+03,-7.252605966025117560e-05,4.205679462475002128e-01,-9.072610414479013174e-01
1.590451220160366120e+03,1.395704220014388284e+03,1.596634450584788965e+03,1.193105487066992935e-04,8.458694625210843032e-01,-5.333899494172016365e-01
1.456856886507301169e+03,1.448299440772474554e+03,1.467279236002067137e+03,7.900563813657300594e-02,-1.883429448966233155e-01,9.789203462234812303e-01
1.609756378654389209e+03,1.519880390197385168e+03,1.487371200260866772e+03,-4.413610332427422739e-12,8.305099518216058074e-01,-5.570037880708477163e-01
1.517180075033944831e+03,1.628298251687028369e+03,1.387567033836972541e+03,-3.591567013334848353e-03,9.517780066910870307e-01,-3.067665669944003026e-01
1.539579215260896945e+03,1.492910930310447156e+03,1.429476529757600701e+03,4.615671526260766155e-01,3.775933065632874897e-01,8.027322458050749621e-01
1.807936583515848270e+03,1.504815664876329720e+03,1.384224369988382477e+03,1.183840335318068898e-01,7.690902118005762400e-01,-6.280807804074924894e-01
1.488825036209916334e+03,1.482992362893589416e+03,1.529338146989387951e+03,6.467309356219241682e-03,8.631932462758082902e-01,-5.048322429218667917e-01
1.477310377586005188e+03,1.552831651479223865e+03,1.567882975307468996e+03,7.379451993863457224e-03,-7.793153401615845466e-01,-6.265884967641076608e-01
1.567430117275004250e+03,1.557848067213136346e+03,1.443023313471645906e+03,1.261287345967372414e-03,-9.995837520734915937e-01,-2.882241740228214805e-02
1.705347908297313325e+03,1.456367219687814895e+03,1.322980988543499507e+03,-7.195451399591148648e-10,2.354331486951182217e-01,-9.718905455325215215e-01
1.728595298298738271e+03,1.461406849574026865e+03,1.461707862999626286e+03,-6.889748304306873017e-01,6.734552477495366896e-01,-2.679024305817621077e-01
1.729728293223431137e+03,1.408957873964692908e+03,1.471860258579260062e+03,3.875079019629924515e-01,-9.176099468094280898e-01,-8.848509158405522268e-02
1.504251132142813958e+03,1.473311888032208117e+03,1.350181121305435681e+03,8.569474601774482725e-01,4.576145255815571855e-01,2.371286496233364627e-01
1.461561843380929986e+03,1.574670741363796424e+03,1.468335653643228625e+03,5.961408356107231882e-02,8.241936916508678657e-01,-5.631615395995075435e-01
1.412304681802290361e+03,1.729425666526876057e+03,1.463704244941211982e+03,-3.713581855636779831e-03,9.433289310234848069e-01,3.318384203251502074e-01
1.387731167239451452e+03,1.428984776272454155e+03,1.452321231400429269e+03,-1.012769337201925650e-04,9.642807339784168486e-01,-2.648823433546077522e-01
1.906045884197629448e+03,1.425750022470606382e+03,1.407632203285482774e+03,-4.113502752164518439e-01,9.005916288586770513e-01,-1.404481011228857490e-01
1.396379335489571304e+03,1.661906568025588513e+03,1.425979680128488326e+03,4.849379516884830960e-02,-9.595669380618651045e-01,-2.772717858143856628e-01
1.648327608474991848e+03,1.375762875357263283e+03,1.371841916986290244e+03,1.560593826607053203e-01,9.058553704487734004e-01,-3.937912097960988289e-01
1.477336120238927379e+03,1.584242545855950311e+03,1.423624802568808036e+03,2.851036783597078392e-02,-9.992845918576166442e-01,2.484881087324411833e-02
1.702198573782405674e+03,1.424424594247517916e+03,1.369922273299645212e+03,-6.864676282061269418e-03,-9.775805524336472763e-01,2.104498508506662535e-01
1.428037350824903342e+03,1.628598403255793301e+03,1.461898925264114041e+03,-2.208975261264211395e-05,9.519617467739315275e-01,3.062169691430698393e-01
1.681997687191825662e+03,1.414479967133904438e+03,1.500591243866154173e+03,-1.554723726350528412e-01,-2.853985178194426431e-01,-9.457145591422881914e-01
1.496944530379039406e+03,1.441573255724655155e+03,1.519184412501877887e+03,-9.734385220268761954e-07,-9.936742199152595045e-01,1.123011338983403440e-01
1.554477466374211417e+03,1.548386596163682498e+03,1.431108338769846341e+03,-3.193412065951601458e-02,1.861025146151716256e-02,9.993167017909000416e-01
1.619208231535799086e+03,1.430096260734195766e+03,1.494968920812300894e+03,-1.707430493701146386e-03,1.786385591820696395e-01,9.839132837066808523e-01
1.597322358791496299e+03,1.726588269270950377e+03,1.468467007288278637e+03,-8.449285564197451803e-01,-4.337913583643636661e-01,-3.129229808672505109e-01
1.614675310259918888e+03,1.503728279907994192e+03,1.489607905693874500e+03,-1.213699764246251917e-04,9.156316026087000237e-01,-4.020183497970616360e-01
1.430280057421174433e+03,1.555095221339083764e+03,1.645481206637071637e+03,3.873834886061128246e-02,9.540262774468241114e-01,-2.972090211761901912e-01
1.591868346949389434e+03,1.500108355809573823e+03,1.587563075783792556e+03,1.205112223678289694e-04,-7.834145871295007391e-01,-6.214994530566855246e-01
1.597790520924773091e+03,1.442857840644775706e+03,1.494221383408773136e+03,9.943787652294501582e-06,1.454185409119695682e-01,-9.893702279026567181e-01
1.600446452069854331e+03,1.359840611165847577e+03,1.484663542348538158e+03,-8.387897429724634647e-07,5.731878479965932249e-02,9.983559269661230751e-01
1.604958803287694309e+03,1.407811234193325163e+03,1.504370505112004366e+03,-1.082218108165466236e-01,-9.170577818817722271e-01,-3.837877855712339970e-01
1.695522219658799031e+03,1.368520661490991870e+03,1.462688024725539208e+03,-2.237020792060636851e-03,-2.816662443201368160e-01,-9.595098345241516169e-01
