x,y,z,nx,ny,nz
1.618052619347613472e+03,1.349530392766134355e+03,1.598074485111372496e+03,5.195995033459885317e-08,8.505241335164288596e-01,-5.259360211148550457e-01
1.534149765304461425e+03,1.500290957412430998e+03,1.416745875322153097e+03,-4.672200625486853769e-03,7.494767719162666320e-02,9.971765220987180989e-01
1.391355338982543799e+03,1.569157200898554038e+03,1.610176913010312092e+03,3.998012925494255445e-06,-5.776016532269292458e-01,-8.163187675004992538e-01
1.564248977047449216e+03,1.380754566614429223e+03,1.525830274844300448e+03,-7.551711152827478827e-09,4.063728129497518049e-01,9.137073584552694028e-01
1.450555677542490912e+03,1.555244566277184504e+03,1.572702221429313340e+03,1.818278605496212409e-03,8.128898831950270853e-01,-5.824145702693983573e-01
1.450970012406215801e+03,1.385387106261903682e+03,1.545520831927163727e+03,-2.436946881484831628e-01,-4.027664011264573719e-03,9.698436352788143422e-01
1.432226443076746136e+03,1.471681639089767714e+03,1.576278769941787232e+03,1.121365830731426772e-04,9.490664175740795017e-01,-3.150760582121237552e-01
1.543465201280207111e+03,1.455877241224884756e+03,1.580831395878748026e+03,-1.457567948785669018e-02,-8.687398812126546632e-01,-4.950541064955325532e-01
1.603630821753258260e+03,1.491164107365113523e+03,1.574994261118657050e+03,-2.901934695739232239e-01,-7.139328216624557522e-01,-6.372500893446251258e-01
1.576114541729894654e+03,1.540300335175148575e+03,1.566566154305587588e+03,1.292494285549082855e-01,3.448506189111311127e-01,9.297164276567557728e-01
1.492510767322142328e+03,1.480422632167918891e+03,1.540937966556561378e+03,3.760215993583000404e-01,-1.561679080219978699e-01,-9.133560868139320998e-01
1.598215789464613181e+03,1.512120249401817773e+03,1.574902693877583488e+03,-2.506300660286633897e-01,9.495022207308096984e-01,-1.887593781239187973e-01
1.491028355490845797e+03,1.354920316678108975e+03,1.647323892314117074e+03,-4.775325028493474693e-05,-2.163249067541972992e-01,9.763214288529239449e-01
1.357202166360497586e+03,1.449322609326636439e+03,1.436571366181069607e+03,3.816869761802017813e-03,-5.169521748500952585e-01,-8.560057712556488063e-01
1.478171969376005336e+03,1.394370869518031213e+03,1.626789428201316923e+03,9.314661678400064648e-01,2.837723841741702779e-01,2.276928021470157049e-01
1.428832628212237069e+03,1.464857740133387779e+03,1.479244726294711654e+03,5.708860379383468714e-03,4.289048139982008512e-01,9.033316497512624554e-01
1.658765610655123510e+03,1.393538254869074080e+03,1.507565336792233438e+03,4.574600329452310440e-04,9.101872247410105476e-01,-4.141968211473566752e-01
1.587865980751555753e+03,1.365744028165218424e+03,1.532128498508005578e+03,5.501671292053381742e-07,3.208778105689294446e-01,9.471205998626508471e-01
1.558069617203233975e+03,1.316176610605938095e+03,1.413856618810555801e+03,1.339913773480579939e-01,9.049754682789434845e-01,-4.038139579183429584e-01
1.517393479256131968e+03,1.335369677974709930e+03,1.569251215870172018e+03,1.748727220437224554e-08,9.838452623442439648e-01,-1.790209478323291636e-01
1.338545304749464776e+03,1.381323050494555673e+03,1.505328166541729615e+03,-1.435365055257206224e-03,-9.996357096401766729e-01,-2.695158138845483997e-02
1.480221112980930457e+03,1.531642252125788218e+03,1.686016288337350261e+03,-4.963154616171370770e-01,6.848782244368609162e-02,-8.654365261165548606e-01
1.457647116399120932e+03,1.443355071967790991e+03,1.627026334620813032e+03,2.070074132840511284e-06,9.963897331425984882e-01,-8.489699455066707090e-02
1.661417836192092864e+03,1.424939898367986416e+03,1.683951647579088103e+03,-6.851878379923605591e-05,-8.428634724289890690e-01,-5.381274590188862561e-01
1.437467972717510065e+03,1.476201288102473200e+03,1.531539860297446694e+03,3.546586592687395265e-03,-9.924579303600509217e-01,-1.225343959424660401e-01
1.515791709750266136e+03,1.444051559607033369e+03,1.765446192861441659e+03,1.181942562184956115e-02,1.732244685099973980e-01,-9.848114462613635212e-01
1.505452029690006839e+03,1.542896458759220650e+03,1.453521216429826154e+03,3.319259287248756823e-02,-2.059949529870453155e-01,-9.779899442848409841e-01
1.464124850529285141e+03,1.549146979303933676e+03,1.537880732075078413e+03,5.918177224394188807e-01,-1.035975308550617507e-01,-7.993868494085661913e-01
1.457625522090005006e+03,1.468463991153825646e+03,1.606078434513967977e+03,1.623804157710725393e-01,9.867143168750678317e-01,-5.239985475339654745e-03
1.524506513922877275e+03,1.514935118629571207e+03,1.541932742752408103e+03,-1.256618142792258197e-01,9.347041520396369707e-01,-3.324714372572729060e-01
1.474673248647640094e+03,1.539022875216420289e+03,1.579390777920491018e+03,-5.684738151627080703e-07,-3.718777381722351283e-01,-9.282817179345823622e-01
1.434183512510415085e+03,1.435371800028700363e+03,1.503701277969488729e+03,-3.939788980746883321e-08,9.953347372273585458e-01,9.648191990494180137e-02
1.559091600575889288e+03,1.367825068281523500e+03,1.614677119063543387e+03,-1.529237436753442536e-01,-3.649158010082446113e-01,-9.183957680623473507e-01
1.547502915118832334e+03,1.468719755566082540e+03,1.606024919508562562e+03,2.313617384273470856e-01,6.464047462543179856e-01,7.270712826207390567e-01
1.482973404659268908e+03,1.538622550056365753e+03,1.464781355922427565e+03,-2.131046199636976723e-02,-9.482472683527902735e-01,3.168169538881602243e-01
1.536189544513144483e+03,1.552800123973311884e+03,1.506987362395455193e+03,-5.244867341748703227e-02,2.999324111452257302e-01,-9.525175512300846359e-01
1.421216788138852735e+03,1.364998032419218589e+03,1.606377460743556185e+03,-1.446437123497294704e-07,-2.545713224366287220e-01,-9.670540014874273727e-01
1.578803444033728283e+03,1.524286666083153932e+03,1.510662367853806245e+03,7.896868707147760569e-01,2.254522955159642961e-01,5.705838314106761455e-01
1.704334143361222914e+03,1.503275508232991115e+03,1.536347385271711573e+03,-4.450948819807905993e-02,-9.949127317916856006e-01,9.037456267750604288e-02
1.565470919919757534e+03,1.439282798673747266e+03,1.345186423018285041e+03,1.415895655492208942e-05,2.800918519813016538e-01,9.599732049662680344e-01
1.433989474229606913e+03,1.381872620931433175e+03,1.572211840510214643e+03,-2.505569950153471170e-01,4.293294412162348972e-01,8.676966193052931819e-01
1.463603622214431425e+03,1.336676907872413722e+03,1.550774826451468243e+03,1.456559398356268393e-03,1.857088131198439684e-01,9.826037426981122369e-01
1.545445387401553489e+03,1.405973814831081199e+03,1.596902690321813679e+03,5.704415287224657433e-02,-9.680154941408026792e-01,-2.443193969508469232e-01
1.461512832493472615e+03,1.463092256205171907e+03,1.526434059488246476e+03,-6.982611963312365753e-04,-8.642728667419857791e-02,-9.962579166809353293e-01
1.495256219476146725e+03,1.566874001496970550e+03,1.557968764153869870e+03,-9.226703651803612113e-04,-9.916893527202534919e-01,1.286521526469028287e-01
1.462539936443775332e+03,1.500505925192708901e+03,1.452466287777435355e+03,-2.639451464162658606e-02,-3.460811074071826199e-01,-9.378332456746514278e-01
1.395306850792084560e+03,1.472468385315246678e+03,1.649671446259862932e+03,5.760263624918323666e-01,-6.160224535611008578e-01,5.373173796025860760e-01
1.423743824344773884e+03,1.424951191125029027e+03,1.551107865230135076e+03,1.288171572792249832e-06,9.783157969548300636e-01,-2.071188099303788721e-01
1.501758478339800604e+03,1.526416541767381204e+03,1.548527232283779995e+03,6.898456596224274455e-05,5.817603457497072528e-01,8.133602494309092323e-01
1.466345137464860954e+03,1.450189445543311194e+03,1.485485281833397494e+03,-3.314823562520951561e-01,-4.047863273890500158e-01,-8.522132811992805257e-01
1.431046860792712096e+03,1.469491783993573563e+03,1.572424719019816621e+03,5.225510729741963956e-03,9.324328469181820678e-01,-3.613055217204235725e-01
1.505706854088459067e+03,1.433943678166906466e+03,1.564506161340213794e+03,2.584796841263187358e-04,-2.966483315309182411e-01,-9.549867541427867756e-01
1.637670352585590535e+03,1.432111333149202210e+03,1.497237594703936338e+03,-2.202539550883783614e-02,9.750069741475235752e-01,-2.210798098342986739e-01
1.597961109095722122e+03,1.379766458567785321e+03,1.695031402924339318e+03,2.891102929047703607e-01,7.231501137403530954e-01,-6.272711945672558853e-01
1.553462101873799384e+03,1.456074304146825625e+03,1.775807192307667265e+03,-2.752237198529475671e-03,-9.963281389226692486e-01,8.557257026228400065e-02
1.479568164995081361e+03,1.521945877113565075e+03,1.561452799245803362e+03,1.301131124378966305e-06,-5.578839361453857837e-01,-8.299189802560478224e-01
1.505175610592691555e+03,1.626814182984105628e+03,1.522638613037341656e+03,-1.304895456555488437e-03,3.274835640153641036e-01,9.448559744996283261e-01
1.356968371308118549e+03,1.385643143341614632e+03,1.586956002802148305e+03,2.757284061573491707e-01,-9.418514710847236682e-01,1.920667916467337366e-01
1.549922218527203768e+03,1.527883114112381008e+03,1.605808004751208500e+03,-1.102081609442106744e-02,-9.169767545714009316e-01,-3.987883814610374555e-01
1.499476447126944095e+03,1.399718049253639947e+03,1.646607571068198695e+03,4.092885010771895628e-03,6.243316095058181608e-02,9.980407550325824939e-01
1.503867962997278028e+03,1.536367500531139285e+03,1.539427535286673447e+03,-5.564972956119820791e-02,-9.450263548053425833e-01,3.222239847110895394e-01
1.561557598485233257e+03,1.369652611581881956e+03,1.640858507773819838e+03,1.040126794550264621e-05,4.214186140236798050e-01,-9.068662258823925182e-01
1.464997114200350779e+03,1.451028380297929289e+03,1.464947210035349144e+03,-9.108436900070342179e-03,6.818986345609717725e-01,-7.313899702355234345e-01
1.560060911963755416e+03,1.456977846598689212e+03,1.772066857860890423e+03,2.285823335708056792e-01,3.667432966711048348e-01,-9.018034548204697520e-01
1.576225939934791995e+03,1.547558749187777039e+03,1.571437220078114706e+03,-1.045881634061407855e-01,-9.879366653593439906e-01,-1.142035958890523090e-01
1.526142326470868511e+03,1.434179249588597713e+03,1.473221835405644015e+03,-1.855359054077564910e-03,5.206397214701192766e-01,8.537744655764173407e-01
1.428244956341143961e+03,1.373913406139008430e+03,1.443254804487179626e+03,9.449241252556858650e-02,-9.742250699263804714e-01,2.048333398205399170e-01
1.491489569844340394e+03,1.492469484082870395e+03,1.672976123901060646e+03,8.205551607088463432e-05,2.020478355536621806e-01,9.793756508178935727e-01
1.572464060627454501e+03,1.461590732740108251e+03,1.445145817480648248e+03,-5.205536879732243494e-02,9.883025935399801787e-01,-1.433465108801869059e-01
1.352982809083190659e+03,1.373989154287737620e+03,1.609972149165373366e+03,-6.954648188567025322e-08,-3.753897972438026143e-01,-9.268670347602464554e-01
1.588333598880069758e+03,1.353380865029456345e+03,1.549489677980732949e+03,-2.574861797604942049e-01,8.945877659936276594e-01,3.652582595464160531e-01
1.500923576889619426e+03,1.490646146564336732e+03,1.631349356751592723e+03,-3.224595578740434981e-02,4.276251054216274050e-01,9.033808540967087630e-01
1.579065860963359683e+03,1.545226288320277945e+03,1.569941257947103622e+03,2.235444151677216940e-02,-7.875556269380388219e-01,-6.158379765999382194e-01
1.505106925648927927e+03,1.365624651931882454e+03,1.392189628442565891e+03,1.611409539388827533e-07,9.897111969526177777e-01,-1.430795115542078111e-01
1.477310353215076020e+03,1.570436830572530198e+03,1.430796477674086191e+03,1.413922274848058511e-11,-8.253596253680508532e-01,5.646073758040278667e-01
1.539755010308213969e+03,1.495326605134177271e+03,1.594338817133219436e+03,-3.325406112714601910e-04,4.392725809436140438e-01,-8.983537660898839317e-01
1.467151858133536962e+03,1.408351645356597601e+03,1.562522767714091970e+03,1.599866842320600280e-01,-9.142788981834767403e-01,3.721536741788788460e-01
1.637274700697440267e+03,1.500076864277420555e+03,1.626433797580691362e+03,4.464026184557346455e-01,6.675772782708134789e-01,5.958735434405496578e-01
1.465200320181141024e+03,1.473826128534837608e+03,1.527187896982072516e+03,5.753881899436112668e-02,9.928577240690551475e-01,1.045123153755100898e-01
1.470266363800612908e+03,1.392785618777303398e+03,1.365048982004787604e+03,-4.083407890575604770e-09,-1.681134372973263347e-01,-9.857676562963901823e-01
1.551248193979917005e+03,1.576630504191988166e+03,1.524869271949820586e+03,5.642970012983903466e-02,-1.363968109873384404e-01,-9.890458022234059898e-01
1.516676895393273298e+03,1.557610899099561721e+03,1.706758701805745432e+03,-1.550520832846067065e-01,-8.349124452159102372e-01,5.280909583515828176e-01
1.477470319168487549e+03,1.626674174243149082e+03,1.608923297295270913e+03,4.816435038555006987e-01,-8.009375686062888411e-01,-3.556944565056400775e-01
1.499429709696384407e+03,1.478904970427060334e+03,1.518657708443636920e+03,-4.081265272342784003e-05,2.345914432413333806e-01,9.720940556819981371e-01
1.518590765902827343e+03,1.547649426422783108e+03,1.605809797374770369e+03,7.910195281288820917e-09,-9.790591537892153751e-01,2.035759646459899819e-01
1.537328521835397623e+03,1.556466439147602159e+03,1.599768825804038443e+03,-1.838697858474560021e-01,-2.241469313469376390e-01,-9.570527963598256527e-01
1.545303812042214304e+03,1.616290771239356218e+03,1.551542528194614761e+03,3.418147032965970322e-07,9.236014711711214575e-01,-3.833540432164808109e-01
1.449187827596972511e+03,1.474408504161141536e+03,1.568948700337045921e+03,-8.815569595397902691e-02,-1.842983711487692911e-01,-9.789089251114120316e-01
1.444614544865347852e+03,1.461075333899918405e+03,1.679777596099939046e+03,-5.258695645579378741e-01,-8.438420325441587933e-01,-1.067324935686772558e-01
1.494590332137159976e+03,1.546509707090150187e+03,1.538140414360411114e+03,1.894640656082657512e-02,9.914270454705599311e-01,1.292804980959941508e-01
1.535573141061119941e+03,1.518883966736417960e+03,1.651852758255706703e+03,-4.101958385160179958e-03,9.509055395125526333e-01,-3.094540819923818908e-01
1.481544983779439008e+03,1.376085675013479886e+03,1.490320777241590577e+03,-1.657985821910926694e-01,-9.529081200333143764e-01,2.539231082788609983e-01
1.480735603092219890e+03,1.402239073173459474e+03,1.502857994570803839e+03,-6.374798655016603553e-03,2.970747419057242489e-01,9.548329485641743331e-01
1.407314258070021651e+03,1.547496428924258908e+03,1.553407467983156494e+03,1.522206661207556373e-05,-7.281461304015229841e-02,9.973454927436637973e-01
1.582844736042580280e+03,1.463634908198514950e+03,1.585313434410394620e+03,-1.168954841597394240e-01,-5.834233773620569607e-01,8.037117695607741696e-01
1.380100654664253625e+03,1.502608801910811053e+03,1.533140213332295161e+03,-3.694231224906021835e-03,9.964641332808097385e-01,8.393797555684494316e-02
1.483511114388315491e+03,1.577134251466025262e+03,1.600884192106609817e+03,2.439862574919996266e-03,8.966225247450797520e-01,-4.427889962390376133e-01
1.554827247131846207e+03,1.509946450021764349e+03,1.597870389122266943e+03,1.358668287900964021e-06,9.862606028461585739e-01,1.651969227064651047e-01
1.590910057586611856e+03,1.523957125098950655e+03,1.689696855539335729e+03,1.384022462021537031e-02,-9.964574699005138703e-01,-8.295154526546495710e-02
1.615411101987295524e+03,1.328350592480420346e+03,1.409397157307215593e+03,-2.880537652586184771e-02,-5.925118543437257745e-01,-8.050465531541407538e-01
1.581563834560073246e+03,1.509381869601598282e+03,1.575543393863174742e+03,6.938352313659700442e-08,-4.134262573461191526e-01,-9.105376047900358705e-01
1.509845352934363518e+03,1.377325982080069252e+03,1.601848420427713336e+03,-1.568349258308540106e-01,9.072917015089910775e-01,-3.901596780967381828e-01
1.538634461842735845e+03,1.480659251247641123e+03,1.490061718847430257e+03,-9.420520702171860956e-04,-7.181675444145098341e-02,-9.974173982437810615e-01
1.500812055061091996e+03,1.401742362932355945e+03,1.597267121332425631e+03,6.387710932409470521e-01,4.482839498858991467e-01,6.253103155349846176e-01
1.401855678279458971e+03,1.421147074839724610e+03,1.683309434828458052e+03,-2.281413178895873306e-01,-9.735815319294893744e-01,9.515238169953643688e-03
1.546187974687454926e+03,1.528474006829396103e+03,1.514248157638955263e+03,-1.185070270799776365e-01,-9.905916847278085635e-01,-6.844120601499710521e-02
1.431249062122191845e+03,1.524171125513098332e+03,1.563813445493828340e+03,-2.098129957533323708e-01,-9.777312031639973089e-01,4.494571447244260012e-03
1.531997580189284008e+03,1.483298054660617936e+03,1.390414289606956800e+03,-5.085771743741628742e-02,2.797293876512729760e-01,9.587309123321828830e-01
1.430432086065117119e+03,1.484499161597452712e+03,1.596074890638321449e+03,-1.284325352249737198e-03,-9.959254581559437991e-01,-9.017112789170972365e-02
1.529835632963133094e+03,1.390513459632042895e+03,1.493072855878099972e+03,-4.501030648406985758e-06,-9.363038298089438882e-01,3.511910281667868783e-01
1.398816373127731822e+03,1.405569004713734103e+03,1.517418185010374600e+03,-7.235052363459645863e-02,9.490788640881834271e-01,3.066181851601159636e-01
1.480433447161460890e+03,1.462377617855625658e+03,1.555599449791300003e+03,1.359253054720821752e-01,-7.952972101732352916e-01,-5.907847821525109566e-01
1.474869850175046167e+03,1.556828818195821214e+03,1.444634099031533651e+03,-7.964732033645339961e-04,-4.875088980641825165e-01,-8.731176552668504787e-01
1.482320660496021219e+03,1.369533209002918966e+03,1.634737352307513902e+03,-1.206442428169337833e-01,9.099567747527519401e-01,-3.967664738315198059e-01
1.518248508515263666e+03,1.545770573447970037e+03,1.616193319489600526e+03,7.891214223297482455e-02,-9.641881179826227166e-01,2.532077150272694088e-01
1.561885738127858303e+03,1.620137240316761108e+03,1.564126625265400889e+03,-4.385631534221966221e-02,-4.817018508672396560e-02,9.978758724777919698e-01
1.479927710848368406e+03,1.551150744376808916e+03,1.557891538403627465e+03,1.889123568797659175e-06,9.962970604165369837e-01,8.597771456487172947e-02
1.520537682950862518e+03,1.487681633364923528e+03,1.641362319204725281e+03,2.896890563695255134e-04,9.838690417361541929e-01,-1.788899795780423407e-01
1.506972294063347135e+03,1.542717676964069369e+03,1.433483156771749918e+03,-1.420934423718418944e-02,8.579464570411863278e-01,-5.135425701797516895e-01
1.471681752715483981e+03,1.448198904368730837e+03,1.564154649665425268e+03,1.406148929615559096e-01,-5.816141143404139902e-01,8.012193668886355979e-01
1.352013544634684422e+03,1.515985129353350430e+03,1.467934462153656568e+03,-3.003124488986392421e-04,9.670306029562975025e-01,2.546600140548430091e-01
1.463713860264842197e+03,1.564785373459516222e+03,1.547246880413107192e+03,6.916286834453205801e-02,-3.326840868462596634e-01,-9.404986953747608291e-01
1.453715687246284915e+03,1.415500633976716472e+03,1.534176577295202605e+03,-2.616030992187587390e-02,1.840314377622044861e-01,-9.825721694104546655e-01
1.618393603745024620e+03,1.417933971988695930e+03,1.548560910905201808e+03,-1.829431200948178956e-03,-3.074371259324219507e-01,-9.515666381183680578e-01
1.482636493228226982e+03,1.502797361283840701e+03,1.636601759625920067e+03,2.373942021231512378e-01,1.767528768491045121e-01,9.551975781606011351e-01
1.523255351711804678e+03,1.350805778584241352e+03,1.570127570665749545e+03,-6.559786198058006335e-01,-2.078290999366962377e-01,-7.256025879068924711e-01
1.453290573111369440e+03,1.526922478998160841e+03,1.486979952354355646e+03,3.190266034461780847e-03,-9.835245805325283364e-01,-1.807462909465744338e-01
1.396944164928584541e+03,1.435566916337995735e+03,1.526525110784006074e+03,-6.151031964804064045e-08,9.715256101641653874e-01,-2.369345664843827692e-01
1.505481521841331414e+03,1.418439017252271924e+03,1.596221501157975581e+03,8.942368971472965458e-03,3.253173639808066286e-01,9.455626085721439145e-01
1.543482965616440197e+03,1.559909805521944691e+03,1.447487418519016956e+03,-1.876142820884360818e-07,-3.210910280638173270e-03,-9.999948450142803758e-01
1.511602594646928537e+03,1.501444912504429794e+03,1.451517672662130508e+03,-1.589280846470825226e-04,1.153185650377434781e-03,-9.999993224521303015e-01
1.421746444652665787e+03,1.437337259208856267e+03,1.541773489353852028e+03,3.559338327239630459e-07,9.991910521557988423e-01,4.021493866290409142e-02
1.370747248036748488e+03,1.542482890647945169e+03,1.451680449210136203e+03,-6.941275386807149034e-03,-9.654897679109675224e-01,2.603484717743327348e-01
1.484198895991589779e+03,1.515247218181786366e+03,1.630142768087292097e+03,7.715633601715198887e-03,4.158004295422346175e-02,-9.991053843444389626e-01
1.625618784830658115e+03,1.393740190362660769e+03,1.445538752867444600e+03,3.521693743966115148e-02,-4.101847071004733891e-01,-9.113222664778195536e-01
1.462548268392145474e+03,1.386561103466136274e+03,1.515485405864305221e+03,3.274843856670178743e-01,-3.482915614772165713e-01,-8.783205367905604355e-01
1.686365015999072057e+03,1.519060426891141105e+03,1.518874624960620622e+03,-4.845029745379677566e-01,-8.746491762707132578e-01,1.567437758969291231e-02
1.462624706870944465e+03,1.387833418504149222e+03,1.737955845862393062e+03,1.263702070869699931e-04,-5.644693447209226944e-01,8.254540222816186823e-01
1.473262492273297767e+03,1.399443804239688461e+03,1.603036892684432360e+03,-1.840643126466279811e-01,-5.222779525824320368e-01,-8.326740473055631586e-01
1.520588664133824977e+03,1.455142270489085831e+03,1.498716280658469032e+03,-5.813563783155654974e-02,1.146079684850324909e-01,9.917082540614714503e-01
1.550115939062556890e+03,1.439982846769762318e+03,1.622917201307333926e+03,-8.204371901712799063e-04,-9.540403684097447101e-01,2.996769966604305169e-01
1.466915632515032030e+03,1.516563008256199510e+03,1.570664420850389888e+03,-1.103526688058716482e-01,-3.314459030158461439e-01,-9.369983467762533769e-01
1.543223403239731624e+03,1.532443244890536334e+03,1.604330739490747192e+03,-4.502476900324372096e-05,7.053951658202082253e-01,7.088142619969288738e-01
1.592323258893854245e+03,1.371376289150634420e+03,1.406782757732525397e+03,-3.063010040892767960e-01,7.058240984335186763e-01,-6.387425435685426534e-01
1.575481416745446268e+03,1.544954384892838107e+03,1.538341429759089806e+03,-1.058820501048028488e-02,9.118088118918235008e-01,-4.104784774760759647e-01
1.641211566912160151e+03,1.429793309162389733e+03,1.553707242493993817e+03,2.009133627856572692e-09,9.837992655240266338e-01,1.792735483957011156e-01
1.452269346362091483e+03,1.513918390317488274e+03,1.490561329611139627e+03,4.196788130742685682e-03,-9.989402920587574508e-01,4.583317434948194075e-02
1.504340986108685229e+03,1.583484583888893212e+03,1.501567952240640125e+03,7.536055978727504989e-01,-9.450747799473163679e-02,6.504974553815945360e-01
1.544430550043397488e+03,1.496231785138173564e+03,1.488982276247564869e+03,-1.464047852062373180e-02,-9.711699549123583575e-01,2.379381748778764127e-01
1.545171597178872162e+03,1.441741833171551434e+03,1.536273131213860779e+03,-6.794018446701292901e-02,-7.306534372639972297e-01,6.793597617970131841e-01
1.457391777270663852e+03,1.539975625025281715e+03,1.365649728258846835e+03,-9.998507936336564761e-01,-1.054099635062491058e-03,1.724179062935848883e-02
1.497572662381637883e+03,1.516491035913530823e+03,1.549453714700379351e+03,3.388825257174564454e-02,-9.125359305378072383e-01,4.075901885658334001e-01
1.608852918145918011e+03,1.519723462289726285e+03,1.564505638691983904e+03,-2.303774637436696061e-03,9.562865320413909132e-01,-2.924222311293545595e-01
1.515404926253904023e+03,1.505399090007552331e+03,1.624731026393368211e+03,7.211215741419702366e-05,-9.726116564804954123e-01,2.324361427964753701e-01
1.567260992196663437e+03,1.504100410666837433e+03,1.625007996646864058e+03,7.656511204274467353e-02,9.903147656973176893e-01,1.158207600551334621e-01
1.666560214723770059e+03,1.410206894697216967e+03,1.561057713704336493e+03,-9.178913728659914006e-02,-3.061397820930915614e-01,-9.475511532873444054e-01
1.370591421535038080e+03,1.359067946095451134e+03,1.557036248330460239e+03,1.459098691059015570e-08,-8.274810865608698274e-01,5.614935897978194923e-01
1.626229232354659189e+03,1.622603456104660609e+03,1.541076407139088360e+03,-4.774301573233453305e-02,-9.941164291153476995e-01,9.722720715793520263e-02
1.410492536639103946e+03,1.398317391441797781e+03,1.451694894751198035e+03,9.114824570778307100e-03,-9.983655393856624150e-01,-5.641958649457792796e-02
1.458860681920287107e+03,1.436270689516805305e+03,1.676030698013284109e+03,-9.414074282311155062e-02,9.914777368986784634e-01,-9.005230577274371540e-02
1.489548681359153079e+03,1.458455098050767901e+03,1.378562691461947907e+03,-2.637572355586184289e-02,-3.030671521506161925e-01,9.526041268513485427e-01
1.577430001090541964e+03,1.507223151833301699e+03,1.487476676652372362e+03,-4.117053218427550319e-04,9.963160253474071526e-01,-8.575667982538057177e-02
1.452153672224710363e+03,1.589547075699461629e+03,1.625233491670510602e+03,5.128854621276658123e-03,9.999791678488211266e-01,3.919020113890526839e-03
1.667903166749089223e+03,1.512966212918218162e+03,1.596251022270006160e+03,9.407967392173243182e-01,-3.386553576689836920e-01,-1.463024949010516274e-02
1.416823955492369805e+03,1.504802921023897397e+03,1.492882611946318093e+03,-1.436737768427345846e-05,-9.522136228049420392e-01,3.054328344141574170e-01
1.574241128024796581e+03,1.534094256151194031e+03,1.471948077348102061e+03,5.501348775695027310e-02,5.537956857785303333e-01,8.308332291007042292e-01
1.475119437899376862e+03,1.494218786273199612e+03,1.567932818588144301e+03,6.770125139340825438e-02,9.042759515022720240e-01,-4.215466096346016656e-01
1.472009814691237352e+03,1.597112517687722402e+03,1.545728104249550597e+03,9.023732322828061925e-01,4.037831194431771298e-01,-1.506045886160769787e-01
1.371438195327423955e+03,1.516268382679459137e+03,1.493133923881512601e+03,-8.038321100630270298e-07,2.516795732534707897e-01,9.678106180479240095e-01
1.658777669872514025e+03,1.351301239030658508e+03,1.386198251692198028e+03,-3.331116945453026050e-03,-8.684967743549633079e-01,4.956836255061487506e-01
1.494380659398932039e+03,1.549181057324662561e+03,1.488472547313444920e+03,5.590516895604684400e-02,2.912204201005626492e-01,9.550210882490751674e-01
1.495585460696833934e+03,1.541444795981418565e+03,1.487410409436324471e+03,1.570378653334354816e-06,-6.769566070696798610e-01,-7.360229290872948305e-01
1.474878257593228227e+03,1.576716047047700386e+03,1.667164448937530778e+03,9.287282289174705885e-02,9.790134136495701744e-01,-1.814038992478770873e-01
1.593353869901357484e+03,1.364400625127722606e+03,1.503451338308120285e+03,8.605413611998989909e-01,-3.838206811494289106e-01,3.348884148283031714e-01
1.536909199401463638e+03,1.401317293179925628e+03,1.650738613897925234e+03,-1.451329033493571272e-02,-6.073093860183584880e-01,7.943328484065470541e-01
1.359972971301612233e+03,1.504975881833907351e+03,1.549674737027273750e+03,-1.228560699387645644e-01,3.600668323927363468e-01,9.248017421533453186e-01
1.487876187392480233e+03,1.467702261654045742e+03,1.484304835469691398e+03,2.498735103238102495e-01,5.041251095886614131e-01,8.266928708539084125e-01
1.488387132852007426e+03,1.501595881934472118e+03,1.443822644551634312e+03,-4.508393944644730617e-02,-1.050444170942373134e-01,9.934450708727287083e-01
1.535051274495328016e+03,1.633011196969577213e+03,1.517341023666718002e+03,-6.724849010392947024e-02,9.936013109879097138e-01,-9.074180614165038017e-02
1.569671386154597940e+03,1.481171644569272758e+03,1.548112729311011890e+03,-2.524559741931679813e-02,2.119761712146017441e-01,-9.769487001107783897e-01
1.520206007567097004e+03,1.463059961796659991e+03,1.669829562845241071e+03,-3.802806936966155849e-06,-7.693206902750371334e-01,6.388627986510710954e-01
1.457996664488098759e+03,1.541900365160485535e+03,1.691932442851781161e+03,5.302961190781347139e-10,-9.830371401423197986e-01,1.834066004832133334e-01
1.643041157515483746e+03,1.363234400378527425e+03,1.427787958810116606e+03,1.004919400094515629e-03,7.345975221403283628e-01,6.785023733210439056e-01
1.313287718440500612e+03,1.516341468379599746e+03,1.555578147335055291e+03,-1.100125305964036769e-04,8.676569461763368185e-01,-4.971633651519353214e-01
1.518644550818754396e+03,1.416507515590375988e+03,1.758799789748054764e+03,-9.960992193614248702e-01,8.802510376915667623e-02,-6.158432754304943302e-03
1.511768574279050199e+03,1.478688025914479340e+03,1.475135186534147579e+03,-5.775760390122701080e-03,9.668675067781205834e-02,-9.952981024975796620e-01
1.398432705647802777e+03,1.538336753384997564e+03,1.581784108827333739e+03,-1.683176399468147779e-07,-1.695646720881321123e-01,-9.855190622101716036e-01
1.438191974737215787e+03,1.553054290091464509e+03,1.629501807493246133e+03,-1.320272698608906947e-01,8.913467346681255288e-01,4.336701495486514624e-01
1.535823262528074565e+03,1.422845720136043838e+03,1.472282625238500941e+03,1.404346841559779291e-01,-7.165723289308684185e-01,-6.832292418336630702e-01
1.457123291300944857e+03,1.491509196334185390e+03,1.422173519954461199e+03,-2.591788883656198084e-01,7.393658226985437565e-02,9.629951638652266555e-01
1.517946274265687862e+03,1.509442752329821133e+03,1.555159110251076299e+03,4.546433227290020418e-01,-6.464787156268838597e-01,6.126701554175355557e-01
1.429877654736610566e+03,1.464612422668784347e+03,1.496242670238179016e+03,-1.737858088445226948e-02,1.671073306106128087e-01,9.857855370123046468e-01
1.490382217356339424e+03,1.584623878832186847e+03,1.522060861079549341e+03,-1.875108325312184465e-01,-2.743495953203746174e-01,-9.431712396118724362e-01
1.547183958280372053e+03,1.448228251427070063e+03,1.566917288678686191e+03,-1.608420937934796952e-06,-1.901937807419176729e-01,9.817465690108158061e-01
1.467931330056240995e+03,1.533880101946422201e+03,1.463101385141595301e+03,4.642164935509781459e-02,2.582215878202536175e-01,9.649697622489211701e-01
1.621735851825974351e+03,1.361368959243942300e+03,1.511213562152067652e+03,-2.881642643304301865e-01,8.865323552377450955e-01,3.619692526714370917e-01
1.468960814127489812e+03,1.441561665943354910e+03,1.521283566365274510e+03,6.638957503285938984e-03,9.973055143686977431e-01,-7.305912162801375676e-02
1.599132278167925506e+03,1.536766092183865794e+03,1.570955908969483744e+03,4.244718849784042680e-01,-4.060459990796039809e-01,-8.092899761484300125e-01
1.632384695810166249e+03,1.605960130478573774e+03,1.506240688698984741e+03,-2.217232583623582592e-04,4.348468037268962000e-02,9.990540693134088990e-01
1.550930083015749233e+03,1.506692872721032927e+03,1.755629498487693809e+03,7.980453696025794925e-04,9.008893722956271000e-02,-9.959334046573776744e-01
1.447128946463853936e+03,1.521947768964647139e+03,1.526206512201750229e+03,5.408232938011448205e-09,-2.701386978700477393e-01,-9.628214184951823240e-01
1.486299161136308840e+03,1.482488379314362192e+03,1.472085611435496276e+03,4.629245799311710799e-05,3.481202951904794479e-02,9.993938765360599330e-01
1.453239851179979041e+03,1.638804254038346244e+03,1.535538637829873551e+03,-3.665645035263215279e-02,4.518471328448295798e-01,-8.913419507615760740e-01
1.463057024082943371e+03,1.434667149425876914e+03,1.625912783647836477e+03,-7.839763274611472044e-02,-2.137294448814156256e-01,-9.737420272179316827e-01
1.363117455074939244e+03,1.469456548185154134e+03,1.543372704114005273e+03,-1.144521391736840442e-02,9.794738750639945257e-01,2.012459568426357703e-01
1.545969173853148504e+03,1.564020414728845253e+03,1.464080147508138452e+03,-4.002796552748161783e-03,-1.975430870199820430e-02,9.997968518191400200e-01
1.567227123466537478e+03,1.544933662190268706e+03,1.469484209048882349e+03,-8.061282373910670651e-02,-5.275189879862803854e-01,-8.457099325198553785e-01
1.614791569208910232e+03,1.571398279214187824e+03,1.475017047052249382e+03,3.315613760223471018e-06,9.564671303370609889e-01,-2.918400736255978845e-01
1.488851603244693024e+03,1.524908797173646235e+03,1.537150883168616474e+03,-5.064197778446345721e-02,-4.366346606416115494e-01,-8.982124265520170514e-01
1.449996429358532623e+03,1.400161897102890180e+03,1.588603500097180131e+03,1.578012333385414856e-01,3.212542739059718322e-01,9.337528914300516902e-01
1.549330181213502783e+03,1.491878448621613643e+03,1.491078947229083496e+03,-1.878188005282388929e-03,9.305803297107616556e-01,-3.660829446522019803e-01
1.620155356893276803e+03,1.519244275964092594e+03,1.584710965708774893e+03,-2.940137311201785481e-02,6.204908572579669324e-01,-7.836623350132384536e-01
1.365518484572500711e+03,1.617088573680652644e+03,1.561974946192193556e+03,-8.768524313255103694e-04,-1.116271160257439748e-01,-9.937497764012773738e-01
1.444476035734604238e+03,1.497913440327430862e+03,1.576391590329895962e+03,4.646717254430951863e-03,-9.999098630041654001e-01,1.259658230428614342e-02
1.373368897990415917e+03,1.452825561951414329e+03,1.524351475544783625e+03,-3.807944373027989937e-01,-9.227438326441407268e-01,5.949298980927749531e-02
1.561864443037760566e+03,1.459127924676570046e+03,1.585961138807027510e+03,-1.946858147698850424e-03,-3.207256758374159022e-01,-9.471701275916515339e-01
1.500053350294306711e+03,1.444308388630856825e+03,1.501336839054729126e+03,-8.505083439941134771e-06,-9.478543588085431848e-01,3.187038035783524847e-01
1.466331951109612646e+03,1.523663515729246228e+03,1.699213011756881997e+03,1.190125784194945573e-04,5.113821781051790527e-01,8.593533928206772421e-01
1.604995209322789833e+03,1.244837682591229623e+03,1.504024383925233451e+03,8.933680193129858726e-02,-3.628890395485503961e-01,9.275400157385225164e-01
1.476834844264050844e+03,1.523387232859553933e+03,1.596962277357526091e+03,7.494405085984350015e-06,1.300968055146609348e-01,9.915012965895275698e-01
1.387688238094514418e+03,1.313564726981345530e+03,1.487137718474951271e+03,-4.088257928659857487e-01,-2.825678284310490299e-02,9.121748874590089873e-01
1.435725903128130312e+03,1.494126607093266557e+03,1.476310661606858503e+03,3.517360307889096371e-01,9.246390168438021195e-01,-1.460289463599257487e-01
1.455580409475030592e+03,1.333627505797969206e+03,1.612331381303509488e+03,-3.680205166270113931e-02,-9.766496338294280433e-01,2.116627074717230272e-01
1.322719480170221004e+03,1.483017481048822674e+03,1.510402790085247261e+03,-3.406593148423424020e-03,-5.517243346046331043e-01,-8.340195763459008482e-01
1.677209744211231509e+03,1.422587083243504594e+03,1.690985091376804803e+03,7.001157183113144999e-02,-5.934101705470761212e-01,-8.018495802212683987e-01
1.449344295787633655e+03,1.633448504850101244e+03,1.647017363005177458e+03,-2.263079366624801136e-02,-4.397727279829821145e-01,8.978239219916351876e-01
1.464374660170827156e+03,1.570165088879739415e+03,1.585030547257962780e+03,1.387076774759919001e-02,-4.556147151458548317e-01,-8.900690047095527468e-01
1.510355394427656847e+03,1.446409547679445495e+03,1.610010205906246256e+03,7.355422720531264343e-03,-8.413003497449825785e-01,5.405179176267630448e-01
1.479040357832587688e+03,1.529130535892789794e+03,1.586218526699075937e+03,-1.740723940323033098e-05,-9.409250495525620650e-01,3.386149004717552424e-01
1.394783018706591520e+03,1.397680391872808741e+03,1.650269584919927411e+03,9.327800178258042378e-09,-8.545012596833133633e-01,5.194493211080658535e-01
1.471941787309105166e+03,1.414168797746826158e+03,1.629425682047774671e+03,-2.855882632773489860e-01,9.544237724894533148e-01,-8.668682936425739505e-02
1.511930434272793946e+03,1.433770702211176513e+03,1.601363854532847654e+03,-1.901430968303997535e-02,6.937648503994529037e-01,7.199505457859604052e-01
1.483322013878660982e+03,1.456954368290118737e+03,1.590936283155455158e+03,-7.032647217871073990e-03,-9.889071268051162766e-01,1.483685830193127442e-01
1.470201977989260286e+03,1.379028220186281487e+03,1.586198489609173976e+03,-1.155971878510734518e-01,9.105071022115539536e-01,-3.970064319167165845e-01
1.385666068529416407e+03,1.488947003615626045e+03,1.536655594673529095e+03,1.865956151464123573e-03,-3.142446535196776747e-01,-9.493402003191157013e-01
1.580754365838072545e+03,1.547396843710355824e+03,1.637733852008007716e+03,-6.331698907400458154e-01,7.727893729314827542e-01,-4.350258089360137942e-02
1.531059833802992671e+03,1.482007205019945559e+03,1.388370262704990864e+03,-2.316756163042081873e-01,-1.391511611340278363e-02,9.726935685783143493e-01
1.442243907324739439e+03,1.529573424371691772e+03,1.551521136539470035e+03,-2.057314622861623581e-03,2.088403927251035463e-02,-9.997797879334263671e-01
1.377765118369145057e+03,1.459844543317849229e+03,1.594166907227991487e+03,-1.340633773953450736e-01,7.859117330113988276e-01,-6.036304819642337449e-01
1.505179491623798185e+03,1.414158941638151418e+03,1.642098728768180081e+03,4.348183836472868657e-02,-9.053730592188005133e-01,-4.223848403686074060e-01
1.334317466561373521e+03,1.486967610707916492e+03,1.441367067992376178e+03,1.092146283813565238e-01,-9.914351098532740991e-01,-7.161415989696817697e-02
1.527102177455369883e+03,1.626465897910319427e+03,1.647826387576443949e+03,1.848368676294466514e-05,6.006832066253778302e-02,9.981942679213980929e-01
1.443488634157312617e+03,1.461931710883522328e+03,1.570740578798936212e+03,2.359920458042744952e-03,7.024063356122478563e-01,-7.117722743035205246e-01
1.468796579274071746e+03,1.453018193531959241e+03,1.658257034108608877e+03,1.662163235638035585e-01,7.940757652222751872e-01,-5.846501628047247046e-01
1.599447775920546292e+03,1.412771278604588133e+03,1.498205796674389148e+03,3.359300236039645038e-04,-3.466806913223349218e-01,-9.379831477245671456e-01
1.565038119912474258e+03,1.350421416497343216e+03,1.572274094535165887e+03,-8.450221814713798976e-03,8.823828212846868135e-01,-4.704563215145043942e-01
1.482661609150791719e+03,1.449984793769287990e+03,1.421827584831206423e+03,-2.227976909661072077e-02,-5.803845679793201429e-01,-8.140376927025306797e-01
1.401858805307069815e+03,1.516573754883125275e+03,1.501906240995755297e+03,1.210226019598792868e-03,9.182786247135455993e-01,-3.959329523381209248e-01
1.586262677234432886e+03,1.530454136994547298e+03,1.663624762893104162e+03,2.040262034994672763e-02,9.980771907504742968e-01,-5.852909008772799043e-02
1.438614352802577741e+03,1.462299079790500627e+03,1.658113530388448225e+03,-1.490019822851121681e-02,1.462469974658780203e-01,9.891358854196760086e-01
1.494176307869390939e+03,1.376135904108858995e+03,1.346721773910200454e+03,7.841837072405193065e-02,-9.866634189538592281e-01,1.426389036387566145e-01
1.422654352202220252e+03,1.475270723136484776e+03,1.536681052214825968e+03,1.176900654449620220e-01,3.226799883639956956e-01,9.391627513934803773e-01
1.402885196480171999e+03,1.498748328711501017e+03,1.454795407614548594e+03,4.008169374082323766e-02,-4.050405175739836827e-01,-9.134197485002534256e-01
1.473011721535698371e+03,1.379411889642509095e+03,1.748870374393260590e+03,-9.629989748071012823e-01,-1.850552850870660349e-01,-1.959273232140343879e-01
1.470873539454548563e+03,1.452339501565738374e+03,1.567924184251440693e+03,-1.339857588336085259e-01,9.894646068806819406e-01,-5.484166445540814006e-02
1.547499239434242554e+03,1.656624305796722865e+03,1.563648312760960380e+03,-6.361792067463770128e-02,9.933500906143365450e-01,-9.596018781518111940e-02
1.497893747133239003e+03,1.512611873633115920e+03,1.678563939320585405e+03,-1.210014996757573583e-02,9.946347708099045892e-01,1.027387904673347091e-01
1.502952873937588947e+03,1.352901011114628318e+03,1.386215687338971065e+03,1.267953772117613384e-02,9.995896108631854293e-01,2.568733496419613530e-02
1.548392869267230481e+03,1.504802681048356135e+03,1.528265134721170170e+03,5.750521953327528690e-01,2.294629008718804819e-01,-7.852781352912119317e-01
1.544869657937689453e+03,1.591808609351172890e+03,1.700339437907185356e+03,1.545582563701751455e-02,6.763415417903672067e-01,7.364259883399737472e-01
1.552288943708286524e+03,1.429632331655103371e+03,1.578197388701976706e+03,4.939770648883409776e-02,6.850742879852678158e-01,-7.267964546797963665e-01
1.545626648992972150e+03,1.624218782667736377e+03,1.483960363127940127e+03,3.461525621032041089e-01,6.583004437980958246e-01,-6.684451581428483280e-01
1.448927208226735274e+03,1.407359031115592870e+03,1.483004504180944650e+03,6.985952460319333999e-03,-9.808837494511416510e-01,1.944691917268442927e-01
1.475002562093723327e+03,1.529892511881355858e+03,1.677042142018824961e+03,-1.904910545303793445e-01,4.081988297998920268e-02,-9.808398927946415657e-01
1.495224229765309019e+03,1.431325494800152455e+03,1.547366608983650849e+03,-2.920755531360487781e-02,9.578381490641504348e-01,-2.858198714399770579e-01
1.423821744617454442e+03,1.432370820251368286e+03,1.624786363363130704e+03,-7.699793286688919602e-01,1.265405140020329500e-01,-6.253953403557654944e-01
1.568336937429381578e+03,1.428183853044096395e+03,1.639810150507756362e+03,-4.056695165328092628e-02,6.224299720930123181e-01,-7.816234721871216928e-01
1.522996286351914250e+03,1.525145564767967244e+03,1.513759258985123552e+03,8.322028050310285030e-01,2.569131974111065753e-01,-4.913594410352667419e-01
1.443227649894872684e+03,1.475488930046708219e+03,1.632319424272418928e+03,6.388225795383210229e-04,-1.249887533536212930e-01,9.921579528688058147e-01
1.521184015703819568e+03,1.344894305294647211e+03,1.637615193453383199e+03,2.609462052646032391e-03,-4.192741676138804219e-01,-9.078559153739559351e-01
1.551363946351368895e+03,1.569989305653876045e+03,1.554555235251709746e+03,-2.945785121308061236e-02,-3.884424004684000620e-01,9.210020285103910354e-01
1.394072094333294899e+03,1.566749543687039704e+03,1.422145691834489980e+03,-3.195600951229763190e-03,-7.600211791596755972e-01,-6.498904487398603491e-01
1.422314402059842450e+03,1.401820097438124321e+03,1.623215792783098550e+03,2.157922068396510851e-01,-9.309277979643204581e-01,2.946305456747054796e-01
1.539417303419089876e+03,1.554769300246318380e+03,1.619379655110968088e+03,5.256260273119649305e-04,-4.287548277831467192e-01,-9.034207333075345847e-01
1.525710579467247271e+03,1.387548109172488921e+03,1.411586777902731228e+03,1.082670013494828332e-01,-1.546935469628954174e-01,-9.820123028490170825e-01
1.462020236601102624e+03,1.532182090280271041e+03,1.427127883225017285e+03,-2.474867490122551611e-02,-1.837825021098241363e-01,-9.826553286930702624e-01
1.441755628027797229e+03,1.434974791101195933e+03,1.440849192962413326e+03,-3.106599822336265958e-04,3.411967210619960555e-01,9.399918622131353541e-01
1.377183373264373813e+03,1.465016028843391496e+03,1.413092790100335606e+03,1.940175582600609308e-02,-2.470256014766317176e-01,9.688147005934500955e-01
1.533770357712072155e+03,1.352450343057691498e+03,1.719840851297745758e+03,-2.249938631469558113e-05,9.302869445981178931e-01,3.668326596747839563e-01
1.525395659374682282e+03,1.495543679330120540e+03,1.503942142586472755e+03,2.443767683448592868e-04,-3.060464139042073928e-01,9.520165612090840668e-01
1.417643727844111481e+03,1.498419084703970839e+03,1.611713559795179208e+03,1.775797747312644337e-01,2.183126523888528903e-02,-9.838642281658902533e-01
1.420719743266403839e+03,1.534846440027047720e+03,1.474267967787588532e+03,3.633221643585257676e-02,9.788155673492204834e-01,-2.014945536824307992e-01
1.378480062280482343e+03,1.473169304847803687e+03,1.606430629346499700e+03,1.028612639324943799e-04,-2.558077073880919358e-02,-9.996727532487663659e-01
1.477535510707881258e+03,1.346758966856978532e+03,1.468100204193686977e+03,-1.369822016995968783e-01,5.362771079094685867e-01,8.328521717266438307e-01
1.514592509932467237e+03,1.646741302535365776e+03,1.532248077458462831e+03,-1.859729058776524082e-09,2.353887331056377097e-01,9.719013037993738946e-01
1.555578085935711897e+03,1.468130078893911104e+03,1.421860944507079466e+03,-1.139889694345113808e-01,-9.218514363859318106e-01,3.704003834777337967e-01
1.461387156953795511e+03,1.506506656478214609e+03,1.504842510481893441e+03,-1.004018055096906389e-03,8.138347020061431625e-01,-5.810955771285110094e-01
1.500499017460752157e+03,1.378299504582276768e+03,1.648041921878627363e+03,-9.837212449560271965e-01,1.757687419273359086e-01,-3.738798715423774510e-02
1.373288563428401176e+03,1.464506217415425454e+03,1.656173351394647170e+03,4.400145552771092376e-08,-9.715574604455367025e-01,-2.368039295548483858e-01
1.526662916502798907e+03,1.484012486889395859e+03,1.566541396878444857e+03,4.070675142504637939e-02,7.716617822610495336e-01,-6.347291187476119534e-01
1.443191685680598766e+03,1.499891132287202936e+03,1.559630092447134302e+03,-3.404747512096358703e-02,5.727828755123233820e-03,-9.994038029823778535e-01
1.517090059887018924e+03,1.382465757195667265e+03,1.422681754802382329e+03,1.742586874261282393e-01,9.838035184870715932e-01,4.200650984051424591e-02
1.486892495853945320e+03,1.506317934715044885e+03,1.397936435223528406e+03,4.199645665748035772e-01,6.636598199607591786e-01,6.190197138955189082e-01
1.454395412243076407e+03,1.497283014537151530e+03,1.562514899566615213e+03,-2.068562250750468345e-01,3.082086137727932940e-01,9.285569193883349559e-01
1.500696232585220287e+03,1.604453351660735279e+03,1.678630738094158460e+03,-1.408426978498403433e-02,-6.006236260138057143e-02,-9.980952589524529905e-01
1.592317879582231853e+03,1.460128461648793518e+03,1.736451448462784356e+03,-1.124560261212126204e-02,-9.432494101245868512e-01,-3.318946922165361135e-01
1.511506078787902425e+03,1.573804405658107498e+03,1.628473393970243251e+03,3.265076100776027196e-02,3.778820794403737193e-01,-9.252778295427991351e-01
1.444470602323316143e+03,1.558211437053609643e+03,1.655011398411917980e+03,1.295078984619017250e-03,-9.841848776451012082e-01,1.771396324516927023e-01
1.480789535918288266e+03,1.435083638985512835e+03,1.657097203398484680e+03,-2.713473514140140042e-01,-4.179729192849010455e-01,-8.669886121657292000e-01
1.371870260373497558e+03,1.404355779683271521e+03,1.645984714852644402e+03,1.847095162646398003e-01,9.738239878686917317e-01,-1.324735266111718435e-01
1.554162635344157252e+03,1.520292476943991915e+03,1.558757065064835615e+03,-8.167013742905752938e-02,9.965803378152128245e-01,-1.255463788546540282e-02
1.533848460163965910e+03,1.560483260195848970e+03,1.546313216072603609e+03,4.153786108472885125e-02,-1.811932285034286438e-01,-9.825699059308757866e-01
1.523897580660895755e+03,1.517393434491136077e+03,1.485636108241882994e+03,1.859071982010985502e-01,-9.349255509227234473e-01,3.022461379221567657e-01
1.484388241745514506e+03,1.533090695801345191e+03,1.466603554165453716e+03,-2.165041230248036519e-01,-9.665382968474917069e-01,1.375851933908976976e-01
1.528152078449812507e+03,1.386626863057107357e+03,1.555487890371245840e+03,5.947709203916213584e-03,-3.443142049072817623e-01,9.388356368685053521e-01
1.597597669507084674e+03,1.608429241042927515e+03,1.384798441747159814e+03,8.659839036611977070e-02,-6.447694430138002364e-01,7.594557815578670823e-01
1.523825189962232344e+03,1.532207280129975288e+03,1.603082673714886596e+03,3.111994540135254103e-03,-9.884963933676315095e-01,1.512124194276610323e-01
1.535596816175079312e+03,1.486312742658088382e+03,1.475386698629379453e+03,9.640699625803517321e-05,8.255694127774837465e-01,-5.643005718515016200e-01
1.551704457086909770e+03,1.546836354059465521e+03,1.741518021985564474e+03,1.027464342782683383e-03,-8.937683363291327732e-01,4.485277085002423725e-01
1.611286935088395694e+03,1.501084248315824198e+03,1.747421105422042956e+03,-3.812966592572128834e-04,-3.637069221442621458e-01,9.315133543847911035e-01
1.544635952393967727e+03,1.344653332666882761e+03,1.471690745609801070e+03,-7.327404660159406169e-02,7.740687082940614361e-02,-9.943033191350751920e-01
1.426883062121118428e+03,1.392131721302470623e+03,1.376945897596345731e+03,-8.097194503317801982e-04,4.991200284063303516e-01,-8.665324815597369446e-01
1.554594431278277625e+03,1.406872020052561311e+03,1.637618472973653525e+03,-4.484733031226212016e-04,7.362436115258600422e-01,-6.767164423590246169e-01
1.513110117636694895e+03,1.344139038266152966e+03,1.439642717242702247e+03,-1.308252253616922801e-02,-4.939006758358034377e-01,-8.694199043115055092e-01
1.535940726469722904e+03,1.536337716165392067e+03,1.615829529650884069e+03,-3.151632928625548030e-02,3.079779620779641777e-02,9.990286365950994396e-01
1.503580795686600823e+03,1.532812827372551510e+03,1.632732387505418956e+03,1.451428769538326280e-01,-7.030956488275871274e-01,6.961250274694043005e-01
