x,y,z,nx,ny,nz
1.642890237984326859e+03,1.066562716223901589e+03,5.507249860384275735e+02,4.265006565268040714e-03,-3.464461097628996900e-01,9.380601807715489571e-01
1.757863541244272028e+03,5.504558382436209030e+01,5.272138221740345898e+02,1.296751895872559901e-01,-9.805332719356284477e-01,1.474409978015620570e-01
1.483879831359601440e+03,2.268774199226389101e+03,1.172104064899884861e+03,-2.381244420802180461e-01,3.850271408780788773e-01,8.916562403029750783e-01
7.275524657840653617e+02,9.590514988820087865e+02,3.986965057032381310e+02,-5.034018500108730088e-01,5.318687387374442244e-01,6.809568430961472352e-01
1.283120174168809854e+03,1.932188323764893312e+03,1.345359771840255917e+03,-6.594295330614255990e-01,-2.235881379593904206e-01,7.177471946933982050e-01
1.175378277680027395e+03,2.172701614979871465e+03,2.480660451129571356e+03,9.702479977018779733e-01,-2.217681727065832220e-01,9.714782823038214943e-02
1.590717267688811489e+03,5.737994447415721879e+02,1.501963057507759061e+02,-6.042118852676711116e-01,4.382143041411185047e-01,6.655044863465624516e-01
2.715419469495926478e+03,1.360731850419183047e+03,1.423771952064020752e+03,-2.995046544379738329e-02,8.677264713145311781e-01,-4.961388319812631287e-01
1.640750534901056199e+03,1.562918854350589982e+03,3.713484610735276306e+02,9.437496539131698947e-01,-1.851682825229035989e-01,2.739512691817471701e-01
1.589646937072118590e+03,1.424446532936688072e+03,2.226132311948322240e+03,4.830804871076747192e-02,-4.653941445036920838e-02,9.977476711736164017e-01
2.338247139193999374e+03,6.898390942707982276e+02,2.896668484155387432e+03,3.848213838344440862e-01,9.000423152834402529e-01,2.045393195524221053e-01
8.049508751608776720e+02,1.601837647859796334e+03,8.978897228323697846e+02,-3.892403999785820634e-01,-6.022247104854967503e-01,-6.970059605951538506e-01
1.818761157192051542e+03,1.118362581921518085e+03,3.220568679673356769e+02,4.121995203115490503e-01,9.046274807615038993e-01,-1.083544023379943155e-01
1.411455467886313500e+03,1.315960956362953539e+03,2.091395776662343451e+03,7.687106122632995087e-01,-4.719512823723695516e-01,-4.316780995844695656e-01
1.753924599814568637e+03,7.019184143100857227e+02,1.108049485508469388e+03,2.964100887471136647e-01,-5.206581742144819058e-01,-8.006598059803990974e-01
2.103241553138118888e+03,1.851682471070844485e+03,1.068776131209382129e+03,-3.278441219397257300e-02,7.277946463715331271e-01,6.850110473780921527e-01
2.146711960177197398e+03,1.871735949701361960e+03,1.070384263400528425e+03,-9.920400125780248421e-03,8.734753929251007909e-01,-4.867672170716563773e-01
1.628872494643084394e+02,2.311524674198851244e+03,8.488285279206338600e+02,-5.149070405202758050e-01,-1.303295984410229036e-01,-8.472809070154081468e-01
2.234199721942172800e+03,9.994593071679025797e+02,1.282769417309775008e+03,-1.733263798989808160e-02,-8.549185463770394566e-01,-5.184726209944754416e-01
9.006025317084336166e+02,1.562276167067655486e+01,2.159963728554662794e+03,-3.637463934843634950e-01,-1.060471650998562887e-01,-9.254418188094821751e-01
4.797104609316600659e+02,2.940314226757568122e+03,2.956985557152795536e+03,1.341231412570338330e-02,1.301302945784343912e-01,9.914061812711898458e-01
1.317371317567625965e+03,2.031582549046837585e+03,1.796443340753727625e+03,-9.914524119079231035e-01,1.964305617802309875e-02,-1.289816470120814795e-01
8.307702555709528269e+02,1.003177675049220028e+02,7.599432199430168566e+02,-2.103321022507251004e-01,-7.254456568255087667e-01,-6.553541071480338820e-01
7.777289182141672654e+02,9.394932444350306469e+02,2.098541311242449410e+03,-5.997564707278420226e-03,9.979967325000380640e-01,6.298056157918542619e-02
1.153399984679397448e+03,2.695180944208568235e+03,1.770547617817977425e+03,-3.792573420737796203e-03,-9.846314246327823039e-01,-1.746040492441854330e-01
5.124242873500163569e+02,1.429346389442493773e+03,2.212886002029712529e+01,1.109284758556180611e-01,-7.551293216093653005e-01,-6.461227289688309394e-01
1.787897825662658079e+03,2.849868393506650136e+03,1.507083403538579489e+02,-5.741031948348153113e-01,-7.353935937340628781e-01,-3.600024777350265826e-01
3.756450015004077159e+02,1.315409409082324288e+01,1.554681142569329779e+02,4.626640249108866787e-02,5.938563232804605629e-01,-8.032397445970571592e-01
1.218585493276842044e+03,1.344010792390406323e+03,7.172060153526525710e+02,-8.649312249324122570e-01,-4.842389696510677743e-01,1.319340608341503795e-01
7.568158887102903236e+02,1.047209836079040457e+02,5.330270050671670106e+02,4.113416681973052630e-02,-9.972611862089429957e-01,-6.146630622689697176e-02
5.413965674857668375e+01,1.427239453089462813e+03,1.079341877772903899e+03,-9.273331517938219193e-01,-1.448989580076630035e-01,3.450471236692604915e-01
3.268967897266355180e+02,2.180190821858028812e+03,2.559070697835401461e+03,-8.348819976514872954e-01,-9.025361596300036232e-03,-5.503549698562902881e-01
1.349951636202850068e+03,9.694502667632273187e+02,2.392202986232358853e+03,-1.754387210585131585e-01,8.212648314073599520e-01,-5.429045329031557676e-01
2.847698606742289940e+03,1.333977970383988350e+02,2.276873886520348606e+03,-6.071399046187258425e-02,-1.894902063609262555e-01,9.800037107355712429e-01
2.179362469208557286e+03,2.061162360754689416e+03,2.711823628020454180e+03,7.262760036284422460e-01,2.243280622981300154e-01,-6.497692567512449724e-01
2.232928204112885851e+03,6.731336753499027736e+02,1.631187928737378343e+03,4.835625528055479960e-01,-1.057926871980258143e-01,-8.688930687142131237e-01
3.562198014515751652e+02,1.576066960638024966e+03,1.697793365268269554e+03,8.280900959722446997e-01,-5.336141983489798291e-01,-1.718216525152005403e-01
2.208590210747834135e+03,1.403069937481177249e+03,9.457120260031562111e+02,4.271587588089205689e-01,-2.348227167244001379e-01,8.731515827638374194e-01
1.732369570388018190e+02,1.896282879583575550e+03,6.983224690060327475e+02,-1.787342300809146023e-01,-8.187629386600563386e-01,5.456018010180423428e-01
1.777634444716700955e+03,1.280353629873793125e+03,1.610482792815126459e+03,1.732038014623770439e-01,7.238126564355782389e-01,6.679039463445721747e-01
1.725938686518230043e+03,2.136279189562004831e+03,1.193576467823964549e+03,-2.537451951615701806e-01,-4.359920841152634119e-01,8.634374780615245992e-01
2.893684755615841823e+03,3.785905268185879322e+02,2.703916368687765043e+03,2.371404522985892938e-01,4.005686201574284455e-01,-8.850475616760911102e-01
1.045794693808375314e+03,1.521501181905270869e+03,2.968474710812071862e+03,-9.494192780982323443e-01,3.132233905121568074e-01,2.222930524106403807e-02
1.639509931867586374e+02,1.168963600661925966e+03,1.721169965610535201e+03,-9.023180119479429218e-02,7.623062433189969900e-01,6.408957898520019070e-01
2.302201444415255992e+03,1.026276508324428733e+03,1.247631428687409425e+03,-2.962906389651853711e-01,8.839795978774201979e-01,3.616516663836579770e-01
1.540023859442274443e+03,6.629067580191195930e+02,2.974117226902947095e+03,-1.104166999514840652e-01,9.880779295674533280e-01,-1.072854019590674529e-01
2.989662346087193782e+03,2.530623952908378214e+03,4.218945307728336616e+02,-7.618446343188426395e-01,6.284820419352882270e-01,1.568536774335862471e-01
9.625341746977398998e+02,2.246567221095010154e+03,1.662885349399188499e+03,-5.077612999650379932e-02,-8.695357965037319170e-01,4.912527691740766755e-01
1.657494517001611712e+03,1.513588874336309118e+03,1.083247644339379349e+03,-2.228550897832267119e-01,5.547585355392374851e-01,8.016099900849980031e-01
5.313160407062803188e+02,1.272380088540322276e+03,1.308390291327568775e+03,-7.696042690476632142e-01,3.012296042741059998e-01,-5.630008832785944328e-01
2.734652053084205363e+03,9.603038944203829033e+02,2.915701101546297650e+03,-8.835014525294273766e-03,8.981206203906950680e-01,4.396604300450185909e-01
1.991975396799525925e+03,2.453878433048021634e+03,2.489158258870599184e+03,3.087476208079740214e-01,8.228505034221643699e-01,4.770659866971301288e-01
1.127691421582084104e+03,5.147420438914475653e+02,2.694825370761113390e+03,7.920229753749356005e-01,-5.693216884687748447e-01,2.203915187054561464e-01
1.474077026442458589e+02,6.443925000443728095e+02,2.816693418584236497e+03,4.322438546793656161e-02,-9.835495454380770441e-01,1.753908326266553630e-01
1.116500353997693082e+03,5.013760989120169711e+02,2.086579281693389476e+03,6.397762578758163787e-01,5.833657888065348907e-01,-5.003705589945779408e-01
9.184797175048920792e+01,1.094276439984281751e+03,6.510391597169240185e+02,1.171710247329834850e-03,-9.029944411428184603e-01,-4.296506329103511046e-01
2.759951282499661374e+03,2.644816034473346008e+03,1.164829713467607007e+03,-2.991942215510661612e-02,8.084645975404335383e-01,5.877838231030940719e-01
2.277937019179595609e+03,1.655782912858158397e+03,9.417546512408002854e+02,1.298465053050772838e-02,9.927761482345673905e-01,1.192766462772026775e-01
1.567638269083068963e+03,1.457714801466789595e+03,4.629197136152874918e+02,-3.456647922752408841e-01,-4.159591742055650521e-01,-8.411265165095789254e-01
2.593642192657023315e+03,1.238239957744065350e+03,2.274862873024193959e+03,7.470576584807784304e-01,-1.423469607055018182e-01,-6.493398168009743010e-01
1.637221977912407453e+02,1.925354434175607821e+03,4.566119842006155238e+01,-3.150567806077232968e-01,-6.059314045856426523e-01,7.304699568975900892e-01
2.400465784323766457e+03,3.365920215025808204e+01,2.251836350815296100e+03,-6.673196250329685997e-01,7.396045476110435501e-01,8.757643061304731802e-02
1.366550094863588811e+03,2.732493534837422885e+03,1.463804416501584683e+03,4.331160167027883409e-03,-8.311728135289270236e-01,5.559972977470439837e-01
1.674874399582136903e+03,1.791953507173064054e+03,2.046939388694103855e+03,-7.234057767017169072e-01,6.154388550592400087e-01,-3.129202740602750055e-01
1.749093180204375528e+02,3.019779995014614542e+02,2.405641128797351200e+02,-9.014208220670998362e-01,-3.050899790646369181e-01,-3.071817153057998517e-01
1.136560916999470464e+03,3.080777755516051002e+02,4.466129320945133685e+01,-2.157800098872286743e-03,-4.257573827157279389e-01,-9.048347887663175104e-01
1.455814706108813198e+03,1.609521757509320139e+02,1.078539251918272157e+03,-7.665267435039172517e-01,2.800796802619774373e-01,5.779205171973292865e-01
6.683699878242917976e+02,1.809743909493560068e+03,5.299283789043321349e+02,-7.667515075773765343e-01,5.416403210872606788e-01,3.445546229559390272e-01
2.335142027945079462e+03,2.921002889159566621e+03,1.169477351118025581e+03,-7.229070984238367137e-02,8.873117781844781504e-01,4.554688370960012778e-01
1.281018364528781603e+03,6.355678501902315247e+01,2.399502540017195770e+03,-9.427563457441785755e-02,-8.019860179314919346e-01,5.898563653704006482e-01
4.480101736449890950e+02,5.561873973923005678e+02,1.467796167299531589e+03,-7.182144684120842504e-01,6.068040688016256290e-01,-3.405243008205718902e-01
1.013624091380596042e+03,1.136192143191222840e+03,2.758712578020456931e+03,5.172244736983921259e-02,3.253228982809984737e-01,9.441873756263241546e-01
1.533369439190959156e+03,3.008104868359596367e+02,2.308914097815481455e+03,1.199437901519777999e-01,3.560486164832678962e-02,-9.921420165636478661e-01
8.148591091863024758e+02,8.912871649008528721e+02,1.199257712338514239e+03,2.982406391323089156e-01,-9.432736423500062140e-01,-1.459018739348627580e-01
1.611540325087948304e+03,1.818402973083632787e+03,2.118676800222763632e+03,-5.475745513851063562e-01,1.537041853149380410e-01,-8.225187743097848170e-01
9.209646990604875327e+02,1.847387439350909972e+03,1.564274087183462370e+03,1.365879621970801372e-01,-1.762801080407522605e-02,9.904710908542159187e-01
1.752274623553280890e+03,2.205780345816904173e+03,3.023499582321921366e+02,2.180327437899742815e-01,7.464836793132557657e-01,-6.286683061474944711e-01
1.493789345934634866e+03,1.527303111641972464e+03,1.404483770230586288e+03,-1.676212754602809940e-01,-1.545481541396355463e-01,-9.736621467763344473e-01
2.678685958155611388e+03,1.232398716117037111e+03,1.709803355284379450e+03,-9.637276359229418610e-01,-2.445505720056857790e-01,-1.068834013777144598e-01
2.588363975538081377e+03,6.565806069873059414e+02,2.881029195127652656e+03,6.462299255922563379e-01,-3.911993623178973145e-01,6.552480005243033201e-01
1.509418313944291640e+03,1.576663299147625821e+03,1.423339611821843619e+03,-1.111934804469578379e-03,1.805808558803919939e-01,9.835595142595570106e-01
2.052167173299632395e+03,1.222405814455646578e+03,1.672642270050356217e+02,-7.429901785061459041e-01,-6.594365354359438269e-01,-1.144947613458566771e-01
2.154599121477104745e+03,2.754972907500758083e+03,1.094430262544555035e+03,-4.454347231790480033e-02,-8.962221734988248256e-01,4.413634497813638813e-01
1.045862186514024643e+03,1.561766071937398237e+03,2.079066320250563876e+03,2.704129861594333772e-01,9.234940839247091082e-01,-2.720946413886178306e-01
2.368371976841465766e+03,2.013989465636774867e+03,2.935049772424621096e+03,-9.131327345119992778e-01,4.058392708866495613e-01,3.851097725105790542e-02
2.690595289066169244e+03,1.174827977282750027e+02,7.061564908568532246e+02,-1.676378779117898565e-02,5.161356745738978624e-01,8.563427706538075945e-01
1.531745442526726038e+03,2.039046234153064006e+03,1.327849703551815992e+03,-9.925246802873721741e-02,-3.076095873970224326e-01,-9.463219797360928887e-01
1.920863807452326910e+03,1.233410243890395577e+03,2.513598071182829244e+03,1.862051160179683043e-02,2.359521495910178648e-03,-9.998238390866651670e-01
2.020335526721800363e+02,2.239631560558566889e+03,1.968805766278090061e+02,-4.676626053832326768e-01,-3.862569963452058830e-01,-7.950454202751855437e-01
3.726673618536646586e+02,7.114339685901213670e+02,1.628204978626991533e+03,7.952707248176701382e-01,-5.531178846834239327e-01,2.482037064415278937e-01
1.267139105591921407e+03,2.865448940257979757e+03,5.737283613199265346e+02,-6.653380893703116916e-01,-6.019324212786000272e-01,4.415909725602926716e-01
2.509663915392132822e+03,2.244529121531386863e+03,1.114839167077712546e+03,4.936355552982040762e-01,-8.215402476735746973e-01,-2.852990711479361785e-01
1.377024679785875151e+03,1.632752545811631762e+03,1.669597864585254229e+03,-4.441400002072067726e-02,-9.553745545464027433e-01,-2.920391362941309188e-01
1.350897693825722627e+03,2.984858693885362754e+03,2.859188432577523145e+03,7.424324784897670115e-01,-6.630288012443094070e-01,9.584791914317070116e-02
1.177175515221840215e+03,2.750132791886459472e+03,2.424126828620536799e+03,-4.642940748180268695e-01,-8.698936842589036766e-01,1.664812006664511124e-01
2.476892880086323203e+03,1.655319285820002733e+03,6.610553954336853621e+01,7.002949303063357722e-02,-1.881917530711554876e-01,-9.796324485141750804e-01
1.924906297360566896e+03,2.621344162148419400e+03,1.125908207090746146e+03,7.992669064707145221e-01,3.684369510395963387e-01,-4.747911386382228649e-01
1.034493098868630568e+03,9.779597478435358653e+02,2.874234651425536413e+03,-4.221750098525405837e-01,6.574054755039148157e-01,-6.241684883374671866e-01
2.507771150200356260e+03,6.716458031090594432e+02,2.609553594156453528e+03,3.260632925515628399e-03,-5.906246179705184618e-01,-8.069398545865138495e-01
2.725524977546172067e+03,2.111457742578284979e+03,2.361300778460258243e+03,-7.001445205441210184e-01,-7.139984717357692467e-01,-1.957731092038006437e-03
2.048117694642500282e+03,1.245350726651449804e+03,9.920422772029174894e+02,5.857060086610501592e-01,4.363200505020675690e-01,-6.830616992250517772e-01
1.427221772253674544e+03,2.152246130004720726e+03,2.626579392900741368e+03,9.011137024041229737e-03,-8.932464518671756615e-01,-4.494770023440970985e-01
1.997390282494404573e+03,1.343047276605529760e+03,1.012873473577859841e+03,-6.272995961879213045e-01,-5.594811293437000899e-01,-5.417343283665611020e-01
2.586347219132890132e+03,2.410793307226768775e+03,9.407623154221547566e+02,5.159982888427684655e-02,-9.897085003474760390e-01,-1.334711279605564904e-01
2.397450697852303165e+03,1.707076361855495406e+03,4.496733237106069510e+02,8.589510230328837315e-01,1.337447402524192530e-01,-4.942827980878712335e-01
4.312174831008068736e+02,4.024604422098520899e+02,2.461010822561606801e+03,-4.495060030162514320e-01,-7.139520680461369784e-01,-5.368582660116151262e-01
2.883970188611614049e+03,1.685712403388629809e+03,2.601628272215736501e+02,-3.318277865274529836e-02,4.240120274992703053e-01,-9.050484538061158712e-01
2.755605302689997188e+03,7.038104604154582944e+01,1.813774741858709604e+03,8.980856025577109714e-01,-4.051821302299996735e-02,-4.379503680692322654e-01
1.440103839020474879e+03,2.827640156246014612e+03,1.360807763717797414e+01,-6.805303504000916881e-01,-6.602622745667091272e-03,7.326901443019462334e-01
1.559366856599153550e+02,1.069473927939451556e+02,1.306099450419252889e+03,-1.181988350576944520e-02,9.944562268594461241e-01,-1.044849425246714425e-01
1.381610929393097877e+03,8.545779630147811758e+02,2.572449593534362521e+03,4.847509715177446554e-01,-1.999057609649371736e-01,8.515011346707836992e-01
1.175649394748888881e+03,1.255705500870352125e+03,7.673628764528436932e+02,-3.909568907210837253e-03,-9.746355419817741561e-01,-2.237638835398896853e-01
2.980793388652705289e+03,8.965084685927249666e+02,1.136716183505386880e+03,6.304855166076045458e-01,4.041905418802185096e-02,7.751479300150312390e-01
1.112466801011844154e+03,2.884787259725360400e+03,1.421883714728877237e+02,-2.577675907655477879e-03,9.964056677814363550e-01,8.467054269310653192e-02
1.633267509813486868e+03,5.710500687317410211e+02,2.992648959288685546e+03,-6.293778283192111855e-01,5.176313513851762416e-01,5.796044627876408839e-01
9.247172410432291656e+01,1.221644109768529688e+03,1.821360767067030793e+03,-6.749684439434707750e-01,2.342559555278054817e-01,-6.996725998495900711e-01
2.853923370120189247e+03,2.864406778569653852e+03,1.107498084009892182e+03,-6.549978668643375856e-01,-2.481697690262253952e-01,-7.137153215005528351e-01
2.669325958885533055e+03,1.838635896090680490e+03,2.711360101496989500e+03,4.833118380656542534e-01,-3.298980878230349245e-01,-8.109111658105985221e-01
1.559164351678788989e+03,2.925360852444460761e+03,1.784595617411499461e+03,-4.462830858917062743e-02,9.836461863924995663e-01,-1.744949686035727754e-01
1.512788793962718501e+03,2.668778376824935549e+03,2.409673472863428287e+03,-2.883653959440423131e-01,-6.177554977067979403e-01,7.315897371307651387e-01
1.093354350144686123e+03,2.941043739057875882e+03,2.088605801899534072e+03,9.998921707274215087e-02,-8.396692066617705841e-02,-9.914392128128783899e-01
1.478859188792731402e+03,2.203158132274557829e+03,2.697078236419456971e+03,2.013353955226968861e-01,-4.627542087833373396e-01,-8.633206824598995688e-01
2.140482028297566103e+03,2.515273581992907566e+03,6.274463177085797270e+02,7.587694867651365582e-01,-2.217975044892714354e-01,-6.124334518594676258e-01
4.319098950927117926e+02,1.214211321655292295e+03,4.019673913505663450e+02,-3.614529346538240123e-02,5.592288237669393869e-01,-8.282249938443941861e-01
7.462158672242502178e+01,6.647584985622883096e+02,4.758713004036670782e+02,-5.125155705955298790e-01,-3.220222238919511620e-02,8.580738935373428689e-01
2.334934019852386427e+03,1.855488584532490677e+03,5.077066749540388741e+02,-3.252145156494720690e-01,2.303953974449123726e-02,9.453595603891893351e-01
2.882516706708483071e+03,1.201708416803289310e+03,2.547613491266699839e+03,-5.123264091390936636e-01,7.881929957328028813e-01,3.409889323370952074e-01
6.998655461785949683e+02,2.478746722942656106e+03,2.558185705009989306e+03,2.552887408642790304e-02,8.050228895172371057e-01,-5.926942077844168377e-01
2.808224244800703218e+03,2.240203689807377941e+03,1.791873586072711987e+03,8.486797599038681250e-01,-1.232383842315206389e-02,5.287634519669761612e-01
2.207790786029323499e+03,2.929522684964509153e+03,1.976542013846208874e+03,-8.444179620004199638e-01,-4.320507776491272489e-01,3.166866447828857734e-01
2.803202724715129534e+03,1.502280693254560617e+02,1.070156079580701913e+02,-1.177975869077223653e-01,3.023865003201995916e-01,9.458784979810141991e-01
1.957040459371883117e+03,1.806700152769815986e+03,2.372757258351039127e+03,4.490503257635384826e-01,-5.753100022313787365e-01,-6.836462581366118396e-01
1.432499918824973065e+03,1.613527327171861316e+03,6.597007229932302153e+02,9.037158082829502836e-01,3.484802293070084489e-01,2.487152340360934133e-01
2.299117206505787181e+03,2.473269322510857364e+03,1.005755715626369351e+03,-3.955680748349098552e-01,-8.965827164966658769e-01,1.991615692116892600e-01
1.691783214053698885e+03,1.510831251328052076e+03,1.159491807838660634e+03,-7.248228078234846272e-01,-6.706868045785302490e-01,-1.575154196360484538e-01
2.490860034881499814e+03,2.884758426826025243e+03,1.214755938993954487e+03,-3.490079078338712004e-01,-2.457118182582410104e-01,-9.043335571776893733e-01
2.535266526771068584e+03,4.821754701695622316e+02,2.731558130536108820e+03,9.504234333273100382e-03,3.247641702105523442e-02,9.994273119478038758e-01
8.165160003259461519e+02,8.155972105045614171e+02,1.165079461978446716e+03,5.824577044533603420e-02,-9.402487399760020015e-01,-3.354694281134571465e-01
2.397647328799072056e+03,1.044120476408942295e+03,6.139688159842260120e+02,9.754760972543696784e-02,7.892799545844202125e-02,9.920961825195004913e-01
7.062298569645743100e+02,1.589432230057887637e+03,2.102162121001532796e+03,1.813123339622542129e-01,-8.087509422473926346e-01,-5.595067032369804849e-01
2.781704535041728377e+03,6.113199870942805774e+02,8.516851961400882374e+02,-6.486417009855428573e-01,-7.154829290735447156e-01,-2.595151670845514680e-01
1.254593916025485896e+03,7.802389771219659451e+02,2.578204174080638040e+02,-9.876040518520903255e-01,-8.364629476366723659e-02,1.328214370410274736e-01
1.696855559004586212e+03,2.331192275430330938e+03,2.144084735156368879e+03,6.954256644380290009e-01,5.212271507576483609e-01,4.946770689591237780e-01
2.363593537077383189e+03,7.791972473782979023e+02,5.266139388596404842e+02,5.817245911250283896e-01,-6.628391048637750638e-01,4.714242475136468102e-01
1.615118992677382039e+03,2.357421119931046633e+03,2.046852432090009302e+02,-1.343922105567423031e-01,-9.799906124300711285e-01,1.468234766330180907e-01
2.043993447451410020e+03,1.334568412954286032e+03,1.341868632673437332e+03,-5.362821262255443311e-03,-9.450176601517719099e-01,-3.269753234563418931e-01
5.312009148619703183e+02,2.300238370219232991e+02,1.008647278783139313e+03,5.377330413094051353e-01,2.292129268463931613e-01,-8.113597293744911898e-01
2.432946563358563253e+03,3.484527383560405269e+02,1.898115617728038615e+03,-4.041272247448426252e-02,-4.336373337124218019e-01,9.001808011021907863e-01
1.067419500713495154e+03,2.875282777852769414e+03,1.031173801081319255e+02,6.249064396322041581e-01,-7.048687543619379658e-01,3.356366798048930900e-01
2.945821467363386091e+03,7.179509983161835862e+02,2.050183189949152165e+03,-7.636286724317690178e-01,6.167134211796247989e-01,1.911434193923949032e-01
2.358347210335178261e+03,8.401819765695023534e+02,3.604481750396987536e+02,3.804151117637173951e-01,9.213046548111373246e-01,8.051133935744436698e-02
1.180696781505872877e+03,2.817795029071952285e+03,2.827638877710030101e+03,-4.291664660165348533e-01,2.093630808579638458e-01,8.786257706330609096e-01
1.184457903718347097e+03,1.310772041738834560e+03,1.779304887434704483e+02,9.709832334845588594e-03,-9.033380529948815685e-01,4.288194039073392472e-01
2.461962406218880005e+03,1.021514072649700665e+03,2.665891421997009729e+03,1.496167603444790162e-01,-6.973344661460690874e-01,-7.009561094311110852e-01
1.182402391306207846e+03,2.795207355244567680e+03,2.777945305096074662e+03,1.606035275575555025e-05,9.727568356300684282e-01,-2.318278207572188332e-01
1.375735147178845637e+03,4.903481255601636235e+02,1.014861609239673328e+02,7.157768175791757725e-01,5.255594720549670029e-01,-4.598377852564223822e-01
2.844786282330916038e+03,1.520009977516146364e+03,2.007562872563793235e+03,-1.630541717905528432e-01,-9.597080617903525068e-01,-2.288531695133406707e-01
1.070156021942922280e+03,2.836067153334362501e+03,1.666999563525417443e+03,-7.716444558463305681e-01,6.094529462864411995e-01,1.820218119468015594e-01
3.911375563232058994e+01,2.158819078404958418e+03,1.980115432641181172e+00,4.821546553849374471e-04,-6.274204242850419666e-01,-7.786805370091551826e-01
2.667695804138892527e+03,2.687103357929409867e+03,1.538153911592859686e+03,8.148038152237465637e-01,7.426705251118673190e-02,5.749601269724078367e-01
1.508306239930399670e+03,2.378486461101314944e+03,2.241871468540457954e+03,-4.998246163782770791e-03,-9.472112106698076239e-01,-3.205712711967865780e-01
4.539392136449145028e+02,4.182231165521169487e+02,2.421111876120813577e+03,-4.208304514743391872e-02,-6.651994735227823030e-01,7.454788244719847690e-01
9.355371324392760926e+02,5.295380028227838238e+02,1.070201628340440720e+03,-7.419939162569847424e-01,2.992221707312607837e-01,-5.999259294117025298e-01
1.799104034058407933e+03,1.167443925677918969e+03,3.668892066324358581e+01,8.061437888752612801e-01,2.068087426564064468e-01,-5.544026836323167062e-01
1.502657408974383998e+03,7.747439912095011323e+02,2.042383925634192110e+03,-7.938579072537901848e-02,-3.246043859381581576e-01,9.425125404261831541e-01
1.459680313977859669e+03,6.559297874771446004e+02,1.476418444693211768e+03,8.596226646610134470e-01,-1.370106542613559741e-01,4.922163701259581470e-01
3.391836062160920733e+02,2.701896421361524517e+03,1.722396910534392418e+03,3.918208428971939848e-03,-7.244139067681009125e-01,6.893541465195406337e-01
9.504721092997975802e+02,1.477460654180748861e+03,2.873849417597718457e+03,-4.393755439845018484e-01,-5.840894718915213418e-02,-8.964025469824246084e-01
1.748048965138417316e+03,2.217679185742871596e+03,1.012788750022111117e+03,-5.282437057554320026e-01,4.655488426860867057e-01,7.100865175479774694e-01
2.337447715827775482e+03,2.925261449212362550e+03,1.224467714761424531e+03,-1.043905952075696239e-02,5.800085513690671490e-01,-8.145434956925740044e-01
1.083472786679721594e+03,1.670101687742331706e+03,2.254948220179445343e+03,8.960591922120404451e-01,1.998211247413421709e-01,3.964207892623827778e-01
1.977267066119617539e+03,2.689229839151594206e+03,2.569781950859258359e+03,-5.833836415464077607e-02,3.878227010163646793e-01,-9.198859645869872370e-01
2.084830600769808825e+03,6.314271757380626013e+02,5.931877355445051307e+02,8.913118145853371477e-01,1.941298162893907026e-02,-4.529750383021873272e-01
1.809702347796836193e+03,6.410974433595446271e+02,2.225916903392867880e+03,-2.514889035366772441e-01,1.416940124720323102e-01,9.574320541048828570e-01
1.549600589523559393e+03,1.555298066715120058e+03,1.381479508289841306e+03,3.610043734240099230e-04,8.716523804465756697e-01,-4.901244712699627804e-01
1.960854227711400426e+03,1.547302075531703395e+03,1.991350765932203331e+02,-1.150106156797882778e-01,3.440468683850311793e-01,-9.318821334457534356e-01
1.643489360515030739e+03,1.421277543763248332e+03,2.507784792972317518e+03,-2.665981773960363066e-01,9.609701023510687223e-01,-7.390449375030017087e-02
1.966636266298003648e+03,1.555281289773198068e+03,1.657895461405920514e+02,9.218639308361268325e-01,3.835759696293526977e-01,-5.510325349983088983e-02
2.645925395795700297e+03,5.834800513520101504e+02,9.365587365342864246e+01,4.074897900919910443e-01,-2.414772450154084593e-01,-8.807047241332099929e-01
2.406483335243209694e+03,1.887933373019999863e+03,2.484287613037811752e+03,9.574810315702071417e-01,-9.458987005794962377e-02,-2.725487674998225973e-01
2.553818743873408039e+03,2.275290051734912140e+03,6.340616040527102086e+02,7.627900803122681372e-01,4.970614652165495362e-01,-4.136196237776690321e-01
1.743257320228193748e+03,9.058561371132993827e+02,9.717746501132628509e+02,-2.688560058495877425e-01,-9.336067738329703047e-01,-2.368434925679814285e-01
1.300253967407201344e+03,1.868603268333935830e+03,8.855252490675451327e+02,3.398010437916802462e-01,9.401592151220504734e-01,-2.521707475451262503e-02
2.923449923168937403e+03,4.021649541131790784e+02,8.117516471991525577e+02,-4.884073390590504826e-01,-5.824237800456153608e-02,8.706699125142842721e-01
2.849723864140951719e+03,2.809321156228501422e+03,1.139971883031922061e+03,-1.012817908358159685e-01,-9.715432859574243407e-01,2.141159553983319197e-01
2.978838160896906629e+03,2.060516221411860897e+03,2.076052641229693563e+03,-2.379649922228872089e-02,-9.906640924179717089e-01,-1.342325691419188338e-01
2.693296381505487716e+03,1.874762668378999251e+03,1.487992537562606003e+03,-9.644271628648749539e-01,-1.602770561996479104e-01,2.102177746632829525e-01
2.905419731226155378e+00,2.215946907362099410e+03,2.264075226418174680e+03,-5.416703732086433076e-01,2.808516889631726410e-01,7.922850090684174784e-01
1.921152518228270537e+03,2.908181995036329681e+03,2.164644394296870360e+03,-8.926145600987528406e-01,5.100690963712335713e-02,-4.479258222842042447e-01
8.518574999440569400e+02,9.588539470208648936e+02,2.215401108694531729e+02,9.358978228562846446e-01,2.207937956470210628e-01,-2.744911018168861849e-01
1.089739063525139272e+03,2.696116241005246593e+03,1.467075858712687022e+03,-1.593362061694451048e-01,6.237534351619246076e-01,-7.652082236406159144e-01
2.531251595371400981e+03,1.780009325715747764e+03,2.898394975435331162e+03,-3.677623050276372929e-01,4.747632419178864360e-01,7.995941164893458630e-01
4.460661342320912581e+02,1.284676670217187393e+03,2.615348929144602153e+03,-3.177099519873217703e-01,-1.940934008780443587e-01,9.281099817068063640e-01
1.087916684765990794e+03,9.706389867577595396e+02,2.202856091684338935e+03,-4.159135281675376272e-01,-2.589253278099222788e-01,8.717646538520331667e-01
2.147048688828661398e+03,7.264200683697185923e+01,4.630040941548737692e+02,-9.464855824744324853e-01,-1.060649200052164870e-01,-3.048200697334764731e-01
1.390794563318365135e+03,2.693543916445191371e+03,1.460320660495090806e+03,-3.444038106311737477e-04,6.203348404952767625e-01,7.843370238957962925e-01
1.600766214609729559e+03,9.676037720225652947e+02,1.709875226379508604e+03,-8.158397559704738677e-01,5.681513001416678144e-01,-1.077478200492723026e-01
8.363254481356929091e+02,1.347010750819000577e+03,2.314011864027533193e+03,6.071773555226268604e-01,5.048662144395631435e-01,-6.135517618408528051e-01
7.898994090730242306e+02,5.573695082635741755e+02,8.492392573782226464e+02,1.818948893695850055e-02,8.993880108795792028e-01,4.367726506757105831e-01
1.110584448512879817e+03,1.807811021108977229e+03,3.631927180898231313e+02,5.567511505983323561e-01,-1.790715666936628370e-01,8.111482788672551569e-01
1.972781322228590625e+03,1.853435483736961714e+03,1.911384361627928001e+03,5.964319827310533562e-01,7.993125456692197206e-01,7.326898601247423815e-02
1.269738699773151893e+03,4.289422262267868859e+02,2.526324589475019820e+03,1.294739261198328273e-01,-9.913866620802379570e-01,-1.972279656945730153e-02
1.115636888876845660e+03,2.913108452531887451e+03,9.553241108807175408e+01,-1.259030634172443076e-02,2.959744068046682441e-01,9.551128910777230141e-01
2.441602298476853775e+03,1.158014845796573354e+03,5.677416304060021730e+02,9.129528643815297828e-01,-3.050095692608490450e-01,-2.710834374816570858e-01
2.549969047094989946e+03,2.716553276369949799e+03,1.848042575285968951e+03,9.499374533014213196e-01,-5.450283659821023030e-02,-3.076495987612510863e-01
2.211178098737193523e+03,1.760882275009596242e+03,2.375376119726459365e+03,6.800440521090481694e-01,5.158724538641217272e-01,-5.209757177981675369e-01
1.535836190957044664e+03,2.886221551815772727e+03,1.771474415911953884e+03,-1.998395973249092461e-02,9.806585165846580798e-01,-1.947036599640288301e-01
2.587212720118198490e+02,1.852316771887718232e+03,3.397284768385528082e+02,6.272804423719624545e-02,2.386695512468480496e-01,-9.690727721764782476e-01
1.771468884016680704e+03,2.519518389790616766e+03,1.738470758831345620e+03,-6.010097951360768853e-01,-1.841985091482574721e-01,7.777262599257210862e-01
2.488713532898066205e+03,7.965305070764777611e+02,1.312164415026510596e+03,-4.450172224506853541e-02,8.405161347884105849e-01,5.399557610374883243e-01
3.033166637311301983e+01,1.612463304476598978e+03,1.456973018372725619e+03,-2.880097769540824193e-01,-5.332694551507639602e-01,-7.954081069376066626e-01
1.134242650332809490e+03,2.257222440074743588e+02,2.280265999743887278e+03,-4.140814459469340791e-01,8.293642254979485262e-01,3.750887062905043923e-01
9.095999599009755912e+02,2.310625377374830975e+02,4.108241520394477675e+02,-9.897578556574081476e-01,-3.554279278570227074e-02,-1.382609744123119988e-01
2.951523281670999950e+03,8.403481120513113183e+02,2.856125526073885339e+03,5.139364995270263581e-01,-1.419657233155305065e-01,-8.459994136271047349e-01
1.342541564520354996e+03,2.080986606600810774e+03,2.399144009950096006e+03,3.716922128501888301e-01,-1.674009368533409259e-01,-9.131384480171413909e-01
3.042803202314869893e+00,1.022803349248446466e+03,2.214579005202629105e+03,4.805026087930139994e-02,-6.503437264107611027e-01,-7.581188626776123041e-01
1.926112019222052538e+02,2.495304536241597361e+03,1.689626586229637951e+03,-8.623329020541518064e-01,-1.280457165480723414e-01,-4.898839255462006381e-01
5.868415484507312385e+02,2.027430680151041543e+03,1.180425615834594282e+03,-5.107139168219552161e-01,-5.485248217139795379e-01,-6.620361131600178695e-01
1.712019104229217874e+03,2.063583610765268077e+03,5.383758411634144068e+02,-6.405316462595975757e-01,7.045965555083673060e-01,-3.053897576961515092e-01
2.651178835697181057e+03,5.892093218646335799e+02,2.501150989476466009e+02,5.973885609195966895e-01,4.858538405765823742e-01,-6.380226899408814045e-01
1.965857673000196428e+03,2.295688956884849631e+03,2.333520938275369190e+03,6.949399068022722448e-01,-1.849547082722864666e-01,6.948742921000621298e-01
2.699206825949785070e+03,1.498394879748552967e+03,1.089105573621017811e+03,-7.193131601278438536e-01,6.421173913557142177e-01,-2.650921224507201690e-01
2.765876134353993621e+03,1.041673688244351297e+03,1.989048951937947322e+03,-3.153014166739149249e-01,-8.517283880253857520e-01,4.185018156174475923e-01
1.640027356983044228e+03,2.232325361881964000e+03,1.966844878216751340e+03,9.464217867897196657e-01,-3.184001361286345477e-01,-5.391803782614368323e-02
6.992526993369006050e+02,1.840380257571062202e+03,6.258067250960297088e+02,8.130648560062856411e-01,-5.269066656970889939e-01,2.475780797474896044e-01
2.395624783124772421e+03,4.575662826791831890e+02,2.883117516792800416e+03,-2.267318779150345187e-01,-3.728538523956091977e-01,-8.997625577289127818e-01
1.350669374346083714e+03,1.605644553556725896e+03,2.627916334213068239e+03,7.327593293385277207e-01,1.140021623559466096e-01,6.708705331474318356e-01
2.462498913501175934e+02,6.687091555578898578e+02,6.475577666411522841e+02,1.169708242902978840e-02,9.757193486783626302e-01,2.187119815586708593e-01
3.253812189840400038e+02,1.576221358941975268e+03,1.746090592507368228e+03,-7.911210312258292188e-01,5.822211180975166434e-01,1.874728876223394625e-01
2.201351623481761180e+03,2.350679130302297381e+03,2.869538077706854438e+03,-7.246233132416874945e-01,5.568984932263538745e-01,4.059373377121844872e-01
2.275907800272775603e+03,1.863682430204270304e+03,1.780495060878630284e+03,-7.335602171161849094e-01,-7.242166087856680146e-02,-6.757547712743475765e-01
2.701468740980964412e+03,2.139886670654861973e+03,9.279389299091629937e+02,-2.820719386011554253e-01,-9.549831472130713150e-01,9.188367642189533557e-02
1.557033162797429782e+02,2.891931524715963860e+03,7.753998217503454953e+02,6.747672929074554071e-01,-4.853821058837469726e-01,5.559616099248250176e-01
1.668978086284305391e+03,1.287947910824512689e+02,1.839488434533217514e+03,-4.647254778138724673e-01,2.478194805588756766e-01,8.500680768774916407e-01
2.232528462154704812e+03,1.399661393495112179e+03,7.789196342330742482e+02,-1.314151263989695173e-01,7.810965150220106068e-01,-6.104246872252241385e-01
2.934170610787742589e+03,1.635827533046558983e+03,6.884671427704919324e+02,4.635334451760591001e-01,-6.089970619847759892e-01,6.436298033008760466e-01
9.819926801446199249e+01,1.868847121669915339e+02,9.689647754153857022e+02,3.183822044596799072e-01,5.246546621261563015e-01,7.895380025006291103e-01
6.167202651543899492e+02,1.118279853973781428e+02,1.890943524363310928e+02,-4.367451897512415748e-02,5.992611583192806179e-01,-7.993613704214919125e-01
3.000000000000000000e+03,2.577181742962391581e+03,4.521796297570734851e+02,-8.250576880366639054e-02,3.087866737349448387e-01,-9.475460876589723025e-01
1.573461882220224879e+03,8.500468492376612630e+02,8.642412286702185611e+02,1.724781952548899711e-01,8.315887863470801111e-01,5.279312100865096724e-01
1.657237234826163785e+03,2.281293664227531281e+03,9.800520102474878286e+02,-4.712885849927903048e-02,9.875819814938689989e-01,-1.498689444988470509e-01
1.231809763159011709e+03,1.714844721852020029e+03,1.656911039287660742e+03,8.957281421460895621e-02,-7.987919778660033110e-01,5.949017457115028940e-01
9.129515234348546073e+02,8.193927339178164004e+01,2.235135119610556558e+03,-3.323586824705874188e-01,-9.314496108135696950e-01,-1.481193056345619929e-01
2.799298176545001297e+03,1.050345516652741708e+03,1.011885752629281569e+03,-7.578539471684906381e-01,-5.515668127525742426e-01,-3.484701505597078697e-01
2.814216119090804114e+03,2.304606463696731225e+03,2.292479667684683591e+03,8.791611384877645596e-01,-4.714405371816391410e-01,-6.942270863906951917e-02
2.112571846134828320e+03,2.749807190313099454e+03,5.550898657660344497e+02,1.722207077235573813e-01,4.433137325202856499e-02,-9.840603422436992043e-01
2.284538741547910377e+03,2.273887382622153382e+03,2.384111646073658449e+03,5.999377923316139283e-01,5.566767788298815356e-01,-5.746177940543231166e-01
2.297374511857669859e+03,3.354885557544171775e+02,1.149780176715018456e+02,-2.829923783921285407e-01,-5.021167257020135999e-01,8.171867029891364265e-01
9.101128662189626084e+02,4.307188489628190950e+02,2.848696968095775901e+03,-5.508008566107983617e-01,-7.524078651865970802e-01,3.612489733717710316e-01
3.569639074506727638e+02,2.672771318426694506e+03,2.599361923186878357e+03,-8.224888750608010390e-01,4.326853061905278630e-01,3.691821721156471892e-01
2.449485079876983491e+02,2.531072723659866824e+03,2.105928692315564604e+03,2.242746525993681850e-01,-7.417558001409543245e-01,6.320595012802872059e-01
2.301003612424032781e+03,2.839527885562039046e+03,1.075044267524263432e+03,8.301419860945505880e-01,5.566810668824704322e-01,-3.115241078294972779e-02
1.958567998124539145e+03,2.769186753080611652e+03,2.196405428024060882e+02,6.233639972552337261e-01,1.014327369533093021e-01,-7.753249169220204351e-01
1.263701518637665231e+03,4.219421724107986620e+02,2.815372243911028363e+03,6.688749996646800033e-01,5.217552271187602120e-01,-5.295070516979214492e-01
5.864151213227786030e+01,1.577379377945159376e+03,2.564800339961228701e+02,-2.274694837730938668e-01,-5.682063554719773979e-01,-7.908218330023868425e-01
1.059984315330652862e+03,5.385075752621042966e+02,1.537422603972256411e+03,5.856212857858885679e-01,-6.356625425371290605e-01,5.029720088133287081e-01
2.042541571160300691e+03,9.415176634768683925e+02,2.989988448023291767e+03,-6.631777671093009863e-01,5.208090015422174313e-01,5.375437034553751658e-01
2.332420758280330119e+03,1.854892992249507870e+03,1.784701110679166277e+03,5.588119936411598682e-02,-9.858999676710411553e-01,1.577293419242845884e-01
1.102647628274872204e+03,2.866338429655337222e+03,6.488788459175059131e+01,-2.406216377413403131e-03,9.959397215356600164e-01,8.999045055013855932e-02
2.075626166679209746e+03,3.787641002841501745e+02,2.934169824511724528e+03,-7.115700159082324339e-01,-4.702424945270800016e-01,5.220537412961494539e-01
1.529311283895037604e+03,1.497674971216411222e+03,2.669893563635673672e+03,1.359966677529391155e-01,8.838184519145444312e-03,9.906698707715412278e-01
2.925133079781459855e+03,6.164790258192814463e+02,4.598793032437155262e+02,-2.021369267320676510e-01,-7.118873719570132375e-01,-6.725749270523335710e-01
1.048910930456823735e+03,8.276704314300426404e+02,2.844587235264853462e+03,-8.510554403088577136e-01,-5.227668080053067268e-01,4.918843328099797851e-02
1.549660770842664625e+01,1.162049280932412785e+03,1.250530983390855084e+02,7.425594826896290135e-01,-2.266988625548995717e-01,6.302483957806044312e-01
2.963638586781556114e+03,1.167440973454856703e+03,1.425088503049168821e+03,-8.165800214882468211e-01,-3.950728448872973808e-01,-4.208497543529186591e-01
3.383541857481600914e+02,2.655283631491704000e+03,1.141567569542649608e+03,-6.767240302142977226e-01,2.730349562311655820e-01,6.837371568127360577e-01
9.027389008584773364e+02,1.455047425232980686e+03,1.528388965043863436e+03,-3.772433235095666859e-01,5.828844516623238325e-01,-7.196757539877027821e-01
5.033306807517396919e+02,1.978034453828956202e+03,2.891982458244541249e+03,3.250303400351140654e-02,-9.968069610986840523e-01,-7.293445746540673513e-02
2.209875118587940506e+03,6.389071450167148214e+01,5.220447060750169612e+02,9.440253203495916345e-01,1.334240602702912726e-01,3.016856222623822692e-01
8.647028897381807155e+02,2.998473692308613863e+03,1.417074957385533935e+03,6.227338943444211683e-01,-7.302618347470510862e-01,2.809273029566583535e-01
1.824626370055514144e+03,9.631774796956827913e+02,1.265476404208951180e+03,-1.428692437202994381e-01,9.868897457218085423e-01,7.508001723450785647e-02
1.505485759444042912e+02,1.489243910059679820e+03,2.519939752737540857e+03,-9.400122609476698754e-01,2.984473607289769848e-01,1.652456418243994918e-01
7.880384561069205347e+02,2.037399623369359460e+03,1.459276630434866092e+03,-5.888432175520119660e-01,6.026828574493298118e-01,5.385508689805491578e-01
8.156884754139470033e+02,2.817063990297638156e+03,1.518759120590170141e+03,-7.975731419478275519e-02,-4.911993443601288534e-01,-8.673880186701994344e-01
8.584146579543670441e+02,2.842617690544733705e+03,1.871611292407348628e+03,-2.392741205985815800e-01,4.004215920108823989e-01,-8.845396790779065377e-01
7.686795548442624977e+02,6.149655010289583288e+02,2.392114229708102812e+03,2.932684861442218516e-01,-9.010424314616882757e-01,-3.195561480245452390e-01
2.942313279198121108e+03,1.245671875874955276e+03,1.636998357788062776e+03,-1.839804201383620774e-01,6.218253696490119165e-01,7.612387369719051389e-01
1.922306848553149393e+03,1.551479857125364788e+03,1.361640370953134152e+03,9.434074389345047384e-01,-2.273244305727022407e-01,-2.414663691445155802e-01
1.344366189477906346e+03,1.352322864559494747e+03,1.402140825867689387e+02,4.970581297352924532e-01,-8.610683016210921581e-01,1.072128518761672478e-01
1.417132833037606474e+02,2.447328176476330555e+03,1.283181125620929606e+03,7.125511957822028286e-01,6.423371544930435162e-01,2.822654306625820286e-01
1.900620420567316842e+02,7.012635528587695717e+02,6.226775319875515606e+02,-1.739997415585200222e-03,7.115045504525621678e-02,-9.974640771255106619e-01
2.356874835656205960e+03,7.430747532404587901e+02,1.643088685163363607e+03,6.641524332245332118e-01,3.606574644883892566e-01,6.548494015808048463e-01
2.959393948422361063e+03,3.991450595196508289e+02,2.195063777815781123e+03,-5.129487958977355655e-01,-5.583304127307732179e-01,-6.520357988691629636e-01
2.321098088983688285e+03,3.725638150586463127e+01,2.890947806702898561e+03,3.292013918441742404e-01,8.550317881934706987e-01,-4.006832724066909379e-01
1.543687172835704132e+03,1.791500224734506219e+03,2.634395513337064585e+03,-4.302052783050025475e-01,-6.833257393393987744e-01,5.899062234582539421e-01
1.525330410491647172e+03,6.448521206055394259e+02,1.545421295666323431e+03,-8.007610902564287203e-01,3.765896635361863365e-01,4.657916934092294348e-01
6.501290688228544923e+01,2.240138057157441835e+03,4.654789888080537139e+02,4.994974268893606628e-01,7.555992510686151409e-01,-4.237594746025812320e-01
1.029441829156967970e+03,1.359980163206459565e+03,2.364281295485804094e+03,-1.755516695807317618e-01,-9.152774707489991224e-01,-3.625586336673456422e-01
1.394023160495161449e+02,2.117388160897095986e+03,6.073529732667378767e+02,-5.643281091657552651e-01,6.586031060671426740e-01,-4.977707643927227199e-01
1.770948507476522082e+03,2.787486817172449719e+03,1.761130647516040426e+03,-1.907501130968867475e-01,-9.793154941095445487e-01,-6.749486906797952379e-02
1.858204315400146015e+03,2.222489171434257059e+03,2.058457109863117239e+03,-2.421720075722116616e-01,-8.670082786982918899e-01,-4.354875008735266673e-01
1.953657271678260940e+03,1.994491136532553583e+03,2.567899748651802838e+03,7.129985670758435257e-01,-5.949199332095328474e-01,3.710839748867620913e-01
5.935270679064420847e+02,1.023706236419104016e+03,2.228806602700326778e+02,9.702508214572500012e-02,1.904645749410559807e-01,9.768875980004753101e-01
1.189514144738785035e+03,1.753646648778037843e+03,3.000000000000000000e+03,8.192495792824767802e-04,8.971248019500530080e-02,-9.959673688065225905e-01
6.389308868916078836e+02,1.296013690657213829e+03,6.634704289019133228e-01,-9.942310221354901945e-01,9.796244356350966576e-02,-4.368105166413549512e-02
2.108823459944598198e+03,2.743934185361969412e+03,6.075425113122622633e+02,-9.389285763572649546e-02,-4.480498965273139317e-02,9.945735991806819998e-01
1.001959035185963330e+03,7.947454030930115323e+02,1.308838252284706186e+03,5.698658230275981118e-02,5.757686015436366822e-02,9.967133161607782954e-01
2.175464992596910633e+03,1.002657297221890872e+03,1.205556721388201368e+03,9.824904482087465363e-01,-1.763981539935602916e-01,5.996841207035985555e-02
2.608126444224852548e+03,1.651928818689179025e+03,8.869144481916156337e+02,-2.608207133076755890e-01,8.866880963308940711e-01,3.817810568045125752e-01
1.696239914295515064e+03,1.447845383946499396e+03,3.187341432636828813e+02,6.091187978105565559e-01,-7.395634262738658427e-01,2.863917398806792303e-01
2.997117859131401929e+03,1.012193696447329927e+02,3.807515874777133149e+02,-7.001186383021165138e-01,5.959738746283513855e-01,3.932544126420709496e-01
1.846215785208460375e+03,1.008289663179914896e+03,1.323037684323849589e+03,-9.757506065856150768e-01,2.086482368941461885e-01,-6.615638282712180129e-02
1.015429753376286271e+03,2.327413158080610629e+03,6.989110491392618769e+02,1.162295394488152694e-01,-2.096318424605255609e-02,-9.930011274242253050e-01
1.100216455383488665e+03,2.827305370154245793e+03,2.280684607896166199e+03,3.041876557965944583e-02,-5.181472047745658283e-02,9.981933347014759761e-01
1.483378724231776687e+03,2.276343311767316209e+03,6.198512515209914682e+02,-2.172210061602792563e-01,6.970019886466979342e-01,-6.833763694372700925e-01
1.186417730120729402e+03,9.839436985614688638e+02,2.344818863044583281e+02,-7.116702969559688396e-01,6.739309701689324417e-01,1.983492774823358840e-01
1.198933830045446257e+03,1.547540411702685333e+03,2.903845439630851160e+03,-8.437244805869889008e-01,5.365553231484525565e-01,-1.540733783868852846e-02
2.171480738422794161e+02,2.219071836431834072e+03,1.032396099421845065e+03,-7.757405975028368594e-01,-5.938663845851744894e-01,2.134226854054537270e-01
2.627514680763740216e+03,1.415317500230542464e+03,1.168887060090210213e+02,2.307244793331940935e-01,-7.610112016819285952e-01,6.063234825990606591e-01
2.772725617887374028e+03,2.835915164926128455e+03,1.882834394958323628e+03,-4.360980006312849544e-01,4.979348639534957877e-01,-7.495861558920424716e-01
1.555562956538745766e+03,2.851261535212961007e+03,1.772445409833660051e+03,3.681103357230905426e-01,-1.772034497338871714e-03,9.297804260294867396e-01
2.724554873339041478e+03,1.816619719432480622e+02,1.069377985844374734e+03,-3.018950880541491077e-01,7.917952590490122677e-01,-5.309610377007762949e-01
2.148868640499445519e+03,2.035673238206701171e+03,1.438708882693026680e+03,1.717461759405872895e-02,4.328968104147317697e-01,9.012798588913710773e-01
5.750346757823105008e+02,3.503135887033259621e+01,3.036785902989771557e+02,-7.719497737712700536e-01,-1.725674182564684578e-01,-6.118120895591899755e-01
1.351359144457134562e+03,1.939776495737606410e+03,4.272659918432815402e+02,2.341667141747514058e-01,-1.902114790216505617e-03,9.721945957121573834e-01
1.477517663081018213e+02,2.595854331579719656e+03,2.247958797473872892e+03,2.403478068625147512e-01,9.341440425415945548e-01,2.638329765598435017e-01
