x,y,z,nx,ny,nz
2.666963046795781793e+03,1.288133895744452502e+03,6.857186110338358276e+02,-6.010533161819017201e-01,5.971795863345004118e-01,-5.311416503834868186e-01
2.003998173808684896e+03,1.157675508356255023e+03,5.987408993143342286e+02,-2.388407572576580762e-01,2.810354834298965376e-01,-9.295020977522927552e-01
2.041467672219742553e+03,1.428661967038082594e+03,2.720091271200045867e+03,5.111325951666029210e-01,8.519185157411699461e-01,-1.139223976907772773e-01
2.576617458845106739e+03,5.866593271134988754e+02,6.530159903911732044e+02,-6.766550335886233336e-01,-5.083768473806764970e-02,7.345430520600217950e-01
1.836944591840985822e+03,1.664723494680558815e+02,1.461352918490963475e+03,-2.567380324792100654e-01,5.480245403107398827e-01,-7.960871094898511746e-01
9.060521846634399026e+02,1.389063448728122694e+03,3.374863706602936304e+02,2.566585967279267355e-01,-7.613237050275623030e-02,-9.634989501225637021e-01
2.268215841828485281e+03,1.811970341642687117e+03,2.020886456038084589e+02,6.747405632644005724e-01,7.341575126550079489e-01,-7.574905212510119057e-02
1.636450448446592191e+03,1.606127292202535273e+03,7.965798783861590664e+02,4.532968292743798089e-01,-4.987828189965922698e-01,-7.387406067379851393e-01
2.675368769144668022e+03,2.169964524698320361e+02,1.314130076619937199e+03,1.093664207843685759e-01,-7.859772533174363973e-02,9.908891883442326742e-01
9.490441473981176159e+02,2.623664534139613806e+03,1.036973273692519342e+03,-6.328794298218350933e-01,7.634765510146689360e-01,1.287135709983007192e-01
2.801263732806130520e+03,1.469788790597952811e+03,1.372413229108102769e+03,-8.684789756083118040e-02,-9.745903761722396474e-01,2.064728586563278068e-01
3.098276951708478464e+02,8.218339853556577737e+02,2.565584189535465157e+03,-1.641765388967326988e-01,-9.619950071985020612e-01,2.182009857930154173e-01
1.467573646546089776e+03,2.741811322724471665e+03,1.268821311139045292e+03,-5.913107555338142918e-01,-5.674107109791596271e-01,5.730590505839292526e-01
2.920261265998007730e+03,1.845312152272097137e+03,1.040518285767096813e+03,5.017591364207483196e-01,-5.998864287378035121e-01,-6.231966315975312476e-01
1.619484369824207306e+03,1.206891335152360625e+03,8.362070046579938207e+02,3.848753225750037310e-02,1.442465279125402511e-01,-9.887930263942523723e-01
2.299200249692850775e+03,1.883495407057384227e+03,7.420799123231732892e+02,-7.213804640244667055e-02,9.811229302810277053e-01,-1.794265809126623645e-01
2.520970689826221133e+03,6.594685677461807245e+02,7.590830023383468870e+02,4.011461800445808613e-03,-3.238081930123506286e-02,-9.994675536082221479e-01
2.469877688788345949e+03,6.711159177791337243e+02,7.445128115373205446e+02,5.492907964841286725e-04,-9.944951314949886934e-01,-1.047813519305123842e-01
7.727186845883130673e+02,3.875936767426881602e+02,1.012787643917177434e+03,2.163984001832250925e-01,-9.648037867770524745e-01,-1.494168177241135265e-01
1.513496914519854045e+03,2.075027203535755689e+03,1.706121440008961144e+03,-6.903354754481678679e-01,-4.253866860876282519e-01,5.852205555490490596e-01
1.588483109694395353e+03,2.077598789754267273e+03,2.546869620793238937e+03,-2.356790864093722404e-01,-9.712215548901784734e-01,-3.441016631676818704e-02
2.848317105323829310e+03,1.069933385049351045e+03,2.177487867999649552e+03,3.324928360196549026e-01,1.198314159325249290e-01,9.354618889891843647e-01
9.160812938122721789e+02,2.199325008707376128e+03,1.001289096458829704e+03,-2.223879132666089498e-01,-5.200182380625810730e-01,-8.246967006816579016e-01
2.943569746411786127e+03,2.765157568803003869e+03,2.651963645030038151e+03,1.634638870700588220e-01,-1.052748002491287332e-01,9.809162930935815261e-01
5.549724601918632061e+02,2.048306411699918499e+03,5.338318934869358827e+02,1.847585058943684022e-01,8.508538964208010036e-01,-4.918454446726346352e-01
2.037966450682151162e+03,1.179689388663610771e+03,2.635524876039978153e+03,6.159711624096299021e-01,-3.577074068033181953e-01,-7.018724515164951328e-01
1.346074281669066750e+03,1.064308823793080805e+01,2.803899690273396118e+03,5.026602845490421023e-01,-2.156706383372299918e-01,8.371492185365090322e-01
1.546285970500420490e+03,2.908851305923095879e+03,2.715824964687877127e+03,-7.119052387513652436e-02,8.069279640546246357e-01,5.863439009122906054e-01
1.839433287655738013e+03,1.072113189667135885e+03,1.504468240375261985e+03,-4.719246577250231778e-01,-8.005513608699488248e-01,3.693299825906271039e-01
1.336593740445797721e+03,2.096271242207076739e+03,5.271114806371135728e+02,-8.586858882161768625e-01,4.933447635395737940e-01,-1.388145873691870591e-01
1.682927466501065055e+03,1.169880638586725127e+03,1.588568577102178381e+02,4.627173411223470811e-01,-1.688287303237619996e-01,-8.702812890335698270e-01
1.295501866273299811e+03,9.149026695108827880e+02,1.821006498280707547e+03,1.182217230846459993e-02,6.418696284309698408e-01,-7.667226462938196985e-01
1.921932943922067807e+02,1.338736867634832834e+03,2.465708881849427144e+03,-3.258162718713513151e-01,1.914703090402336272e-01,-9.258417131129332844e-01
2.384908699255333886e+03,3.256748101384844176e+02,2.195049732324882370e+03,-6.371516671007904087e-02,-8.329000922451486322e-02,-9.944863759220068378e-01
1.013237636275049454e+03,4.134736185304655010e+02,6.568636748811377402e+02,-5.779578468487402976e-01,9.181026847128213875e-02,8.108856897671823383e-01
1.990950845380086776e+03,4.282557082610915700e+01,2.012793245700230273e+03,-9.697428142214977731e-01,-2.259439592212925119e-01,9.245648466806732912e-02
2.867306143660510770e+03,1.514702707739523646e+02,8.231584300978467184e+01,-6.404368356092284831e-01,7.587197310144611073e-01,1.191009209207969516e-01
2.471872958950268639e+03,1.974620557247502717e+01,9.625098137878070474e+02,1.603458569058853521e-03,-9.235011308405903785e-01,3.835923490592167417e-01
6.195423435777674968e+02,1.123236103739305008e+03,2.888567507195939470e+03,6.601650114571834260e-01,2.296993476061542916e-01,7.151366074793290561e-01
2.083361355549188829e+03,2.614648953956693276e+03,1.168168173692350820e+03,2.252468506136603432e-01,6.203932220056276314e-01,7.512496964246331288e-01
2.936056195566821771e+03,2.054541728584737939e+03,3.647056509826729211e+02,-7.320582275969175767e-02,9.565433737664305047e-01,2.822510967518312985e-01
2.403442858381242331e+03,2.857107446124122134e+02,2.209771886351129069e+03,1.263278939613856310e-02,-9.602140309627379411e-01,2.789792597566407295e-01
1.288369775896362171e+03,1.700588968209048062e+03,1.822698691589454938e+03,8.655919207144399108e-01,-5.000633319066354332e-01,-2.621623306886489493e-02
2.553598321027765905e+03,9.971834056078183721e+02,3.635578422834105936e+02,-5.430525830675421162e-01,-3.326360469652833163e-01,-7.710039897970569767e-01
7.421851546649459124e+02,2.951400548763584538e+03,2.038787075681552551e+03,5.050912817540490485e-01,6.318719492855162656e-01,5.878950899626343984e-01
1.173684991332145046e+03,2.004540459321230401e+03,2.588347544569514866e+03,6.682285619458221415e-01,-3.209404769237259591e-01,-6.711689796703881328e-01
8.211166864832799774e+02,1.052102585802395879e+03,1.125929185250878618e+03,-9.761476344968933461e-01,1.103071129438684267e-01,1.869976911625066407e-01
5.464677730921678176e+02,2.373590056496680518e+03,2.588763001369624817e+03,-1.085787136275573606e-01,-9.806883509402471999e-01,1.626684397081488431e-01
3.327372514095606562e+02,1.163362774562377581e+03,2.994202407181584931e+03,4.557400738135272689e-02,9.836397157020480009e-01,1.742868886198807310e-01
2.605681697002341480e+03,1.833706092774533772e+03,1.813694853314667853e+03,-2.194372041460554423e-01,-2.317998099259408196e-01,-9.476899079102087953e-01
1.035299816917142408e+02,3.795744974441716835e+01,2.329578057649460789e+03,8.783623237989567345e-01,-2.880875854927916757e-01,-3.814251842962526062e-01
1.549785137509809374e+03,1.480392125300730868e+03,1.421983976751041610e+03,-2.364130391525191555e-01,-1.259706586188441280e-01,9.634522655979402828e-01
2.003948697280613089e+02,1.997533352054659190e+03,7.217663339066031085e+02,5.910074874618690410e-01,2.420060572659903791e-02,-8.063029706298212584e-01
1.937429533957435268e+01,2.486911862710556761e+03,2.903123999526234002e+03,4.579280417136491477e-01,8.716708349716644211e-01,-1.746191973183473245e-01
2.243394953152907874e+03,1.764379211718065790e+03,2.155280406534625399e+02,-4.286846713655750873e-01,-8.986832674770524054e-01,9.272452368687360280e-02
2.954495793161861002e+03,2.762725297717781814e+03,1.518471662014725553e+03,3.148700872753938951e-01,-8.275581911729587015e-01,4.647625935482830872e-01
1.743187327961809387e+03,4.733879080590619424e+02,1.297910623586526754e+03,5.722559423314593774e-01,-8.198759616076104484e-01,-1.807052971912482056e-02
1.698198385989553117e+03,1.498313454384702254e+03,2.071673466192113210e+03,5.729269085726461652e-01,3.668609730212976650e-01,-7.329173104158868135e-01
2.552587233452562941e+03,2.035795481581802051e+03,7.550874224614790364e+02,-2.648692910796715538e-01,-7.243045380704433711e-01,6.365745791134875819e-01
5.295331265566194361e+02,9.419085792036926250e+02,1.755455373349120919e+03,-6.246618950847870888e-01,-7.667374797009895993e-01,-1.480241671175925866e-01
2.736795949618190207e+03,2.662692686243760363e+03,1.772316783090446961e+03,-2.947253508902237251e-01,-7.784482562596592992e-01,-5.542159144854379438e-01
2.842195717766850066e+03,1.631451303849993565e+03,2.989636034981982448e+03,-9.354183367016745132e-01,-3.327522355745921034e-01,-1.194507642603590547e-01
1.881936712833050933e+03,5.603088055822735924e+01,2.825762975962072687e+03,8.442607817804888004e-01,-9.595055608706312689e-02,5.272733855733486852e-01
3.547893714639719178e+02,2.229245681590754430e+03,4.623534155937961714e+02,-1.821635454323011216e-01,6.068585666931226585e-01,7.736531023312080979e-01
2.433513418662036543e+01,2.301155047311469389e+03,1.756999446231778620e+03,-4.149640222933663469e-02,9.778570474433924131e-01,-2.051186080474227957e-01
8.317656543253483505e+02,1.182405120758836347e+03,6.361395867724093023e+02,-5.266360872862708709e-01,-7.449515269599917833e-01,-4.095139241195395741e-01
6.001030958892507670e+02,2.458842047406544680e+03,1.964224669981071429e+03,2.911093353547192786e-01,-2.138979133085341655e-01,-9.324714674195604402e-01
1.378908821896712197e+03,1.293114299108945033e+02,9.152678275107091395e+02,-5.689276971556441742e-01,5.066740855853120173e-01,6.477674323439422954e-01
1.539482978134609311e+03,1.524119270707726855e+03,1.491864925818801339e+03,-7.068243673903888691e-02,7.608146278904806027e-03,-9.974698538035274842e-01
1.681441697619590514e+03,9.835357179051557068e+02,1.861559832757156528e+03,-1.321456775679620832e-01,-2.201051212728585837e-01,9.664839654591090845e-01
1.771995242133962847e+03,3.479919323456420557e+02,4.940439679724141229e+02,-1.804176761377807026e-01,-9.816476520370738257e-01,-6.178470188600981849e-02
1.546295161403190605e+03,8.835273352526303370e+02,2.990249467974615982e+03,-7.708290897974414690e-01,-3.242721698902036320e-01,-5.483339075387796413e-01
2.663400378364524386e+03,1.959748663277104299e+02,1.359982460498013097e+03,-2.338765523257357610e-03,7.907182254189822068e-02,-9.968661781080396800e-01
2.038799916272590053e+03,2.609466008026597592e+03,1.186872733892188080e+03,1.096204880332509943e-02,8.003436363474147885e-01,-5.994413209349440663e-01
2.948545942042866955e+03,1.985398947604298201e+03,1.094777818987893625e+03,6.749627948444432146e-01,6.035836753416825573e-01,4.243960089784122314e-01
1.468205706935843402e+00,2.720923448581620050e+03,1.569869341825341053e+03,-1.579257619997711526e-01,9.180044115544523375e-01,-3.637682697313709412e-01
2.955403456564432872e+03,3.656661638388927145e+02,2.564625611294750342e+03,-2.172479731901986177e-01,-4.442939704653867672e-01,8.691410621716435525e-01
1.001135292302363496e+03,1.664654523515656592e+03,1.646076684428423050e+03,-8.028465354341252080e-01,2.973507153974825346e-01,5.167397726070901420e-01
3.189878327430380409e+02,2.248112447021565913e+03,4.319969370683328975e+02,1.445010277997823807e-03,7.819792928458830783e-01,-6.233027334334008129e-01
1.438332872811157358e+03,1.155122907852053913e+03,3.489483349798667859e+02,3.003416909242824159e-02,-6.869733864266832635e-01,-7.260616468512729460e-01
1.826546019420197808e+03,1.173127341140663930e+03,1.761952090096797860e+02,-2.444560114220729052e-01,8.088510621494976460e-02,-9.662809415859383577e-01
5.892778547632253776e+02,7.999939480631002198e+02,6.038197870812998644e+02,-4.038736276242348433e-01,-9.133021966451795315e-01,5.258507880312435906e-02
1.521285624138228741e+03,1.567246585073649612e+03,1.508448298017855677e+03,2.870853981938494351e-02,9.143319170162677034e-01,-4.039467356803316811e-01
6.798170587025646228e+02,1.627266610130857089e+03,1.014746265261744838e+03,-1.448458720969179880e-01,9.394167724383335472e-01,-3.106699229053687117e-01
2.351057436057311406e+03,1.342652741924531028e+03,2.802930254688826153e+03,-4.844415816089286397e-01,-4.154403494008532816e-01,-7.698867904425537034e-01
2.306656720380046409e+03,2.495303824588846965e+03,2.805276276194175352e+03,7.654986429795725966e-01,-3.323915511948301593e-01,-5.509334663012656064e-01
5.661156106940504742e+02,2.781213733440333726e+03,2.026648654517888417e+03,1.876028829531324951e-02,-9.558195705298893063e-01,2.933547343663210905e-01
7.512831899398051974e+02,1.896905698103463465e+03,2.187584094709985038e+03,-3.024181767620860717e-02,6.289428370304203098e-01,-7.768631412364503941e-01
2.019041912571440889e+03,2.577361274775724809e+01,2.922586965492284435e+03,-5.280726728471691889e-01,-4.220748343931117197e-01,-7.368799674058685856e-01
1.359335840144189206e+03,1.607418601275613355e+03,1.608719454386387952e+03,-2.304758951989943072e-01,9.743691804152382341e-02,-9.681874347123038405e-01
2.634500407355409152e+03,2.098809820354611475e+03,2.895582303130629043e+03,-8.443953713743246325e-01,3.308077744724338132e-01,4.213818614394926332e-01
5.622198406049107007e+02,2.409272949593857447e+03,1.800797303361941431e+03,6.182197302344244472e-01,-2.307632859150034743e-01,-7.513672011889965807e-01
5.808992374222636954e+02,2.886151628327144863e+03,1.541819684791625491e+02,-6.503602394863685632e-01,3.864513940167648154e-01,-6.539777358272471641e-01
8.184821058474141182e+02,1.021102714438909061e+03,8.649478256898000836e+02,8.956315737375492025e-01,-3.750248882136262840e-01,-2.391660873634848805e-01
2.444740484050576470e+03,6.423868119412619535e+02,2.779062805423177451e+03,1.179513009818145414e-01,9.929414067856416892e-01,1.244400607715061280e-02
1.937103895558018621e+03,1.798477030191894073e+03,1.600590730570156666e+03,4.903422931260757907e-03,-9.995037967602818929e-01,-3.111457384150149302e-02
5.326900896323834331e+02,6.045744974419213804e+02,2.905835737507142312e+03,-3.302114592792034231e-01,1.780739228670458474e-01,-9.269574262906794537e-01
1.713343099287662881e+03,1.171398882024792556e+03,8.933476287521492623e+02,-2.501969505518695375e-02,-1.957367110567534707e-01,-9.803372658447859767e-01
2.308490221935755926e+03,2.168399601442087715e+03,1.731315153172934060e+03,-1.631855232688229629e-01,1.616224046016964955e-01,-9.732670154311436894e-01
1.711337762091086233e+03,1.037053867025956379e+03,9.849579164765900714e+02,2.874300148048050674e-01,2.460828295185248926e-01,9.256496246450198750e-01
2.063492438067006788e+03,1.501054010435472492e+03,1.238562771286293128e+03,-6.538883059658182582e-04,5.168262523973840006e-01,-8.560900637567048221e-01
8.466329107799319686e+00,1.093810376773200232e+03,2.175642273469832162e+03,5.235046885913293702e-01,-6.838343344464314910e-01,-5.082454565021721216e-01
2.791543898028033254e+03,1.915704614233759685e+03,1.290606878410147601e+03,5.184400791149721410e-01,-7.294810797782582679e-01,4.461807241609703212e-01
2.075767469531866482e+03,5.723343267166870874e+02,6.950808706957860750e+02,-1.753439205266544565e-01,-8.314407275349715576e-01,5.272199030105556572e-01
1.358645216969105832e+03,9.518821203545578555e+02,1.864581841405468367e+03,7.185579114181918081e-01,6.885227209525556225e-01,9.803566019778320317e-02
1.216992054854642674e+03,3.878000835157898791e+02,1.952161759756831771e+03,-1.462455369231209779e-01,9.777371127844597387e-01,-1.504738555828779578e-01
8.570858124935789419e+02,2.110083266933673258e+03,2.541640270675346528e+03,4.172428773418517672e-02,7.622772674004845150e-01,-6.459043670834910822e-01
1.179788584080382634e+03,2.476143947202359413e+03,1.715949186083206996e+03,3.744797667493028337e-01,4.116892945961996841e-01,-8.308290010647625401e-01
1.264861832961334130e+03,2.781636788676355536e+03,2.803696119108239600e+03,2.359703731922414283e-01,-1.119019279912717019e-01,-9.652957792756324817e-01
5.527307166921502812e+02,1.448128467821442882e+03,2.089430590209531601e+03,1.161584192590278952e-01,7.794076148140259841e-01,-6.156549290025661314e-01
1.672678245200621404e+03,1.914078477251687218e+03,9.505979249301549316e+02,-8.811756646925689163e-01,2.724764756530253518e-01,-3.863754885720827037e-01
4.479410105596608673e+02,1.688665149907885052e+03,5.872878874519926740e-01,-8.858759372953139977e-01,-3.531325521300672787e-01,-3.008674531205633440e-01
1.170026210762518133e+02,1.006947109939565735e+03,2.764866089482524330e+03,-1.624658760828180670e-01,-9.849582791350353084e-01,5.883899618443710899e-02
2.950016343632478879e+02,2.266935744208089432e+02,1.068555734713792617e+03,-9.985241119398787779e-01,3.732549233830362301e-02,-3.945130538245656543e-02
2.717275470437161403e+03,2.199161281595561832e+03,2.154026864581214795e+03,2.584732812169010518e-01,-5.011264334332218295e-01,8.258715763431185852e-01
1.081141457033364304e+03,2.412414730841122491e+03,2.954410748259294451e+03,6.635727495859256031e-01,3.806917744492380740e-01,6.440069711374754036e-01
9.990408181044992943e+02,1.984512306494723816e+03,1.543809642931798180e+03,-2.503198601424000413e-01,-9.648687031323222030e-01,7.980196322171596857e-02
1.462635547394865171e+03,5.359474370388642228e+02,2.966706815813162393e+03,6.131798761695399502e-01,-5.618924435399402784e-01,5.552362752499360177e-01
5.965045880615762144e+02,2.441683829635785060e+03,7.288596080791442944e+01,-2.832114367937997243e-02,4.250776523381926686e-01,9.047137128967055464e-01
1.254703412195559167e+03,5.569577824790720797e+02,2.895388870622717604e+03,8.835999755472530026e-01,4.339769159153363809e-01,1.758269594388386370e-01
1.798283378799509592e+03,8.419071388276588550e+02,2.017589764099122476e+03,-2.331627009991649180e-01,-3.945855406262833709e-01,8.887842291531942163e-01
1.265728775514067365e+03,2.893189455991229764e+01,9.131633230731027879e+02,9.049584365886883530e-01,2.724952904127667108e-01,3.267974062776797251e-01
1.058823278392273096e+03,2.426967608134697457e+03,1.889071836352576838e+03,-9.146226326345329588e-03,-2.118485455693409902e-02,-9.997337387931793939e-01
2.367180418269554593e+03,2.081004772466983923e+03,1.719410151762640226e+03,6.269950213890324552e-03,9.913863831155341755e-01,1.308194446457200677e-01
9.587198143092620057e+02,2.467728328428941040e+03,2.428399815717350975e+03,-9.242864584954337825e-01,-1.561619845093617232e-01,-3.482929474394605429e-01
2.860633679578215379e+03,2.022186692210073602e+02,6.723934116728918298e+01,7.284118857752474030e-01,-5.619818815654323979e-02,6.828307903933958922e-01
1.925769684565386115e+03,5.375909596320805122e+02,2.560035532885205612e+03,-4.199526662582632186e-01,-8.918127642148442336e-01,-1.682550197945205106e-01
2.300513660262105077e+03,1.899005778763798389e+03,2.148380934282970884e+03,-6.482710264738905659e-01,-7.612546055009672408e-01,-1.536560568461275977e-02
6.232253474118780332e+02,1.704130062584223879e+03,2.333466453672581792e+03,7.839413345376643472e-01,5.592964513489924183e-01,2.694874088185386651e-01
1.063161707868949634e+03,2.915521947598540009e+03,4.823996099833898370e+02,1.056413155055920400e-01,9.943477533742708374e-01,-1.060461304284156248e-02
1.668102086025789276e+03,1.070428523238756270e+03,2.617156735216320271e+02,-6.418165394459556250e-01,2.374482375742892337e-01,-7.291706687507952811e-01
2.648880786398666260e+03,1.684854905836732542e+03,2.815279229347710043e+03,-7.462730166212101501e-01,6.549782546216211809e-01,1.186594734350940872e-01
2.387238144514082705e+03,6.293908351579545979e+02,7.038394969640080490e+02,-2.246250940304546917e-01,9.443547144578123831e-01,2.402867878455099693e-01
1.963612460967801780e+03,2.600426594412245322e+03,1.668642709579609800e+03,9.326080385499223580e-01,3.358311308868283662e-01,1.321351503550078910e-01
1.463288331524610385e+03,1.568952783933402998e+03,1.578575797043356715e+03,7.991009117620252733e-02,8.979263789262632578e-01,-4.328309085042099102e-01
2.574729708208050852e+03,2.099375263803355210e+03,2.510979758207710802e+03,7.078313114303973475e-01,-2.631698968441733566e-01,-6.555276042652599111e-01
1.821853473375868361e+03,1.087836096459021292e+03,2.054750824311443466e+03,9.472546590068303685e-01,-1.395779543863364114e-01,-2.884902175796941748e-01
1.772607761612015793e+03,2.628530057680231494e+03,3.786079035646810098e+02,-9.419830675009776000e-01,8.486718502927835528e-02,3.247544633206063680e-01
2.612405577710648231e+03,2.855338000181595817e+03,2.344369316109728516e+03,4.551932987018188492e-01,-8.515852849293505944e-01,-2.600030063456064688e-01
1.409197109891631953e+03,1.351974978963490003e+03,2.651509415658976195e+03,-5.764076391957419568e-03,-9.038453778167396813e-01,4.278204160891141417e-01
1.858059760615494270e+03,2.178209722405810226e+03,2.638108260454487208e+02,3.158555837007320233e-01,-5.841379638171052546e-01,-7.476751229462406112e-01
7.950469519744131048e+02,1.149533902520582160e+03,2.451433661183376898e+03,-6.596666918174257654e-01,-7.469486044594656482e-01,8.311220128663454609e-02
1.083494260409634535e+03,1.047797281108974232e+02,2.442760847849152924e+03,-4.369830667095679355e-01,-6.199447599303824497e-01,-6.517010772155912290e-01
2.770058786492802483e+03,2.741701686602570135e+03,2.833620653659698291e+03,3.687727174683532727e-01,-8.760808815704759223e-01,3.106267403133606830e-01
2.751749078839832805e+02,1.681164356637736432e+02,1.399698132976158831e+03,-9.155166905374563235e-01,-1.583568149917657106e-04,4.022799575798707838e-01
1.748087647889134132e+03,1.298251819426925294e+03,2.750834325212657205e+01,-4.394042697717120971e-03,-9.521344173366416697e-02,-9.954471823768455963e-01
1.755580857582285944e+03,1.318965669658952265e+03,2.548674483359946407e+03,1.029508728809502144e-02,6.691686696036273085e-01,7.430392336873214987e-01
2.452384448203328589e+02,8.461905544551850653e+02,6.825315087017105498e+02,5.552293674784525290e-01,-6.055975133978031000e-01,5.700631554975950088e-01
1.436710302374813182e+03,1.211513636179365676e+03,3.347469882877750251e+02,2.295621810991329559e-01,-6.689288453940369639e-01,-7.069903852308102588e-01
9.154075421188869086e+02,6.152083552822649608e+02,1.247186732122740750e+03,5.344432368312843629e-01,7.341123440151252622e-01,-4.188669155828830259e-01
7.570203784986364326e+02,1.187296158372122591e+03,1.049343337640225172e+03,-7.322481989576196115e-01,5.744356749298976661e-01,3.658363438631477838e-01
2.991892022893129251e+03,2.081970011324697225e+03,2.318563208502068846e+03,-4.612909130106789685e-02,-9.810144369639913764e-01,1.883687378626311137e-01
2.574807915856476370e+02,7.824063913619152117e+02,1.143889721925779668e+03,-9.260365688786159621e-01,-3.658381715149095492e-01,-9.283698272858674494e-02
2.810845653782717363e+03,1.559871578410638051e+02,8.072271891208568206e+01,6.381879411380466660e-01,-7.605668740796601712e-01,-1.193908783729954320e-01
2.798877184729671626e+03,1.334192193353261473e+03,1.823724436917003914e+03,-5.675643754084666037e-01,8.109744387861437254e-01,1.420955291439414403e-01
2.233612747570876309e+03,2.499751861615979124e+03,4.498798103070676007e+02,7.255024500070667015e-01,-6.873312261457474870e-01,3.495683908374958709e-02
2.971644646960921818e+03,2.668772822235174772e+03,1.536859594000654170e+03,4.720786226261985963e-01,1.193420346458843456e-01,-8.734410414137474543e-01
2.787337060626043694e+03,1.515321863023868218e+03,2.263978664243993535e+03,9.818688700259249336e-01,1.575353365213109369e-01,1.054331059066875437e-01
1.097305075642783777e+03,1.988915855386745989e+03,2.145667214220261940e+03,7.131245405145761884e-01,-7.009128880532234929e-01,1.321033976716412539e-02
2.400425086341909719e+03,2.168319368913459584e+03,2.036086492601097461e+03,3.323376475683476050e-01,-6.354364609484970394e-01,6.969735949847641887e-01
2.302372693895380962e+03,4.817505421716214755e+02,5.438380178905238154e+02,-7.301407004108453336e-01,-4.455057483061571899e-01,-5.180918700672025867e-01
1.112282626892352255e+03,1.611827627949266798e+03,1.762849408888771677e+03,-2.029745377044531174e-02,-9.796373451093348672e-01,-1.997465530054789440e-01
2.366805768338959751e+03,1.069705962837093921e+03,8.553117591186419304e+02,1.653090695345927341e-01,8.924500209925638750e-01,-4.197688310963303970e-01
1.463888150615414133e+03,2.513369062259364910e+03,2.999181560842185263e+03,5.873052113943866281e-01,-8.078036329168186702e-01,5.025812685909270688e-02
2.183013190850723277e+03,3.918584975955606637e+02,1.894727447173390829e+03,7.509591576676054592e-01,2.900001521136871263e-01,-5.932623831739196607e-01
2.647675106432271150e+03,9.586148823589238646e+02,2.975212007928631010e+03,-5.703898599324648266e-01,8.035311639656853577e-01,-1.702735335340588574e-01
3.558100916811914658e+02,1.356874821939536332e+03,1.681298067710174792e+03,-9.728810737777555673e-01,1.067726671540325939e-01,-2.051877526409788821e-01
2.407449983198456266e+03,2.283535337733255346e+03,2.260410799945803774e+03,2.294202341707067827e-01,-2.420031116913965719e-01,9.427623507993621033e-01
2.990129675873847191e+03,2.457199110492068485e+03,6.461342873313758446e+02,-6.042875627596706600e-01,3.424535237503574803e-01,7.194179074536167784e-01
2.448826613349173385e+03,5.123799631056839843e+01,9.438774343788678607e+02,3.500115714905161586e-04,-9.806157589955925014e-01,1.959403243372782877e-01
4.142464867179527346e+02,1.026071335348691264e+03,1.745485575756056051e+03,-3.317904130139931462e-01,-9.185948596083204354e-01,-2.147058586372854461e-01
2.732627472824482538e+03,1.338935869755157455e+03,2.330179851263536420e+03,3.649283345987364702e-01,1.016717081111105508e-01,9.254675436646937481e-01
2.660814428774996486e+03,1.876647285172504667e+02,2.124711289088695139e+03,-5.772826041417667906e-03,-3.121421205564912094e-01,9.500178793338536209e-01
2.673276394761415304e+03,1.623259671390449512e+03,3.042897731859931696e+02,4.817040034414058480e-01,-7.999246530857877513e-01,-3.578851805455267598e-01
2.088563654336369837e+03,2.661687223565632848e+03,1.204809905245424488e+03,2.284731192703716995e-01,6.199146954419508804e-01,7.506702366192360421e-01
1.177346631754159716e+03,5.586236168177548507e+02,1.407346679710150738e+03,-4.917592033536789531e-01,-8.035105171444826277e-01,3.354753862135957387e-01
1.241048227720960540e+03,2.763065850358838361e+03,2.761774710610496186e+03,-2.285639895637314456e-01,1.121055938934547302e-01,9.670526554911610395e-01
8.791194937716282993e+02,2.207342306141576501e+03,6.063677123190449265e+02,5.579842134937986753e-01,3.337762032400645729e-01,7.597677695469544634e-01
1.596730233238555229e+03,8.943581215403903570e+02,3.000000000000000000e+03,1.490394276856892852e-01,-7.818097381239664800e-01,6.054426334258738995e-01
2.887659735001420813e+02,1.549341598763215870e+03,2.029257055330409912e+03,-8.491212473126492633e-01,-8.344682345694789949e-02,-5.215646987835311776e-01
2.896996301365386898e+03,2.299209768288723353e+03,1.159469219048044579e+03,-7.658441788535292893e-01,2.332763926471689009e-01,-5.992201751857888503e-01
1.469342944987423834e+03,2.527734880666666413e+03,3.000000000000000000e+03,-7.161152331206909194e-01,6.966351058519844042e-01,-4.334169109637035083e-02
3.922639324309373876e+01,5.133301891684228622e+02,2.866111764943733760e+03,-7.635778042517671338e-01,-5.941298254624857167e-01,2.529005483386040365e-01
1.432345750547545776e+03,1.453156456999072589e+03,2.508187834580443905e+03,3.233044782509280068e-01,-9.113480087227735504e-01,-2.547921139673099411e-01
1.331772007671946767e+03,9.633567222241362060e+02,1.813247770171829188e+03,2.207374070742648964e-01,-6.260805599682492950e-01,7.478623734003292389e-01
3.640956262345304140e+02,1.701443318492038657e+02,2.717016963447119451e+03,1.645881377140738511e-01,-9.813251655927542894e-01,9.955734175924102480e-02
2.060951747832536512e+03,6.464103675299847964e+02,2.377979220690260263e+03,-9.878288494864361988e-03,-6.562631393420828019e-01,7.544674355843903335e-01
1.003864810640431529e+02,1.833545650217748062e+03,2.276694267717631192e+03,9.351857290022616565e-02,-6.408179627103895992e-01,7.619754688901807516e-01
2.823601114437671185e+03,1.380748414035368796e+03,2.939043303270424531e+03,-3.577564659597040619e-01,-5.070187407050967821e-01,-7.841825728985827304e-01
2.363831572641415278e+03,5.101297958502565280e+02,1.316949089382861075e+03,2.510544122425870661e-01,-9.529851068633666822e-01,1.696793098469777661e-01
1.093664377805545200e+03,1.325679107640682446e+02,2.493457441665219449e+03,-1.157698204854424873e-01,-8.628915719360088499e-01,4.919506923936301512e-01
8.788917056481793679e+02,2.954338468731394187e+03,2.065966016639545160e+03,6.429353584880860284e-01,3.218325066210316887e-01,6.950237136154564510e-01
1.637128519460102325e+03,2.637076974131886345e+03,2.212461510316906242e+03,-5.656714818697905489e-01,2.024687911779395610e-01,7.993886183816849567e-01
8.845076058670453278e+01,2.270663378576624382e+03,1.982199806529044963e+03,2.953259106233531162e-01,-5.807386610919914594e-01,7.586337812327950125e-01
1.016576985620823848e+03,2.025233488556765451e+03,9.182562074848772227e+02,-1.386804907312440965e-02,1.971846083424756979e-01,9.802682834039515569e-01
4.241031394165593156e+02,7.878090421652747182e+02,2.771788714504629297e+03,8.463997371752807197e-01,3.538050835664574012e-01,-3.980319682539932291e-01
1.381065221971593246e+03,5.065033900709394743e+02,2.889267355913558731e+03,7.336192982909859328e-01,-6.719595366751697219e-01,1.013563330351525682e-01
2.065573422556801233e+03,6.929769807342230479e+02,1.798202076681892834e+02,8.423030268761051431e-01,-5.104102327291922814e-01,1.732253019644740821e-01
6.382883359893422721e+02,1.505978498459300454e+03,6.999527058253652285e+02,-9.774261346375041626e-01,3.003000059646668968e-02,2.091323752836082850e-01
2.456795938860267142e+03,2.916353449403082436e+02,2.185508860677757184e+03,6.475571107012683715e-03,-2.526476137708532077e-01,9.675366919320073089e-01
2.791556999676910436e+03,1.503659749291676462e+03,2.528770787136143554e+03,8.190273242563835820e-01,3.577871802955953640e-01,4.485338066830146797e-01
2.885863740407986825e+03,2.320709212615902743e+03,1.001654243546644693e+03,7.442697169875173158e-01,3.032877996299382373e-01,-5.950454595835106275e-01
1.706117474455555566e+03,1.170178467930507622e+03,8.332627561681412089e+02,9.943157882239177237e-02,9.930867465322406051e-01,-6.238649689552894922e-02
1.349379499076845605e+03,2.915128970325080900e+03,2.827272949513285766e+03,-5.913818953722924654e-01,7.942472746762681002e-01,-1.394228119612990480e-01
1.274463697570444083e+03,2.724019953462468038e+03,2.811849051518631768e+03,-9.809472643165399047e-03,-9.878371308665010453e-01,1.551823995429321423e-01
1.380951721130195438e+03,2.200861517747541711e+03,2.433848102822906185e+03,3.872301285476240085e-01,-7.149723026539827053e-01,5.821232120287356260e-01
1.822110140827133137e+03,2.217133696716702616e+03,2.524272438679928428e+02,-1.735811234682321444e-02,-7.547231369528772937e-01,6.558137559427703600e-01
7.655041624070379669e+01,2.520984904713600827e+03,2.714361486993668223e+03,-3.091851060303160148e-01,-1.377220270695402871e-01,-9.409767337553458511e-01
1.090130638461827402e+03,2.686176036220885635e+03,4.001524329114791954e+02,5.223901113567264165e-02,5.264773667389105460e-01,8.485827408256838567e-01
1.053431303338154748e+03,3.097168468324276205e+02,1.786880907560398327e+03,-9.618084071428670834e-01,2.571114548491542084e-01,9.390573856081485538e-02
3.243895080682968057e+01,1.215550155223834054e+03,5.428420154932833839e+02,9.902869464142274314e-01,9.020428138439993970e-02,1.058061972736437234e-01
8.735788556468060406e+00,1.068204934881041027e+03,2.755050483934329804e+03,-9.940222768783789631e-01,-7.913216907404609091e-02,7.521843449022291850e-02
6.884485356087801620e+02,2.463726153477963123e+02,1.486891169582689827e+03,-2.945980499237571548e-01,-1.175506509921691728e-01,9.483637664063493400e-01
2.625483311274624612e+03,2.102570045118818598e+03,2.477317798694095927e+03,1.300149110965259369e-01,-9.605579422646756127e-01,2.458140810547977395e-01
2.291078256200692522e+03,1.597831513038863250e+03,1.283891324620499745e+03,-9.543722483498875420e-01,8.781788015110371381e-02,2.854148410740884878e-01
1.409262529998207356e+03,1.821242305474840123e+03,1.994778800648738070e+03,3.909101045915960304e-01,-1.448644203547913289e-01,9.089574191585971796e-01
1.277439165231145807e+03,2.393953200056469086e+03,4.318222471361300450e+02,-5.563998423511168356e-01,-7.783196471685353002e-01,2.909256644971340844e-01
1.682289783944231203e+03,2.615245381825812728e+03,1.776613099088287527e+03,7.372073378024566193e-01,5.619244882128204832e-01,-3.751882336067784984e-01
3.382752066141576393e+02,2.237308675536845385e+03,2.931850640033392665e+03,-1.089601109240182081e-01,9.020954710782648212e-01,4.175541345592317377e-01
1.768314406649038574e+03,2.489632784724891280e+03,2.440881975275555760e+03,6.754491996634389706e-01,-7.343504987233343551e-01,6.706507063151367909e-02
2.825758550337728593e+03,2.147599887824999314e+03,2.359507172502873800e+03,6.313786453179895952e-01,-7.734790147890960865e-01,5.559874024930567399e-02
3.233010479786901925e+01,5.428068196488814010e+02,2.987691796992724903e+03,8.598516136103129259e-01,3.726976648527958735e-01,3.489292953952336518e-01
2.373122663971304974e+03,1.315684379724499877e+03,2.785567132208718704e+03,1.353071492295943035e-01,-7.289894194991417553e-01,6.710189279190750256e-01
2.242386356578833784e+03,1.389933151574013436e+03,2.397593634515763824e+03,-7.137179077792932258e-01,-1.546010043865224115e-01,-6.831583107580753156e-01
4.026772703051826170e+02,2.007346594605120345e+03,2.718911992708251091e+03,-5.133394184416588679e-01,8.179645204048110463e-01,2.596472315140430642e-01
2.574359705900324570e+03,6.974652590963459886e+01,1.863902297721964260e+03,-7.976255133232134087e-01,-1.986073271094271064e-01,-5.695161719515340337e-01
1.695479244894833982e+03,2.907930443925319651e+03,7.930457948531644661e+02,7.397903491255779507e-01,-1.515185399421181411e-01,6.555550101970575305e-01
6.505012887907857078e+01,2.359400629160602421e+03,2.040865458856685564e+03,-2.766176661802538517e-01,-6.027437295162071385e-01,7.484535144455420896e-01
1.469980359385439215e+03,5.485281896314889991e+02,2.584432887997761554e+03,-7.932654165670804947e-01,3.653342874234150051e-01,4.870942796948880549e-01
5.275167592027474228e+01,9.766099257783505436e+02,6.857693298328038054e+02,-9.769360255649975899e-01,-1.011361998585783295e-01,-1.880624125960108917e-01
2.242943126656871016e+02,5.933477019760474604e+02,2.442374654886393728e+03,-2.831093868389359947e-01,-8.224166917831888801e-01,-4.934367843605469428e-01
1.881690722472531888e+03,1.240990730609983302e+03,1.396334194376078358e+03,3.972695923076666191e-01,8.864064771908808371e-01,-2.376140320388355764e-01
2.668879251964432569e+03,1.665175026173512606e+03,2.800924650483984806e+02,6.531976779091810403e-01,-2.980922922351651461e-01,6.960415065813524427e-01
9.355043181052019463e+02,2.022200924344380155e+03,2.331359569264507627e+03,3.522618298146468208e-01,-5.720018135744294602e-02,9.341518840682774272e-01
2.491959612683330931e+02,2.242407065908803816e+03,4.778769571618583996e+02,9.407622045051106108e-01,3.242192394747836492e-01,-9.923890028147930309e-02
1.288628379926778507e+03,1.240687159808009937e+03,1.872557741479331526e+03,-7.922921767947295191e-01,-2.882655659079478849e-01,5.377509368672821477e-01
2.757386901759994544e+03,2.098090317740670798e+03,2.371277257369898166e+02,4.973773807026277138e-01,5.595909944663171043e-01,6.629280957069112468e-01
1.883154788133471357e+03,1.851142541734159295e+02,1.438323766683431813e+03,-2.701591716044744740e-02,-7.614562589958124850e-01,-6.476530752309308525e-01
2.261932296680519357e+03,1.508938868836588654e+03,1.115390292097186148e+03,9.386830035216788826e-01,-5.609246032467273685e-02,-3.401879697964713678e-01
2.364114168378922386e+03,6.284487677342896177e+02,8.185192936921450837e+02,5.248345482200712508e-01,5.175395137810127194e-02,8.496294636554142521e-01
1.853795376974942656e+03,2.119555567011652329e+03,3.066156058967874287e+02,-2.230729113768270891e-02,-7.447933471920304971e-01,6.669222254060740429e-01
6.657401247753273310e+02,2.804444908515300540e+03,2.755648522196346676e+03,4.278108813675302047e-01,-7.021760990125329727e-01,5.691454785545420059e-01
1.285539112369313671e+03,2.568029155506474581e+03,1.272218814157484303e+03,-2.401023530252751059e-01,3.593086526953060411e-01,-9.018027235321537383e-01
1.319862485844576213e+03,2.183054433066813544e+03,2.166020248804664334e+03,5.984039726792267019e-03,-5.292441788620044774e-01,8.484484606676063745e-01
6.994464381866988560e+02,5.878532870840482474e+02,1.309046575383603113e+03,-3.210211885175660168e-02,8.400678845251386972e-01,5.415306116506120038e-01
1.307774714214517644e+03,9.588512996214296891e+02,1.854994318358887313e+03,-1.886676569314568175e-01,-4.476351429370305224e-02,-9.810202561701116819e-01
9.180593506810076860e+02,7.093331812485092769e+02,1.111652897749683234e+03,2.360203544599378811e-01,8.905897848804281702e-01,-3.887727193968709138e-01
2.372496606627899382e+03,9.396017960349011844e+01,2.835026955375103057e+02,9.719463314810494747e-01,-2.041646275094280705e-01,1.167781383413284552e-01
3.271436330229127520e+01,2.244534039220428895e+03,7.468861692140328614e+02,-9.021217256627331871e-01,-2.834963540645313862e-01,3.252786641011213842e-01
2.702929601919294328e+03,1.838539237122222119e+02,2.927851716372473220e+03,8.683928176305485414e-01,9.755340373133539189e-02,4.861864330769709586e-01
1.864046626388448885e+03,1.202690228709836674e+03,1.804771650339553730e+02,4.386963168245282541e-01,-7.496049052146853964e-02,8.955034709398808079e-01
1.529789116213714124e+03,1.470960421468887716e+03,1.536239509373504916e+03,1.316045554155495512e-01,-7.560883632921787910e-03,9.912734607728409530e-01
1.622591765516311625e+03,1.923029745881189228e+03,8.357469697382680351e+02,-2.953458956217196452e-01,-4.252242056216220534e-01,-8.555437901667364287e-01
5.929290433054409277e+02,2.513947412128252836e+03,3.832532077638099963e+02,-7.237097033167492199e-01,5.733141846002497433e-01,3.841290291833379111e-01
1.779205139306941987e+02,9.555024185706614617e+02,3.292123324107163285e+02,-8.092566043835999201e-01,-2.326826092295911363e-01,5.394094471026948945e-01
1.639810489616342011e+03,9.065135647127962102e+02,3.000000000000000000e+03,-2.642732126758080488e-02,7.412073052549699170e-01,6.707557881429617730e-01
2.745394873121541423e+03,1.297576901083720486e+03,1.291142023653898377e+03,-6.812645227805491643e-01,3.936468071727392548e-01,6.171878492025738572e-01
2.497220795467824246e+03,6.234006436555943083e+02,2.786846273341070173e+03,-3.135773952214387754e-03,-1.387061806361164149e-02,-9.998988813256338704e-01
2.262599781487911514e+03,5.325928720518289765e+02,2.981817770134545754e+03,-5.820669247058719575e-01,-5.835208050107998368e-01,5.663051874060460733e-01
2.916657273475973852e+03,5.292999545590586195e+02,7.743328475604579353e+02,-8.273928481278561842e-01,-4.701931296833741780e-01,3.071473517148213261e-01
3.957127118000926203e+02,2.805745265388568896e+03,1.866347532250173117e+03,-5.443788046153230642e-01,-6.640123188988387160e-01,-5.125810740128617926e-01
2.986778517279860239e+02,1.364304611358487591e+03,2.685725906088460761e+03,6.148653004267448097e-01,-2.642779676764413499e-01,7.430328513140846969e-01
3.414612141403405303e+02,1.544157714870799282e+03,2.028632566164800892e+03,2.328233572383452410e-01,-9.267170157837670841e-01,2.949387342840797399e-01
3.533823404600243521e+02,2.919553817253060060e+03,1.988133172089943173e+03,1.622811042338937748e-01,-5.468260090662683259e-01,-8.213684672650183316e-01
7.888800992747633245e+02,9.255462688686787942e+02,5.245747838330190689e+02,-8.946420612041642295e-01,-3.989514968256811511e-01,2.011300213914204715e-01
1.599904588476923436e+03,9.477998590100776255e+02,3.000000000000000000e+03,3.439471302431115676e-03,5.688161769693199643e-01,-8.224574924305614321e-01
1.198778156301625131e+03,2.596582122346095730e+03,3.358589317396298846e+00,4.754259588307173101e-01,5.224278265885701211e-01,7.078413124958418123e-01
2.101700240319263230e+03,8.250350063479758091e+02,1.938208590301551567e+03,-7.415079522913460286e-01,-1.251151291657925380e-01,-6.591753644839299930e-01
1.908191759883680788e+03,1.944277752276354022e+03,5.426859603173104460e+02,-7.018075116419592030e-01,6.491460522341930828e-01,2.933864677719195679e-01
2.261664590427596977e+03,9.944785442395241262e+02,2.625066951355231140e+03,3.189464227610706581e-01,5.866344224861963497e-01,7.444012585710768626e-01
2.516294838098357104e+03,4.707660996229216153e+02,4.774773196208519153e+02,9.858483270962545841e-01,-7.062494569274486989e-02,-1.520368146450492564e-01
1.629224959314272382e+03,9.219227203788406086e+02,3.000000000000000000e+03,-5.007131780927223663e-02,8.393498965050892879e-01,5.412805320439103562e-01
1.598385272254106894e+03,7.691592759809356039e+02,2.724901966472756612e+03,-3.645861132923045589e-01,4.791292839485576383e-01,7.984435454416005662e-01
1.848183431353116021e+03,1.220810512833526900e+03,1.426120769280958712e+03,1.477319470763410053e-02,-2.257811485732481582e-01,-9.740660273652269607e-01
2.115735338371081980e+03,2.181999091759806561e+03,2.804655657683892969e+03,4.665691270287721237e-01,8.844830788924483711e-01,1.712558479139314471e-03
1.302097332049595707e+03,9.697169833322866452e+02,1.824558120831938368e+03,-5.996204946154065629e-01,-7.922934532798774354e-01,-1.128111090585586646e-01
2.879143488315978175e+03,2.216757331091444485e+03,8.870791601937681889e+02,8.238071030842590847e-01,-5.591763511937115627e-01,9.307881162546038922e-02
5.217765509180146637e+02,1.789946557874185373e+03,5.823408996253162968e+02,5.329005693450048486e-01,-7.970288792313152682e-01,-2.841864684728026003e-01
1.883053739815736662e+02,2.468428989939523035e+03,1.712314733640794429e+03,-7.925084913687121535e-01,-6.098537219093570494e-01,2.954485030015385760e-03
1.783428239929160327e+03,9.494625296742121918e+02,2.455832414492656426e+03,-2.641057172600973502e-01,8.016187628651514352e-01,5.363352767934193022e-01
9.185254917643428598e+02,7.590852741682630267e+01,1.312644356664495717e+03,8.417137826294617264e-01,-5.391386692107671408e-01,-2.911019569234119322e-02
2.781422554859195770e+03,1.456964656952773339e+03,1.379004453001720776e+03,1.192021946505011504e-01,-9.326508283842076530e-01,3.405191170914713128e-01
2.355657585173735697e+03,2.513127953928220904e+03,1.852628810235076799e+03,-9.798873286222468115e-01,-1.990059599653885292e-01,-1.474622337451792116e-02
1.894339289776230999e+03,1.639681887793898568e+03,1.526570445794549869e+03,3.222372783545369157e-01,-4.306242131292055131e-01,-8.430456236204024734e-01
2.785480374197067704e+03,1.450076549324468033e+03,1.340452817225858553e+03,1.815715537790939943e-02,4.064319103504883679e-01,9.135006403705665523e-01
1.037313855724876021e+03,9.062122045045650509e+01,2.531200477999284885e+03,-4.906987333393511008e-01,-8.399078109605523368e-01,2.318827768218447716e-01
2.095398685183182863e+02,8.324253064810276328e+02,8.258074707854485723e+02,5.401074603755559034e-01,-7.744720981202009025e-01,-3.293583162453337376e-01
7.330222100359762862e+02,6.112033993536401795e+02,2.095037995397223312e+03,-2.260255689057083517e-02,2.788905682871958835e-01,-9.600568604736146039e-01
1.447528737445989691e+03,9.585073874992423271e+02,8.617844369639401521e+02,8.713100752662288340e-01,-4.896637172213873512e-01,-3.237586719289486936e-02
9.919388064766441175e+02,9.827800966272843652e+02,4.197409827208773550e+02,5.316610087170710042e-01,2.379327369371423695e-01,8.128496690677478043e-01
2.131489558551221762e+03,7.413256136080434544e+02,2.178545123662424885e+03,-4.840622329834617932e-01,-7.195576009774743431e-01,4.979162715503546721e-01
2.161559703532460844e+03,2.947142095173452617e+03,2.019452700187316168e+03,-7.753939947908122798e-01,-6.002167798014640399e-01,1.962242851614106609e-01
1.117430800672530268e+03,2.101165652018715718e+03,1.540906543674898103e+03,5.829984556569758336e-01,-4.446134582887818487e-01,6.800232888733083181e-01
1.590010268569347545e+03,1.529027450405719947e+03,9.682496787621485623e+01,-3.511449132122890782e-01,-9.275491871904548713e-01,-1.278661615419052489e-01
1.112742119086077537e+02,3.700929427475241482e+02,3.429514354168279056e+02,5.480635207625115246e-01,7.663123523336035081e-01,-3.352487969707558246e-01
1.698157402707046231e+03,8.624684866573658155e+02,5.295874239069786427e+01,-6.155142456332665102e-01,7.820402842423374024e-01,9.775074037916553493e-02
2.599572948836968408e+03,1.171832764590303441e+03,3.529253597438709562e+02,-2.243714955172706471e-01,-6.052891244131675119e-01,7.637293420227380114e-01
2.066753719518764683e+03,2.549622122702592151e+03,8.702296754714388953e+02,7.637481863678408089e-01,6.062415044574650524e-01,2.217204232653893214e-01
1.473596081878151836e+03,2.392048473505376478e+03,1.884704601048684026e+03,7.124814103752871164e-01,6.054499225841142307e-01,3.546838467036970144e-01
1.508158049253466288e+03,2.867849106427649531e+03,2.689867913037975541e+03,-8.066758270410265830e-01,-5.909640361967231081e-01,-5.968080910480288992e-03
2.222724726636183732e+03,1.474363019150832997e+03,1.284848225149236669e+03,-5.598488516867377029e-01,-2.496344600102349820e-01,7.900961331638319818e-01
4.395988740342998540e+02,1.668926670630377203e+03,8.070496764934628118e+02,3.888661814950330475e-01,-9.212792321346185975e-01,-5.260164153294999423e-03
2.760556051038243197e+01,2.395621363343330813e+03,2.719886772379325521e+03,3.561599638386390154e-01,7.624968113675817394e-01,-5.401376609835031317e-01
3.890079221617144185e+02,1.807724363039211539e+03,2.007447387337472719e+03,4.471341015475129854e-01,-7.478727637546160878e-01,-4.906703827085253100e-01
1.447634320062010147e+03,2.670514769826285828e+03,1.108622978936706659e+03,4.027641446101993261e-01,-2.446678983789158102e-01,-8.819969746655931253e-01
2.839958894367529410e+03,1.847864265458531463e+03,2.855700295250084764e+03,-5.569356169829883241e-01,-4.746110729026545849e-01,-6.815915551222515578e-01
4.538673675802242542e+02,1.698535557231542953e+03,2.774033429616115882e+03,-5.698218226902223016e-01,-8.144871645936613280e-01,-1.091501218422179648e-01
4.124885418274354265e+02,4.237115477866635160e+02,8.297088392178711729e+02,5.346181576201396446e-01,6.838567947888876120e-01,-4.965111376030921786e-01
1.819030721092263320e+03,7.696556603012312507e+02,1.008375446600488317e+03,-3.269485570259671459e-01,-1.989347868861429669e-01,-9.238666525127978701e-01
1.214856279914610468e+03,1.519710607338732871e+03,1.301910433626421309e+03,-4.752344955229350076e-01,-2.241393026839350877e-01,-8.508312096164671878e-01
2.790412081962851516e+03,1.461431216989044742e+03,1.439698899722301121e+03,-1.643023429822450532e-01,7.154550896999232190e-01,-6.790646174798238288e-01
6.881431670059351973e+02,2.297722190645007686e+03,2.500191711703317651e+03,-6.613874899397651497e-01,5.730465810391027759e-01,-4.839258250089284452e-01
2.204786017016019287e+03,2.346136263490537203e+03,2.276218677404936443e+03,-9.779142905567121957e-01,2.088933251274601444e-01,-6.871611321628724213e-03
2.399119632908051699e+03,1.437307388130746176e+03,1.063082222630550632e+03,4.880979405264075921e-01,1.892243150809459484e-01,-8.520296702791672061e-01
2.832262858796663750e+03,1.439353894947279059e+03,1.396268647780642368e+03,5.646363337616236433e-02,-9.518057803135611117e-01,3.014591426174621502e-01
1.930754323033961327e+03,1.928331867159030708e+03,1.394988654079353637e+03,-4.648425464402589635e-01,8.675048323174533449e-01,-1.770784372101894821e-01
