x,y,z,nx,ny,nz
1.811663249436525575e+03,2.116849934112646679e+03,7.050459080608817430e+01,8.570809338586961035e-01,5.132581738751016420e-01,-4.447830669328124015e-02
6.371806454743198174e+02,5.920397117746003914e+02,6.755559204692731328e+02,-7.230273896480768347e-02,7.539838194037814523e-01,-6.529017644450600955e-01
1.682056513168753327e+03,1.345555539868250889e+03,4.768613539885810724e+02,5.315481745830137328e-01,-7.977266030941386754e-01,2.847609608309265017e-01
9.670456389946565423e+02,2.071919975656026907e+02,1.130968591595470116e+03,3.807196446839420934e-01,1.469638131683815574e-01,-9.129371225723827976e-01
2.592192051710494070e+03,1.826773683938528450e+02,2.422281452510967483e+03,-4.382223809754096089e-01,8.967579237669431880e-01,-6.153349472802778497e-02
1.553065758341438823e+03,1.503839807686622862e+03,1.483030461553645864e+03,-6.974149592178918722e-01,3.586793258388520367e-01,-6.204526701327773841e-01
8.384467884451075861e+02,2.076462365800955922e+03,1.297883546672914463e+03,-5.954208433174446036e-01,-7.494942883345381279e-01,2.893653937447380198e-01
1.209146842231635219e+03,2.841113771432705562e+03,1.769694817051160726e+03,7.865531559303248210e-01,4.813217370360991509e-01,3.868636947977910356e-01
2.408402858344602009e+03,5.133285239528271404e+02,5.938680189383372863e+02,-4.162273659698584871e-01,1.651188157525005640e-01,-8.941423580740850419e-01
1.341868993782332382e+03,4.915156144319888654e+02,1.901865652948621573e+03,-7.076540422122549190e-01,-6.864524475384607000e-03,7.065257495975520996e-01
1.278118450270970925e+03,1.022566212823318551e+03,8.138916359926785162e+02,3.730194926163382663e-01,-8.124192801191718605e-01,-4.481421330547890602e-01
2.570541588770290673e+02,3.894286585450304869e+02,9.118213751720818436e+02,9.391329945080590935e-01,2.063906578730599906e-01,-2.746490760389546093e-01
1.165660699695626619e+02,6.263382237934130217e+02,2.148406302421605233e+03,5.326521019955641201e-01,7.295227253387795985e-01,4.290435076469364395e-01
1.565738267741571008e+03,7.287272510279891549e+02,2.931242573893408689e+02,-5.117867925978002441e-01,-8.218446593938698586e-01,-2.502911000180194634e-01
1.246363860236059509e+03,1.407455011631342359e+03,1.312214151407426016e+03,-7.067312282747753027e-01,6.886409559061652530e-01,-1.621869440795733752e-01
2.095115239673745236e+03,2.252944708669679585e+03,1.018108798570035674e+03,-8.330939241264797568e-01,8.387155794319997235e-03,5.530679607437273271e-01
2.758874786592570672e+03,1.665113778229296940e+03,1.968422890823104808e+03,-4.799019863924270934e-01,6.878777811124127117e-01,-5.445348856670859661e-01
1.839187785495845219e+03,2.199692518847856718e+03,2.529702352182605409e+03,-6.981711002699442226e-01,-5.903662869357761966e-01,4.049997061696715139e-01
1.245075410524229483e+03,2.345017212642512732e+03,1.444624315479046572e+03,-1.674112467702435283e-02,7.568124087716695536e-01,-6.534177168349293297e-01
2.445342336014270586e+03,2.991935136703849821e+03,2.417768867072190005e+03,-7.252973117894008226e-01,-5.348232002042480060e-01,4.334835106833425655e-01
2.114038078277567820e+03,1.625998036184183775e+03,1.012565232064884412e+03,1.446918321353486414e-01,5.304657662768708093e-01,-8.352666307961837955e-01
1.301624731404483327e+03,6.435063757402288047e+02,1.543250326165878732e+03,-2.787999809785513539e-01,-1.779625397514255636e-01,9.437160086867139031e-01
6.297817804545302600e+00,1.853048894012340043e+03,2.427954117755531911e+02,6.746420346160122428e-01,-6.877962743266811119e-01,2.679447893718109874e-01
2.059124166900291186e+02,2.789907235543448223e+03,6.527112871838199908e+02,-5.934250684334287929e-01,2.250672554915265633e-01,-7.727816112332721588e-01
1.842096416901970997e+03,1.627793037055504328e+03,2.136992884216389029e+03,2.655096606243959600e-01,8.543751024932780824e-01,-4.467077393047032552e-01
2.077096080339196305e+03,1.557021417480944137e+03,8.482024565310593971e+02,6.546986161227570378e-01,-6.008356689002926077e-01,4.586569753356910528e-01
2.223271007246314639e+03,6.478126689825103313e+02,2.813971825524290580e+03,-5.596236745993498074e-01,3.240124682500366560e-01,-7.627825792756675050e-01
2.009400275727136204e+03,1.096449277447469058e+03,1.759164497972547679e+03,3.738659213404154080e-01,7.860793574222784130e-01,-4.922433510925874334e-01
2.031346445111025560e+03,3.023362266855027656e+02,4.341192953019967717e+02,-8.080887864844874535e-01,2.296299594606264483e-01,5.424597633706482736e-01
2.453802015089687302e+03,1.282782062122085563e+03,2.825880445185046938e+03,-4.058166254813391771e-01,7.174212119250089614e-01,-5.662328771477243006e-01
2.257601630026832026e+03,2.007655316877150199e+03,1.794584567879131328e+03,6.068225176122192810e-01,5.282397129937780322e-01,5.939101259744767880e-01
2.102687275153812607e+03,2.458049465190530100e+03,1.353156188486245810e+03,-2.958274171508354367e-02,-8.540192727661534144e-01,-5.193995987066113429e-01
1.088970032918049810e+03,1.209288884275670625e+03,2.808545626165590875e+03,1.175997604532684898e-01,9.874245020302930831e-01,1.056558050064531074e-01
2.414703142440514966e+03,2.670871169953074968e+02,7.384910546256893440e+02,3.256474152217815887e-01,4.315598593384074033e-01,8.412549249586516176e-01
1.457852633636808605e+03,3.238891904781503399e+02,2.100980075165135077e+03,5.851084327271993679e-01,-4.777241366627381081e-01,6.553073868051251250e-01
1.180698165774025028e+03,2.614052701020962672e+02,2.696675836611142131e+03,4.982161318789632976e-01,-3.340052888481619964e-01,-8.001382086596160459e-01
1.178215376306532107e+03,1.145597945481886200e+03,1.547496655762115097e+03,3.572306982222158700e-01,-9.319287521173461597e-01,-6.241016924087028350e-02
2.396807466553017548e+03,2.199267046029899291e+02,7.463829098893811533e+02,4.298167130693445609e-02,-6.057678638092326429e-01,-7.944796228397941196e-01
2.411628601367865031e+03,2.479612413224721422e+03,3.969686571101747177e+02,-4.507698032264070287e-01,-8.826156090165647727e-01,1.334026657137885874e-01
2.290555459439443439e+03,1.250725150836123476e+03,2.625599242551831139e+03,2.284615071400268246e-02,6.447835917998931965e-01,7.640236731562588535e-01
4.103135136469202280e+02,4.105236314207892292e+02,7.259542171320271109e+02,-1.060659408975382773e-01,3.168460802395758891e-01,9.425277596009233871e-01
2.993313518919619582e+03,4.003289742161501295e+02,1.414432560092922586e+03,-1.915011853492302671e-02,6.377719344074031516e-02,9.977804079841019469e-01
8.450697249369798669e+01,5.468285822749298859e+02,2.189328077265697630e+03,-1.200672450323215096e-01,3.947191699054292124e-01,-9.109229569944526927e-01
2.462704628508531187e+03,9.008091088529263288e+02,2.725068422296973495e+03,5.287721434145080564e-03,9.388297255734278091e-01,-3.443410901733297003e-01
3.009648854466265107e+02,4.414044650874224089e+02,6.403164050021051708e+02,5.909281749761440689e-02,2.266535332368706940e-02,-9.979951506289527208e-01
1.147130406983424791e+03,1.711436240463848890e+03,7.736379314130622333e+02,7.908934891388921251e-01,3.549069627834025020e-01,4.985263650054725382e-01
1.544627898357978211e+03,2.499850472332807840e+03,2.262406868730162444e+02,1.681722396952958776e-01,-7.097363757963793818e-01,6.840996818207772945e-01
1.912912581450446510e+02,2.071707503006740808e+03,8.461889888029492113e+02,-2.130417129664777514e-03,-2.958865481793069852e-01,9.552207137250470215e-01
2.001976089510136262e+03,1.808026509046137335e+03,3.419553988726938769e+02,-3.701998611072103706e-01,-6.186619823805956930e-02,9.268897649406704353e-01
1.819986345527717958e+03,1.549628852082130607e+03,8.124173682600260236e+02,-2.664844607162084045e-01,-9.402701328918966484e-01,2.118445406146847176e-01
2.114695382824369972e+03,4.066817798034043676e+02,2.122562813587896926e+03,8.256567231290719011e-01,-8.572995490013199382e-02,5.576211531000097033e-01
2.836945744411750184e+03,7.259901604082119775e+02,2.535191605185314074e+03,7.041616186039477698e-01,-5.993643303895799246e-01,3.806820383754909720e-01
1.654118932903477571e+03,5.766165682355642730e+02,6.384415852894745740e+02,7.014007539853157613e-01,5.082940626672403095e-01,-4.996740219043434017e-01
2.207874541084234352e+03,1.734471729827216677e+03,2.618762357975116629e+03,-2.977771263332462115e-01,-8.007003403582597933e-02,-9.512715556991155896e-01
2.841781781645870979e+03,7.071766688360999069e+02,2.473960059555044154e+03,-7.716827046955611058e-01,5.368718376245219526e-01,-3.409903711828422002e-01
2.603321883354792135e+03,1.920526536603638533e+03,8.127410612567225598e+02,-5.344994769528946810e-01,8.400303036594186645e-02,8.409838286354980319e-01
2.912750710700291620e+03,2.282097865077534152e+03,1.085415455366549168e+03,3.041022157349438926e-01,-3.791837100061217214e-01,-8.739230838300879878e-01
4.934348563019494804e+02,3.873577306419672936e+02,6.874916187913715930e+02,-1.936165392385342073e-05,-9.511024328685641072e-01,3.088756413455501226e-01
2.062332449953451487e+03,1.852424862145681118e+03,2.982765449174274636e+03,6.902016402579363996e-01,-1.147129116895245354e-01,7.144666847915062124e-01
2.142338911323648972e+03,2.539105861835988890e+03,1.377182756295456329e+03,5.721864877520376202e-01,-3.706122373282888516e-01,7.316072667603209512e-01
1.136422007515615633e+03,5.897824834372804617e+02,1.025838686070917447e+03,-4.095101208455674676e-04,-9.809481167923950196e-01,-1.942694635368993339e-01
2.491521373360499638e+03,4.542750294995199170e+02,1.576645701311075072e+03,-9.514149081092397875e-01,-2.880016767444681589e-02,-3.065619398578540711e-01
2.316772967912319473e+03,1.043006008423200655e+02,2.044738979983268791e+03,8.269035580637807969e-01,4.509887142885918299e-01,-3.359161878293193126e-01
4.841975911499208678e+02,4.092375123737496097e+02,6.349462716208337270e+02,-3.993547537557486522e-06,1.060588973086395020e-01,9.943598494939983601e-01
2.157175572984935570e+03,3.749782563826919812e+01,2.785258792504576377e+03,6.840332338087473651e-01,6.859774404504039857e-01,2.480594409375709575e-01
2.437810587062825107e+03,2.557744438447873847e+02,7.228154740644479261e+02,-4.585576463426292194e-03,-7.260485384382838747e-01,6.876281642865785804e-01
2.777841333854025834e+03,7.031392708600453716e+02,2.414123224056836079e+03,1.613249092248505712e-01,7.971002810095556557e-01,5.818981145166920443e-01
2.817796068057196521e+02,7.877889299813110711e+02,2.208878945593710341e+03,-6.654900482473933288e-01,3.936113369685311780e-01,6.341869685617385066e-01
2.884401995941445421e+03,8.337937281613303639e+02,2.268685842016266633e+03,-8.581471413557424655e-02,7.743404867252486889e-01,6.269231575368187093e-01
2.732174330657971041e+03,9.601725417362277994e+02,1.840105424091647592e+03,-2.158657447502313753e-01,-7.054040604336977438e-01,6.751348693165537540e-01
2.680665005941173149e+03,2.969376149352714833e+02,1.565186316828650888e+03,-3.012982696550969147e-02,6.322438515390473857e-01,-7.741833799030430896e-01
2.766586342159416290e+03,1.389060794429713894e+02,1.998386804282504727e+03,7.932116518486206358e-01,-5.619279918485483583e-01,-2.346320680312908302e-01
1.858696109831905233e+03,6.261682058634885095e+01,1.785821613033854419e+03,7.767984822705296943e-02,3.839575238912735222e-01,9.200774212134020802e-01
8.019150082929173777e+02,2.665964734104294621e+03,8.613105930018727463e+01,-6.544491981984327245e-01,-7.187458969336156800e-01,-2.347351329020028743e-01
2.012692488087544689e+03,4.923921031069525611e+02,3.396834659310545703e+02,-5.286392952879103158e-01,-5.299731673772737350e-01,6.630753632413148857e-01
5.147708486187909784e+02,3.798945145138669659e+02,6.795216638884762688e+02,6.904095153810017597e-07,9.610518537562242614e-01,-2.763681139191865865e-01
3.867952825609639831e+02,1.510937224426803141e+03,1.313094195621344625e+03,-7.754699112739735778e-01,-8.811237504903414453e-02,-6.252060668867136517e-01
1.403271486135058240e+03,2.778940770511019764e+03,2.706858332947721010e+03,-9.094289068878885773e-01,3.288122767476350239e-01,2.546007658604679258e-01
2.154280935945068450e+03,2.326862073687154862e+03,1.506161958690994425e+03,3.602701080845853165e-01,-7.967596473155178494e-01,4.851592662521997390e-01
2.078557880320517597e+03,1.347128320171104860e+03,2.475962339528565735e+03,-8.683910233290452751e-01,1.466667151274587688e-01,4.736938940658350083e-01
2.527420574598766962e+03,4.272733304094222717e+02,2.098852701560349772e+02,-3.203926463853995488e-01,-6.405970029488295969e-01,6.978424119779031987e-01
1.937504107466156938e+03,2.900448477996145357e+03,2.037721249788507293e+03,6.492437235213730506e-01,5.871604456105373737e-01,4.834513404454869878e-01
2.752911819597567046e+03,1.580703424216610301e+03,2.137013167512028303e+03,3.571420514218471842e-01,-9.744466909653559661e-02,9.289532235644921698e-01
1.793491683440756333e+03,2.885824095346048125e+03,2.910357972316682662e+03,-5.869807988240076657e-01,8.449130755668068926e-02,8.051799555126122332e-01
2.000797836153469461e+03,2.983340293467981610e+03,1.967201640727580298e+03,5.521885445612501053e-01,-7.150426877776235035e-03,-8.336886005282752032e-01
1.639120935297493361e+03,1.028814427521361267e+03,2.269389875247750751e+03,-1.178318241914464853e-01,-8.001643966544379483e-01,-5.880923392923558257e-01
1.396040453844886997e+03,4.203315835479119755e+02,2.060754454069472558e+03,1.630246201840540032e-01,-9.412515526705856894e-01,-2.957507190338795056e-01
2.130889527141423059e+03,1.424792490796553238e+03,6.187822580100379355e+02,5.009065571703725794e-01,2.767580179711804922e-01,-8.200595225179621028e-01
1.190441779176264617e+03,1.806748627473049737e+03,7.900660384132440868e+02,-4.722199877118295475e-01,8.326350970995020084e-01,-2.893563171654325306e-01
3.346997161819077746e+02,1.034644564076214920e+03,5.749831678757888085e+02,5.254414875691392206e-01,-6.097292189007282870e-01,-5.934151352635337329e-01
2.510014130626457245e+03,1.298422205305683519e+03,2.836380291136197229e+03,-9.389484048359029167e-01,3.403940170900371376e-01,-5.007800101263071985e-02
1.150360654014917145e+03,1.346927898273529308e+03,1.263650336824894111e+03,7.012198069158758207e-01,-6.875257934722992514e-01,-1.886771467325794038e-01
6.195014543950960615e+02,6.787467148506335661e+02,6.596774995211574151e+02,-3.284204801335465773e-01,8.752102593708741551e-01,-3.551717755126638232e-01
2.061982833477869463e+03,2.530535377979976488e+02,5.973288379589536135e+02,7.158070884724813121e-01,4.563200729898637120e-01,-5.285756361005251591e-01
2.642679024929502702e+03,1.396538642067253477e+03,2.174488849797560306e+03,-1.604964042988376860e-01,3.541069541315043923e-01,-9.213301087248004784e-01
1.828485573193418077e+03,1.752335755856569676e+03,2.052814080326519615e+03,-6.596975702731785463e-01,1.762256656351952611e-01,7.305776006332913575e-01
1.330758769544880352e+03,2.562808319631243648e+03,1.349427026482597739e+03,-1.120731280262305674e-01,-4.702441748058894255e-01,-8.753913582138814764e-01
1.628207541170047989e+03,6.024280942866037094e+02,1.489004189723885929e+03,-5.555335967284252829e-01,-5.436587290068665146e-01,6.291403732718301445e-01
2.032467821291873179e+03,8.430773806044061303e+02,2.163017936479437139e+03,-2.459983403013070169e-01,-4.095912384367810313e-03,9.692615952727838824e-01
2.996897364383011109e+01,4.992160655742006270e+01,3.041546575797743230e+02,-8.607332101837771310e-01,-4.471918969473306360e-01,-2.432236587821541285e-01
2.572045418731965583e+03,1.023593481816035933e+03,1.977269772820976641e+03,-5.655719096693039294e-01,7.995861544165093759e-01,-2.019663255556108095e-01
2.707041497003202494e+03,1.683599568437248990e+03,2.414425998388664993e+02,1.169139394632608409e-01,-3.780547474954989995e-01,9.183712422845651258e-01
1.662606198180749061e+03,2.887307522232949850e+03,7.075927410793693753e+02,7.157773695132094716e-01,-1.590154783448257947e-01,6.799829666539571882e-01
2.903459288194288547e+03,6.438171834161686320e+02,6.869438876985802835e+02,6.038325823470221954e-01,-6.511098331115813265e-01,-4.598284437934821445e-01
1.641528085915248539e+03,2.135906310696822352e+00,3.469538721394445133e+02,9.259814766626265348e-01,-1.655120203437148996e-01,-3.393583297923352671e-01
1.010340203521022772e+03,1.671902149911004472e+03,2.248389288192141066e+03,-4.395863994375693619e-03,5.100397838031338615e-01,-8.601395789741310693e-01
2.364575921140427909e+03,1.348910226252160328e+03,1.299481455647359553e+03,-4.855512574389380109e-01,2.731362558032964238e-01,8.304435936083933711e-01
2.135158031651222700e+03,5.909218112015390822e+00,7.039953633811055624e+02,8.622086201756455903e-01,1.096482469393235543e-01,-4.945437869773945394e-01
2.646156910053040974e+03,1.239868504605781254e+03,6.421872420313686689e+02,-6.712350637872909198e-01,5.219181001557094968e-01,5.263506301623721573e-01
2.421209900163730254e+03,2.345706584135883986e+03,2.209921717862036530e+03,4.838904762185546327e-01,2.751023289990429943e-02,8.746960581314937588e-01
1.660735512886333481e+03,1.203235376029701229e+03,1.749440231351779858e+02,-7.244742381058565384e-01,2.912098811188723047e-01,-6.247670633601543067e-01
1.293673458484974844e+03,2.870855985893072557e+03,2.700443242509813444e+03,-6.574567890879037257e-01,-1.930548024693385101e-01,-7.283408636934689540e-01
1.791395026105960142e+03,2.987518709679608492e+03,9.918077158636999684e+02,1.780203602401240204e-01,-6.320602311878718016e-01,-7.541940171406231741e-01
1.575545947201899537e+02,1.443909782865795023e+03,1.357526184916540387e+03,-7.966879975133194236e-01,6.030928907497254965e-01,3.958787371603889049e-02
2.261421660380089634e+03,2.722476780982365199e+03,9.353291313369149975e+02,-7.384826615027780816e-01,-2.516911612289058353e-01,-6.255357048314813539e-01
9.878781748844872936e+02,2.216677780814389735e+03,7.142371729762144241e+02,-4.959351531897007170e-01,-8.413450222674120349e-01,2.149113243562470466e-01
1.333484631977885556e+03,4.703826138413237459e+02,1.475001224237665383e+03,4.743486796799553651e-01,-8.154428117161690581e-01,-3.317323482965018333e-01
6.658116528289253893e+02,2.720606527511222794e+03,2.069416411728193907e+03,9.026689010967356430e-02,8.042033241198206506e-01,-5.874597024686536439e-01
2.046546667602311345e+03,2.484602141312677304e+03,1.363702421166044815e+03,7.692967315770377068e-02,-4.505588698424907168e-01,8.894259554308646676e-01
2.101916320761884435e+03,2.399481250095096129e+03,1.882516984334787139e+03,-8.114058219223173607e-01,-4.969859613417402233e-01,3.076126564037882649e-01
1.931683487348335859e+02,2.420925958157557488e+03,2.841769805462303339e+03,-3.453303628124137492e-01,-9.170563501083109914e-01,1.993855341941079828e-01
1.566330401007064438e+03,2.176276550054128165e+03,4.939215949250231006e+02,-9.189422062931449364e-01,-2.068720166523739246e-01,3.357814619946535295e-01
2.641820565033543971e+03,2.998272809441030859e+03,1.093042902134380029e+03,-8.800103406456140087e-01,-1.563560289209145748e-01,-4.484803145923716983e-01
2.965342731712757541e+03,2.765286369178415043e+03,0.000000000000000000e+00,5.979859389998647828e-02,-3.038110774880594701e-03,9.982058395193368350e-01
2.713394273944229553e+03,2.763602739360900614e+03,2.319357285899616841e+02,4.970931831726450034e-01,7.230306115941181888e-01,4.797135623902273327e-01
2.779944806206796329e+03,9.722650282907976589e+02,1.638775363177729105e+03,-3.579630180907046599e-02,-9.619223396298657303e-01,-2.709687016941242366e-01
2.156564686244703807e+03,6.682335148312206456e+02,1.649609394110551875e+03,4.962728236487465999e-02,-9.596672883279492305e-01,2.767233791322258885e-01
2.291149703739371944e+03,1.293204687227469549e+03,2.635382159745144691e+03,6.700360138990195044e-03,9.197205130797938555e-01,-3.925166021893196633e-01
9.983811256378061216e+02,4.867318991232609164e+02,2.596864998585554986e+03,-6.342958909759476016e-02,9.662074776721021330e-01,-2.498395431420429025e-01
5.863822581170685666e+00,1.563400386471662387e+03,6.525618626369025606e+02,-1.285921775608351580e-01,-6.457808523995784977e-01,-7.526161986990689279e-01
5.726953977812640915e+02,5.144914707464112098e+02,9.801812456216269993e+02,8.366345868308384670e-01,-9.677997217687421549e-02,5.391439558261187370e-01
2.432667195314622859e+03,2.431243463877980503e+03,3.855903319950871833e+02,-7.112592697071976611e-01,-6.950356460092841360e-01,1.050509496960454064e-01
2.485366427209334233e+03,2.947683291092630043e+03,2.436892825985928539e+03,1.250810074303335996e-02,6.387940641842414502e-01,7.692760824169573297e-01
2.579486494402511198e+03,2.648384848938112555e+02,5.440839140447728539e+01,1.426810951504940694e-01,-9.165020074825258600e-01,-3.737193805078293796e-01
1.479576668722097850e+02,2.766188592044063171e+03,2.562707914832821530e+02,-7.620612366666895676e-01,5.976187664790337806e-01,-2.492277703670153777e-01
2.524778127972450420e+03,2.672603699402735401e+03,7.529643119025497811e+01,-2.550803852352916401e-01,5.827536264871282512e-01,7.715777393654614791e-01
7.267885801457481421e+02,2.203240659198128014e+03,1.679280556950820255e+03,-1.090488755245009028e-03,1.231951880073638844e-01,-9.923818602161694757e-01
2.182702133088359005e+03,2.517022780498809880e+03,1.625472134793516489e+03,5.906609059984724297e-01,-8.068979537572693594e-01,-5.948642483417644101e-03
2.714806551342087459e+03,2.621209777113620021e+02,1.536096222680008395e+03,1.618610157132205352e-01,-6.241901952135494591e-01,7.643216677496167399e-01
2.247575833474776118e+03,8.407381024504001061e+02,2.488291756020308867e+02,1.736198599934246911e-01,2.290570509249669207e-01,9.578042658275336407e-01
2.963584158846761511e+03,1.041521982275380424e+03,2.338262438137880508e+03,6.428552177171035220e-01,-7.313892987917798294e-01,2.276112094488407234e-01
4.297092139876771171e+02,2.408667520295274244e+03,4.135901805178343693e+01,-3.493986133443013897e-01,-5.741403529976105702e-01,7.404616560314644103e-01
2.401821070898772177e+03,2.890165387034497144e+03,1.934269216299270283e+03,4.871938575970621299e-01,-7.977609386976932671e-01,-3.552740207331079869e-01
6.265300622576265823e+02,1.594193075517609714e+03,8.816516625378438903e+02,2.671763084881442207e-01,6.824679895228658033e-01,6.803339352547876917e-01
5.311130807961400251e+02,2.332850482470957559e+03,1.664403907600188859e+03,8.614088497846799086e-01,-4.936387014156076170e-01,-1.195643173248088914e-01
2.895793883502905828e+03,1.233794135717259678e+03,1.328116626724009620e+03,9.696887640508948802e-01,1.886535140090745966e-01,-1.552853905732145545e-01
8.188759977642055219e+02,1.061124376900445668e+03,2.454062122886227371e+03,5.433636443781556524e-01,-2.234769123687052883e-01,8.092057955836940986e-01
1.848375616599961631e+03,3.000000000000000000e+03,1.590310487513601402e+03,2.447310102694789380e-01,5.906029661031318989e-01,7.689570007761572512e-01
2.838279923427062840e+03,1.415552634492936704e+03,9.417673629137449325e+02,-2.513827837104829974e-02,6.995414155472942652e-02,9.972334155251119103e-01
2.603773246607406236e+03,2.968881037288048901e+03,1.221337681161164028e+03,-2.950725976430253472e-01,3.591425302839135747e-01,-8.854088349804656310e-01
2.471609482200296497e+03,2.222324101136263721e+02,2.207174991694353594e+03,-6.516629939352736045e-01,5.833152360829825245e-01,-4.848491287903589075e-01
4.709462493718730514e+01,7.470772278753073579e+02,1.165971894206446905e+03,9.334483016768434505e-01,2.673053268173145591e-01,-2.392114762123787319e-01
2.003029373334179809e+03,1.743735040093529278e+03,2.418978420330152233e+02,-2.065002117452057473e-01,6.609469477322790221e-01,7.214615685069920570e-01
1.716458776740193116e+03,1.519788660016675522e+03,2.070345716156108210e+03,-4.693057729819232193e-01,-8.170896960822251476e-01,3.348380504095922472e-01
1.021669096224195187e+03,5.565889291326806187e+02,2.643259596638068615e+03,-1.726948967000568186e-02,9.882702944109367227e-01,-1.517352625840738545e-01
4.764959273471792471e+02,2.375676672319505656e+02,5.660243875466300096e+02,1.100233521828733046e-01,-2.529611423558315864e-02,9.936070493807014348e-01
1.858314349913349361e+03,1.636232456046516745e+03,2.710899321564859292e+03,-1.547994941456943552e-01,-1.276578878780628701e-01,9.796635035943459524e-01
1.055402726904886777e+03,1.686329734416793826e+03,2.255355497403115351e+03,1.683831512105360721e-03,-9.899129472970353838e-01,-1.416669385747279519e-01
8.380778531864268643e+02,2.037375159552806281e+03,7.821866480597324198e+02,9.432372876246126747e-01,9.563874957045102876e-02,-3.180513304722436541e-01
2.058470308386683428e+03,4.287228091006766704e+02,2.442245045114252662e+03,-1.881956810594103552e-02,-9.185520386004479843e-01,3.948518408710625094e-01
2.950966308420080168e+03,3.855007456766784344e+02,1.366625527985534063e+03,5.368285289880728728e-01,8.073271039176986852e-01,-2.450266878206599497e-01
2.843339504467421648e+03,1.376880650879371899e+02,2.117393710690814714e+03,-5.739830742026946764e-01,-8.184040189287627998e-01,-2.753710823730637358e-02
1.706341297327659049e+03,2.314090881721122514e+03,2.680744118892458573e+03,-4.842946602103569420e-01,-8.739900878479793800e-01,-4.000010544006382673e-02
2.431615722113347147e+03,2.051231041151467025e+02,2.236111962676428902e+03,5.977609925069381908e-02,-6.900254927803315397e-01,-7.213124408130168197e-01
3.966867599308035892e+02,3.350733380889711270e+02,2.464356156562325850e+03,5.723565967224621964e-01,-1.319447609723876647e-01,8.093197799635323264e-01
2.682916976110155701e+03,5.507884094905543861e+02,1.815917666980567674e+03,-6.853293174779996333e-01,7.253392944535240749e-01,-6.485857327141131279e-02
1.476264344575237601e+03,2.954700939752781323e+02,1.795488935165913063e+03,6.925884120963685664e-01,6.968875220702156481e-01,1.861963292137238657e-01
1.716159827324062917e+03,1.526489196218612278e+03,2.428513029276220095e+03,3.638045846332797761e-02,7.681212031803640317e-01,-6.392701146360182385e-01
2.645703966275425500e+03,1.306696442257666604e+03,2.913263175118549384e+02,7.589622131722769706e-03,-9.049656912501611306e-01,-4.254168488624019973e-01
3.772037616293737301e+02,7.946076793490910859e+02,1.782590184036294886e+03,-4.971494085988464873e-01,7.546071140777926844e-01,4.282646015175692877e-01
2.511580226171030063e+03,1.057271425356420423e+03,1.416380412464834080e+03,-6.419699310637440037e-01,-3.696875795990152147e-01,6.717184686311918895e-01
1.236715362032489793e+03,2.811227731352112642e+03,2.061790480903707703e+03,8.399213434514765098e-01,-4.085158586377912737e-02,-5.411684439683093206e-01
1.121282528148243955e+03,2.967108344565703646e+03,1.214032083864863807e+03,-5.723002840115281459e-02,-5.633064347883639522e-01,8.242636619281636934e-01
2.814451844418373184e+03,1.218351115444398602e+03,5.597962617299258454e+02,-8.703799492342537691e-01,4.832089621271142832e-01,9.459303827985943158e-02
1.640378911414829645e+03,2.596665634798461269e+03,1.032413470042282825e+03,6.896688266665669254e-01,-3.991816758323532000e-01,6.041613188578321969e-01
2.480449232710717297e+03,2.706094947956853957e+03,1.890248876659607049e+03,-3.924002197035408313e-01,-6.456622963497899992e-01,6.550895104097826938e-01
1.666919074852537051e+03,1.057851481152053339e+03,2.769367807347966391e+03,2.581883883568714677e-01,6.614217901496883822e-01,7.041732539885783293e-01
2.864235797236034159e+03,1.399236840857950256e+03,9.943204133599119814e+02,1.009646208866659512e-04,9.972596497413361849e-01,-7.398094892560382052e-02
2.763728473540211780e+03,1.837462941867213885e+03,2.241988180183284840e+03,-1.016611274352441779e-01,-8.724560788173868486e-01,-4.780014703985592250e-01
1.639592784704713267e+03,5.952519336117368312e+02,2.160667740593998587e+03,1.890353384106285561e-01,9.395615605711068463e-01,-2.854640340378547525e-01
1.765033110550764604e+03,1.384706242996687251e+03,1.126561357454788777e+03,-7.912614865650248186e-01,-5.952833198374019030e-01,1.397963840815235337e-01
2.879377974925374019e+03,3.040989947489800329e+02,6.066089982150751894e+02,7.056255871751051512e-01,1.316403585846282476e-01,-6.962494859714429829e-01
5.253097167900090199e+02,1.261916621881864558e+02,4.324761014568402402e+02,1.427680906917488078e-02,-6.767202281639910222e-01,7.361018309422129313e-01
2.522852395983357837e+03,9.378292549480660227e+02,1.792644790997204609e+03,-9.964207584045325916e-01,8.408261388134441461e-02,-8.705530622367787033e-03
2.992655428720765485e+03,5.586906142575744525e+02,8.374038430130515280e+02,9.414244780009545233e-01,1.347037138526597788e-01,3.091518424576036317e-01
1.109191631563707233e+03,1.857810216350060273e+03,2.335449964871728525e+02,-5.987146118557596930e-01,-9.853754716459126040e-02,-7.948780820661700552e-01
1.803140676829426781e+01,7.170421202355230434e+02,1.190150671951511185e+03,-4.055488085794469733e-01,1.719729752154353919e-01,-8.977502211948167332e-01
2.839699670514364698e+03,2.118706467222472838e+03,1.542648059823823360e+03,-7.679049302310583247e-01,-1.093981185092186698e-01,6.311529686165442410e-01
1.373966751784099415e+03,7.482111934123768151e+02,2.954134541242366140e+03,-6.513709635679094667e-01,7.349460759089867512e-01,-1.886004595079114055e-01
1.321240601529181504e+03,1.929334551342494024e+03,2.601894514103197707e+03,-6.318453412617262843e-02,-6.635991712005373522e-01,-7.454152229658437268e-01
2.039901928780391245e+03,2.808692461105021721e+03,1.138117548300219823e+03,7.156349668791892604e-01,-2.910891359325036842e-01,-6.349281133497635121e-01
1.675978480054892771e+03,1.375633076274111318e+03,8.735196073579479616e+02,4.837247570439994204e-01,-2.733456194372106962e-01,8.314400349737864904e-01
7.128736409289915628e+02,5.610295322612159907e+02,8.554680498981015262e+02,3.717889014365943212e-01,-9.018778599189646306e-01,-2.199757681122147812e-01
1.887897361240514329e+03,1.699829900516770749e+03,1.235175381855900014e+03,-8.469607676045548539e-01,1.866024399942698142e-01,-4.978322885539750442e-01
2.850985191283024960e+03,2.350595483875349146e+03,2.129840425761256938e+03,5.333099563419124722e-01,7.989905832719261802e-01,2.778390510878099295e-01
2.585616954785999951e+03,2.612571817935836862e+03,1.313284056791983403e+03,1.601296065225022436e-01,-8.189719539654718994e-02,-9.836927154864614220e-01
1.110152899860542846e+02,5.821420361394090150e+02,2.192802923603682757e+03,6.111333348199069482e-01,6.822805411881763815e-01,4.012596543235670832e-01
1.059297827019739543e+03,2.126520863578223725e+03,2.723354955303555471e+03,-1.780118793060285649e-03,-9.012713436792901822e-01,4.332514238171752963e-01
1.362319737471446388e+03,1.478484269109638035e+03,2.169251925749405814e+02,-5.854042136294284049e-01,7.061030402484559376e-01,3.983972931845771726e-01
2.417070745591398918e+03,2.009399430523204273e+03,1.434399687712765626e+03,-2.552540191110550319e-02,4.540146200772844920e-01,-8.906285300917299308e-01
1.571471882952043188e+03,2.494207448333685534e+03,2.628747732541070263e+02,9.196007032923012581e-01,7.273592580228575855e-02,-3.860622120876238128e-01
2.634352954525540099e+03,2.366917521977009983e+03,1.665585890819944552e+03,-5.737480607540743627e-01,7.982676958339242068e-01,-1.832535090221647511e-01
2.054293845203143519e+03,1.541639008791403057e+03,1.108613652086122784e+03,2.968931864946660615e-01,-6.898118925418219582e-01,6.603135533372863630e-01
6.970093323298420955e+02,9.401025347617176067e+02,1.572791630423343577e+03,-2.290405362273134904e-01,-5.293432923570556836e-01,8.169064276900368515e-01
1.677610853269562199e+02,1.601704184543350948e+03,9.094690540370905865e+02,5.328297962092212181e-01,-4.952351850259739674e-01,-6.861738262160173019e-01
1.336711388678352705e+03,5.146117165202405204e+02,1.931177097204653819e+03,-6.186387831807365068e-01,-7.633174649130744331e-03,7.856384604825769058e-01
7.707551397643497921e+02,1.476168199161087387e+03,2.152843164862206777e+03,1.229274293348967158e-02,6.092691727734595997e-01,-7.928681880231513990e-01
2.522589716266293181e+03,1.756301146753094145e+03,1.402558109219339030e+03,-2.851934912850633830e-01,2.237383374306280148e-01,9.319902515007412180e-01
2.038784926748757471e+03,2.458477937618432406e+03,2.579421508102014741e+03,9.645051142922203002e-01,-9.927641473726268873e-02,2.446918020307715935e-01
1.795538162381961229e+03,1.604813309138308796e+03,1.606636396392952520e+03,7.782125110398703249e-01,-1.635245352855499990e-01,6.063373764008489486e-01
1.321271159982607742e+03,2.669165110205952715e+03,1.270357749493503206e+03,6.944841473955940536e-01,5.513827324624317461e-01,4.622432815720280974e-01
1.737957327898350513e+03,2.186932438744809133e+03,8.125228402728535571e+01,-5.475265557290028839e-01,-5.738556394744103173e-01,6.090191916639005054e-01
2.450376842121491165e+02,9.945898136286996305e+02,1.493426697223888368e+03,5.616031996762160805e-01,-7.724857262503158628e-01,-2.964247777311441734e-01
1.759381100128275193e+03,1.486978012412731459e+03,9.036213556142813630e+00,2.280885920387863142e-01,9.645102548125220610e-01,1.330246689274130478e-01
2.126076970263462499e+03,2.407777273571371552e+03,1.944338358995864155e+03,-8.056103661411243566e-01,-5.752340390581477392e-01,1.417664920734551526e-01
3.054188944417115295e+02,6.349169705009138625e+02,8.402049731514267705e+02,2.136440844305731723e-01,-8.907976961528581983e-01,4.010432267431807141e-01
1.936976097773582978e+03,2.193966027087744806e+02,2.844546699818633897e+03,-3.507449775930024938e-01,-9.337240086304243736e-01,7.167591227473368853e-02
1.610831110275010360e+03,1.242088075922377129e+03,3.918574569528130382e+02,-8.573167438586446476e-01,5.374535594454164789e-02,-5.119760125377025295e-01
2.831567483037142210e+03,1.995501348814976154e+03,1.831537245780684771e+03,3.211838669935788704e-01,9.767506223965079226e-02,9.419662975921863080e-01
1.459440692618905587e+03,1.566108772524782580e+03,1.507480787432237094e+03,-2.610156926558137025e-01,-8.965568715890595008e-01,3.578499464773532424e-01
2.929632039918351438e+03,3.255432774251017349e+02,1.422939311480215792e+03,1.759516621220215057e-02,3.212999287939146131e-01,-9.468140080728582042e-01
8.539863781334528312e+02,6.796724713023876348e+02,2.015360198638966949e+03,7.674199460024510033e-01,5.341436646227585294e-01,3.546225768630153485e-01
1.429154762306033263e+03,2.608979419037940715e+03,1.357928258064852798e+03,3.947926443669593777e-01,-8.659067023613132852e-01,-3.071552551389924446e-01
1.140820881541633298e+03,1.715155578914549096e+03,8.242982477816885876e+02,4.462816887095223672e-02,8.333755683238557310e-01,-5.509024311655524864e-01
2.921595534998200350e+01,1.265853600410142917e+03,6.621640846961010993e+02,1.098591909364567548e-01,1.385548078159687113e-01,-9.842426140936324508e-01
1.518328494596256178e+03,1.010577146732900246e+03,7.738774688639874739e+02,-5.760766517358199001e-01,4.636293844690677624e-01,6.731890411925021134e-01
2.820592123642446950e+03,2.260093938303680716e+03,1.594042289428383810e+03,7.891543242748154663e-01,3.759970708207892587e-01,4.856559020670354609e-01
1.105490235007006049e+03,4.052870448726661152e+02,8.890934891590756024e+02,3.722000048306358666e-01,7.326426832155403801e-01,-5.698261622063416354e-01
5.480706924283200578e+02,2.803239312357436575e+03,1.285285282896418494e+03,-6.178601421557684548e-01,-5.143890675482120090e-01,-5.946870874015464103e-01
1.979701505544722977e+03,2.867839529855906449e+02,4.482347649990087461e+02,1.694121571869590392e-01,8.522840313327239015e-01,-4.948852906810846108e-01
1.961065338516458723e+03,1.874901063418734111e+03,7.819591726945194523e+02,-7.057016508536284594e-01,-5.566909217702231683e-01,-4.382697771933206643e-01
1.011988395094471969e+02,5.337750287798748161e+01,2.661144878053587490e+03,8.103597342981212481e-01,-4.211237956971796148e-01,4.073964282193431874e-01
5.248102511050873318e+02,2.581331557392330524e+03,2.526505293556535889e+03,-2.963966721970104357e-01,-8.388633893802648345e-01,-4.565711627643518344e-01
2.442488517857814713e+03,1.734358875193091535e+03,2.870004660217673973e+03,-6.437895362974122015e-01,-7.634256472456589782e-01,5.211827013159320288e-02
2.622224295284099753e+02,6.545367827096226847e+02,8.418595829215570348e+02,-8.319245315471648222e-03,4.448976023646356581e-01,8.955428038723662887e-01
2.974270869082305921e+02,5.657941347389114526e+02,1.283995701864210560e+03,9.131059559877398313e-02,8.199735386338028453e-01,-5.650714743036996390e-01
2.758416271187179518e+03,1.088805496125997252e+03,2.056242952260220136e+03,-9.892958185113549519e-01,-1.191424136168362513e-01,-8.425478475138925560e-02
2.247557002945016848e+03,5.991734541546733794e+01,5.190652605835686018e+02,6.872795288686753823e-01,-5.404796700636993467e-01,4.853128634663277929e-01
2.817415017384358634e+03,1.553738090638333006e+03,1.777431506300657247e+03,-8.577434202425705534e-01,-2.938541529366867078e-01,4.218127094249761733e-01
9.191189925682747344e+02,8.704499934185473649e+02,2.012681972397228492e+03,-4.650497491573432063e-01,1.797055341206600099e-01,8.668533046687314503e-01
1.468656327808182368e+03,1.284248675365467761e+03,2.237935878984253577e+03,-1.083677285934446510e-02,1.532101855591182782e-01,-9.881342031297851713e-01
2.723664462474630909e+03,6.837780391818273529e+02,2.873226494590867333e+03,1.213788916065372397e-01,7.866364176563439559e-01,6.053679138252726633e-01
7.151180609134233919e+02,2.139249149790944557e+03,1.432779035121904599e+03,-3.579404502115461351e-01,-5.677725815566628809e-01,7.412913932690965435e-01
4.722791285420627219e+02,4.396008966563142621e+02,6.703072444458138079e+02,-8.272032744364558684e-06,-1.270804380782477594e-01,9.918924146243957018e-01
9.581117123533495317e+01,5.046165672397359572e+02,2.218442830831287210e+03,-1.101106498043364912e-01,3.951778256738533446e-01,-9.119814312228908815e-01
2.803261475727705601e+03,2.684805478147024132e+03,7.265592720888976146e+02,-8.994058826596794676e-01,2.446318523248081356e-01,3.622489683426251550e-01
8.521233742006290868e+02,2.853069281985787242e+01,1.889565683731633044e+03,9.341640731515179485e-01,-9.333711852587565916e-02,3.444207698996273326e-01
1.332902989144695539e+03,1.542756040355936648e+03,2.719069033607274378e+03,-5.571311836685026719e-01,4.354342708973624188e-01,7.071080821997550725e-01
6.964135882944225386e+02,1.472913665121330496e+03,1.317086681752188269e+03,6.330862284517142502e-01,-3.082218688523085115e-01,7.100711984765852858e-01
2.189062699792732928e+03,2.474654353610914313e+03,1.598982630618941812e+03,-2.962211816640649559e-02,3.310382000253676849e-02,9.990128463721450469e-01
1.214573340721876320e+03,2.221727313726493662e+02,2.365095717227888144e+03,-5.784753343452718743e-01,6.356356957045307121e-01,-5.112079321571050272e-01
2.108140059807099533e+03,2.527800554877856939e+03,1.419670778838650676e+03,-2.322750097926319646e-02,9.483710956000760417e-01,3.163111572938421268e-01
2.862110181366858228e+02,2.748460211435613019e+03,1.353970221881721272e+03,2.898826200484470039e-01,-7.431401475735939233e-01,-6.030843951373179301e-01
2.451268441346845975e+03,4.829772102429350298e+02,6.090883655704424200e+02,8.705459192161290813e-03,-9.866114491749533588e-01,-1.628559588628920862e-01
1.301702774930975465e+03,1.059264518784602387e+03,1.521298119713797178e+03,-5.630004876614618237e-01,-8.106056759138048351e-01,1.610865887318984058e-01
8.846453908783214501e+02,2.909086844871364519e+03,2.132598266252554822e+03,6.293043157076289029e-01,4.358699407732237741e-01,-6.434232455873034606e-01
1.305459388420535333e+03,5.809631370723062673e+02,3.352525491034167544e+02,8.874873046597289150e-01,-3.604989939961297015e-03,-4.608180640071984357e-01
2.959731161481777235e+03,2.624877441960062242e+03,1.104984554670724037e+03,-8.907461978687676307e-01,-7.083462445388728768e-02,-4.489472875080224856e-01
1.122354464975380552e+03,3.000000000000000000e+03,1.202147281384880671e+03,-1.071745888660481302e-02,7.055201259307345429e-01,7.086088398980741054e-01
2.556537566960623280e+03,1.039817557730647877e+03,3.101268112339278105e+02,-1.316860076289067261e-01,9.058471748074083951e-01,4.026160594017532124e-01
7.992106305749891817e+02,1.793279058301262239e+03,2.270596150626977305e+03,1.375825310470192020e-01,8.863733459157242811e-02,9.865163303601200973e-01
1.863992252959704956e+03,2.933366150087717415e+03,3.655154868955357017e+01,9.891290603199650588e-01,-2.951768235801164458e-02,1.440569625486898264e-01
1.851243860788863230e+03,1.667876646044164772e+03,2.098200631701648035e+03,-8.552510909765044245e-01,-2.184349115813564168e-01,-4.699273994841586255e-01
2.891234035383501578e+03,2.253499080873168623e+03,1.046759521991845986e+03,-3.372177307912090916e-01,8.428153541588150333e-01,-4.194597487652169665e-01
3.985880303408435452e+02,1.431565555275776660e+03,3.506671348832622925e+02,-2.612500744907617078e-01,7.786360187047265402e-01,-5.705035924113224244e-01
1.671206038012844147e+03,9.287992063947174302e+02,2.176727742255377052e+03,8.153487515746061787e-01,5.579785403384800446e-01,-1.544874164049303555e-01
1.097605003245513899e+03,1.292867980881687345e+03,1.496717084719027525e+03,-1.422885373264734243e-01,-5.676068942791162586e-01,8.109108370914208663e-01
2.595585401303093022e+03,2.326792205248940718e+03,9.584192142491620103e+00,-9.806854502056566725e-01,1.724998206542014689e-01,9.219468330222180263e-02
1.465369019217358527e+03,3.860866681798209470e+02,8.432825442955371500e+02,7.697576621798924990e-01,6.368147711583782566e-01,4.404643856033052529e-02
2.773881271575811752e+03,2.097244413909093510e+03,1.658590133474343475e+03,-6.803553151438547220e-01,7.299884969009994284e-01,-6.506488721058123481e-02
2.295568507267987115e+03,9.329419585892985651e+02,1.589466692941150768e+03,-1.377823589587037489e-01,-9.836112125790766880e-01,1.162970509019616294e-01
2.517982802515043204e+03,2.972277172556664937e+03,3.646925576325002112e+02,-3.118970049213982687e-01,-6.007360214803301179e-01,-7.360954359436320260e-01
2.884676087801183257e+03,1.148751884734923863e+02,2.086214972254918393e+03,-5.112205799959825825e-01,-8.589634469074892698e-01,-2.890182460289235367e-02
1.841111744069186898e+03,6.579736032691486116e+02,8.992227663562321140e+02,-3.736471218121172333e-01,-8.622858764879829385e-01,3.418346026529086590e-01
2.188610188888108951e+03,6.467054650144680181e+02,2.065843339763659969e+03,8.074061191592294406e-01,-3.364241977871517131e-01,-4.846793970115748640e-01
2.319522391484800664e+03,1.544039727177369969e+03,1.454355795668116116e+03,8.223791248541530985e-01,-4.386606262671697842e-01,-3.623112335644751436e-01
2.812823639949584503e+03,1.991794087612468047e+03,1.786987747152966222e+03,7.804020255326933608e-02,9.885915854724547369e-01,1.288270310086465642e-01
6.559182316387878018e+02,1.477786582417009868e+03,1.347470088948031389e+03,1.147168241125288805e-02,9.115726538675321677e-01,4.109789498545634578e-01
8.069292354216506737e+02,2.972152773528297530e+03,1.317859626952450526e+03,9.649877944503698624e-01,1.861220953641201936e-01,1.848164553796012299e-01
2.958479845594187736e+03,2.758440291440718738e+03,0.000000000000000000e+00,-8.505925724315035463e-01,3.519970003299418559e-01,-3.906281959652686542e-01
1.903024222298086215e+03,1.312254445285264637e+03,2.620182303772730847e+03,-9.481810247250274659e-02,-3.465364804210676053e-01,9.332320157286144724e-01
2.550979846208581876e+03,1.207674128987401900e+03,7.293040266156625648e+02,5.131674002395825163e-01,8.462863087464659317e-01,1.430339224087402439e-01
7.023160353150708488e+02,2.973690728863307413e+03,5.007216783331729175e+02,-1.749694573743693820e-03,8.135810094291876515e-01,-5.814489484598649449e-01
1.865272526932545134e+03,2.470130380850164045e+02,2.889338778497648036e+03,3.060639082831682622e-01,-1.390148167605745159e-02,-9.519094667318119818e-01
2.011606174125343159e+03,1.338186936571741626e+03,1.255236511943690175e+03,6.950557288144599832e-01,-5.831235972663710854e-01,-4.205524986887212435e-01
1.828111737706959502e+03,2.001585317206147238e+03,1.495331745985346970e+03,6.614909671934545710e-01,-6.317073879398238390e-01,4.041973235236882567e-01
1.007452833669547658e+03,1.431691791786994145e+03,3.165670567128206017e+02,-1.571934276432454813e-01,-3.689705701652656183e-02,-9.868783276013750605e-01
1.555649222912305959e+03,2.748073658149357470e+03,9.786966779549907187e+02,-5.154535738246133203e-01,8.218795292679748066e-01,-2.425317558623741043e-01
7.194366942515337087e+02,5.628208444940435129e+02,1.607655875249742849e+03,5.939557974730945711e-01,-5.757054739140748945e-01,5.619428066569325253e-01
2.368808301117698647e+03,8.915048376078450474e+02,5.649827727093587555e+02,-3.440226961570605480e-01,-5.483930030179589021e-01,-7.621768159487480876e-01
2.599244335138032966e+03,1.356764562135778306e+03,2.988047995920881590e+02,1.411461791763936021e-03,-5.863062876499245402e-01,8.100882327486150780e-01
3.264561763490735871e+02,6.658014058007890981e+02,8.838998916910876460e+02,8.027674741737185829e-03,3.767599043074901788e-01,9.262761634331586613e-01
1.111206358990546406e+01,1.940438341355375769e+03,2.660519762097459079e+03,-8.314780116592199732e-01,2.850289091239717812e-02,5.548260099678692381e-01
2.113351024027441781e+03,2.714812020353738262e+02,2.548746138227738811e+03,4.959354807125304077e-01,7.268039284709557624e-01,4.751884347599564240e-01
2.772131620959913107e+03,5.001457038513657238e+01,9.117831542111546241e+02,-5.715573436211938141e-01,-8.627943823344098873e-02,-8.160135179583769549e-01
1.180834212201750461e+03,1.809151957912370790e+03,7.289058747294147906e+02,1.126660740897807850e-02,-3.480338865930270309e-01,-9.374142506599971725e-01
3.896061218396119443e+02,2.486457656764986950e+03,1.656262378349035544e+03,2.454457108171878565e-01,6.787394148993876053e-01,-6.921482570255323985e-01
8.190623898289089766e+02,6.563383038059815817e+02,1.979304081284372842e+03,-7.661133589744620886e-01,-5.354438915543784372e-01,-3.554858087152988344e-01
2.862574283165161887e+03,1.367787111448332553e+03,9.125999728436513578e+02,-1.303049105242246259e-03,9.998336930991116311e-01,-1.819033278477533502e-02
2.808656793391925021e+03,1.516067823424994458e+03,8.788015372960885543e+02,-3.438859771694540157e-01,7.512523359069589457e-01,5.633492367089418806e-01
2.262912933455983421e+03,9.021497923691923404e+01,1.405925682694788975e+03,2.110414191426120134e-01,-9.621189209147689159e-01,1.725940364672924332e-01
1.402468591342525542e+03,6.887529415862053384e+02,2.827644258787668605e+03,-9.612600832681726937e-01,2.612950776012046283e-01,8.777206125326042496e-02
1.998349270835138896e+03,1.681217020791536243e+03,2.181009462236649597e+03,-1.950568648481318113e-01,-6.006072638318169510e-01,7.753861838516828975e-01
1.611553499027052112e+03,1.157382262861199024e+03,2.214771788043279685e+03,4.164334866898834475e-01,3.440184488038910970e-01,8.415666688063823120e-01
2.156736301909355007e+03,2.613001637613034291e+03,2.196345442124471447e+03,-3.869170693022855878e-01,8.124854541511344896e-01,-4.360763330832746476e-01
7.204490296777943392e+00,1.340789376177994200e+03,2.083001224048387940e+03,-9.778630584852473495e-01,-8.033347837532257840e-02,1.932106909619630830e-01
1.772221735290642300e+03,1.447585516716215125e+03,5.869121657697755836e+02,7.532996549114097107e-01,6.563290132544314925e-01,-4.209342313017039316e-02
2.364089282402289882e+03,2.966719975409683911e+02,1.499406930895019968e+03,-8.511631054031923993e-01,-1.251012637663659610e-01,-5.097754817607964561e-01
2.213397848108208109e+03,1.267576559817457337e+03,2.646752755340142471e+02,-8.910153692295492700e-01,3.535251347518890697e-01,2.848009671602060866e-01
1.492467293103685279e+03,3.606281357079502072e+02,2.071208619037045537e+03,-5.676401706408199521e-01,4.849827059966929088e-01,-6.652641667480566623e-01
2.768102976532370121e+03,7.170850474041519647e+02,2.363080272591074390e+03,-9.221676755024249550e-03,5.430933171593834707e-01,-8.396217062074105009e-01
8.075369752493859323e+02,1.026130312105050962e+03,2.418843143901052372e+03,3.097188145913461546e-02,9.496115119807628790e-01,3.118953652629204987e-01
6.404969131373675282e+02,6.903756754911304370e+02,1.937882363618918589e+03,-7.637883215370797618e-01,-6.331843452249289461e-01,-1.253195309823991188e-01
1.937548025564287855e+03,4.676459311687112290e+02,1.425240527509402682e+03,5.376466896553115937e-01,-4.860814122603414056e-01,6.889563830589546800e-01
1.768179144990702525e+03,6.586519596685881197e+02,5.366976616180181736e+02,-3.736602936790624496e-01,8.232651745976351521e-01,-4.273317648179248973e-01
7.550249571532305026e+02,5.480298113182985844e+02,2.927157267819202843e+03,1.962506014627487805e-01,5.367744930480443655e-01,-8.205844533248995987e-01
