x,y,z,nx,ny,nz
5.989175398439938363e+02,9.470936796392149404e+01,1.853618339542503918e+03,5.944535030898855377e-01,-2.729567172118265161e-01,-7.563859221277895450e-01
1.489318462262805042e+03,1.475859515764190292e+03,2.313845539122809441e+03,3.329589665725414538e-02,5.097221505524438534e-01,-8.596945460464322508e-01
1.638719562233246734e+03,1.838218979505097877e+03,2.701253247991163789e+03,1.315933790266155257e-01,-5.335521148492091692e-01,-8.354671288185393507e-01
2.864872762625338055e+03,1.086980475132952279e+03,6.064426230821412673e+02,5.815788155591132824e-01,-4.359908066942344562e-01,-6.867882481310885190e-01
2.693247044279840793e+03,1.326522480179467266e+03,1.324840523887661220e+03,-6.524130183141957362e-01,6.794307155981416102e-01,3.357546071701147383e-01
2.441893055762312088e+03,2.924051131628185431e+03,1.763462208328393217e+03,-1.194443333206993696e-01,-2.635536083555176656e-01,9.572212632199308402e-01
8.876067691004433300e+02,1.665672904210980960e+03,2.082454526728916335e+03,3.441299537060142910e-01,-7.616602641503211757e-02,9.358276077261458159e-01
7.251539014142776978e+02,2.532309360397579781e+02,1.965998639631795868e+03,-9.439002962079130754e-02,8.548083667663816110e-01,-5.102873488676528124e-01
1.334705017437867809e+03,1.409170746072014481e+03,2.483823057609479747e+03,2.413340206662780985e-01,-7.226839786485647066e-01,6.476772016010207134e-01
3.997247020383973677e+02,2.810369918702197083e+03,2.233822298809316635e+03,6.164648188631446368e-01,5.149777311252375922e-01,-5.956249352983240541e-01
6.677497773363312490e+02,5.755566063384132036e+01,1.869843513208934837e+03,-3.772923049877593416e-01,-8.148905325167976610e-01,4.400044733994343815e-01
2.214141065881304712e+03,9.306374152941949660e+02,1.287959874263005986e+03,9.055556065830908663e-01,4.153985465509827391e-01,-8.609930841337565255e-02
8.048901770489014780e+02,8.273247851800591661e+02,2.800780763532855417e+03,-3.034644064849333911e-01,-8.498366952236092731e-01,-4.309140812832197298e-01
1.030258774935886322e+03,2.728877004982579365e+03,1.605105966148591278e+03,-2.021252003844720493e-02,7.737783859507224582e-01,6.331338432505329017e-01
2.598392346301006000e+03,1.004645925239679059e+03,2.529568885499092630e+03,5.163760869935476450e-01,8.557696958525682351e-01,3.184280831891484614e-02
4.688933216334365284e+02,1.397478913130868250e+03,2.742855073781554438e+03,5.646133225896479146e-01,2.194740779832651534e-01,7.956399468652097795e-01
1.709721084099863674e+03,1.482162080700624756e+03,1.124998900675981076e+03,-5.997281355931675106e-01,7.232780790964450368e-01,3.423375288753773837e-01
2.556474827384864057e+03,2.815708775490931203e+03,0.000000000000000000e+00,-5.677040078372769250e-02,4.574393172069667335e-01,-8.874268379241632143e-01
8.021512222012507891e+02,2.856626545153726966e+03,2.488288153482931648e+03,5.164929152296477560e-02,-6.955286456858249533e-01,-7.166395563430880689e-01
3.599182351883330853e+02,1.249392679840240135e+03,1.519345810582960894e+02,1.275158328656493811e-01,2.403702388857156536e-01,-9.622691206864136815e-01
2.754596142936608203e+02,2.181621371379291304e+03,2.950271564416810179e+03,7.168621261803765909e-01,-6.851198972593950387e-01,1.293035901567543000e-01
6.221304714728040608e+02,1.770104230381726893e+03,1.165184064669658710e+03,-4.078458157105686044e-01,-6.201889833406051267e-01,-6.700950794852380543e-01
4.489189677618540486e+02,4.326767609877424547e+02,2.712304331950054348e+03,8.677464638400564922e-01,1.576983320256829246e-01,-4.713250582871604255e-01
4.066859697755302818e+02,4.587496634522451018e+02,2.541856812858452486e+03,8.248195496758735368e-02,-7.418641941981577448e-01,-6.654579208871460594e-01
1.948072599556312980e+03,2.340556643653928859e+03,8.926316570489874493e+02,-9.851882496038755210e-01,-1.714549972060637195e-01,2.701254434635647073e-03
2.103585722972941596e+02,2.302760066199231460e+03,5.572294258347648110e+02,9.722445239139175799e-01,2.298248809563632755e-01,4.383046671886315498e-02
2.450430346347048271e+03,1.500937726764031595e+03,1.779284256636169630e+03,1.135914739168591286e-02,-9.570738992466220063e-01,-2.896213409805999395e-01
1.325322962553851539e+03,2.391471121165978275e+03,1.180723076520289624e+03,1.434359220463081452e-01,-7.770221781216544166e-01,6.129132654575242256e-01
7.965552166820865523e+02,3.359466412247099356e+02,6.039161000970284476e+02,1.945747945355266349e-03,5.415716766724650855e-01,-8.406523259297556949e-01
1.836644431450740967e+03,2.554450898675389453e+03,1.403034212571819580e+03,5.357679534557228118e-01,-7.700306846110198666e-01,3.464180203271050029e-01
1.873772752602267019e+03,1.903356195866933149e+03,8.716947830156470900e+02,-7.928818153210173136e-01,-3.644055840379916145e-01,4.884127324867548747e-01
2.860540712763472129e+03,1.895539251102763046e+03,2.754792139082320773e+03,-1.166578636136690779e-02,-9.200025638861014654e-01,-3.917386780387796530e-01
2.303764398586020434e+03,2.526018542600903402e+03,7.819316120840027224e+02,1.237035155094970834e-01,9.163423443607289220e-01,3.808072323132464798e-01
4.096044610479768835e+02,1.612437460224501365e+03,1.652247696709929642e+03,-8.217809633868765617e-01,-4.351272345563141353e-01,-3.678863111918023177e-01
1.246471412874640691e+03,2.850531336406093487e+03,6.984257326736785672e+02,9.746635734039238441e-01,2.185615655196687934e-01,4.755797259225347240e-02
1.514576686871892662e+03,1.281102311414286987e+03,2.068514272809268277e+03,8.469152033371346588e-01,2.887466619801674628e-01,-4.464974843733511278e-01
1.291565037247729833e+03,2.088430449400717407e+03,1.536749157173499043e+03,7.493572360775099250e-01,-3.185379234153044026e-01,-5.805147061742197412e-01
4.184749555932081080e+02,1.836541030934871287e+03,8.537273100719344257e+02,-3.954571240417101285e-01,8.136983677458178299e-01,-4.260382956641941554e-01
2.160252229717631963e+03,2.447373949404327504e+03,2.065442195177103258e+03,3.120285626504090137e-01,-4.376368266747312497e-01,8.432746788730176579e-01
2.086550755489063704e+03,1.333446977437228952e+03,2.117099040941947806e+03,-9.551902227375885790e-01,-2.726533034913255493e-01,1.152033614170302755e-01
2.514191911012848323e+03,2.298249029884677384e+03,3.007460179515828713e+02,-3.111206848053764684e-01,5.199963462765274658e-01,7.954921239995373927e-01
1.406706458173008741e+03,7.746142484441918441e+02,1.387698728159781467e+03,2.088613256979481303e-01,9.743866915484142854e-01,8.335179638754719456e-02
4.102387816909235880e+02,2.251227974140617334e+03,2.394367674837574668e+03,-1.082893591875058598e-01,-7.351313942003178115e-01,-6.692198801200218705e-01
1.743520317349625884e+03,2.414336604065722895e+03,9.782354708295437717e+01,7.487202892519319031e-01,-6.622807577301990101e-01,2.832183614840367084e-02
6.271766920479627743e+02,3.915996501670159091e+02,2.178505313289804690e+03,-1.697649286441119676e-01,-6.060346806452928670e-01,-7.771112113832983059e-01
1.056745834441462193e+03,2.274933398829583894e+03,6.949263400631319882e+02,8.585266737598667985e-01,-4.951362453898279781e-01,-1.333118484759830136e-01
1.250156956217949300e+03,2.698794506087206628e+03,2.211709261931042931e+02,7.961022651617686297e-01,-3.643865312703332138e-01,4.831600555023932153e-01
2.167492569214492960e+03,1.991096919449916186e+03,2.368084837714226524e+03,5.001387793231130974e-02,-1.986231488358730923e-01,9.787989869021598288e-01
1.477806053283549318e+03,2.757763463223222971e+03,2.059668581348287262e+03,-1.261982512083061336e-01,-3.637085902476137056e-01,9.229247329940067912e-01
1.319342669795197480e+03,2.512323923656370880e+03,5.673210117785484954e+02,-9.211895793268273236e-01,-1.743130570197389262e-01,-3.478860691262244398e-01
9.381534134092927246e+00,2.706468904832131557e+03,2.980154438765112445e+03,-3.066280222998368776e-01,-2.331587363199999485e-01,9.228305692911085156e-01
1.546562221665642028e+03,2.002495866619701928e+03,2.978766705066801023e+03,2.778606504206517225e-01,-3.295370941681431409e-01,-9.023296307420192175e-01
2.666417555302264191e+02,1.000184519035421772e+03,2.835500038323540139e+03,-5.197939933151360381e-02,-4.823206953025816479e-01,-8.744511929936222838e-01
2.661648440064087481e+03,2.768398387461110815e+03,1.205608703800034164e+03,2.810383148726353780e-03,9.161915890794158912e-02,-9.957901543335115901e-01
9.207371548406882766e+02,2.681467981914056054e+03,1.844123497776101658e+03,-4.690097099031325101e-01,-7.051889842981123868e-01,-5.317315003281037900e-01
1.472878181121104717e+03,2.894136115743355731e+03,1.028683881659565941e+03,-6.330963337744187625e-01,6.173765036231833037e-01,-4.669424856825552528e-01
1.067170700211207759e+03,2.957057318106030380e+03,1.360648804629737924e+03,-3.503317560485858517e-01,6.038339042940509688e-02,-9.346772206832496543e-01
2.656015330096821799e+03,1.562473046664119920e+03,8.248970100180916916e+02,7.624039184477052547e-03,-5.323385422555808599e-01,8.464972241275907638e-01
2.654305644757081154e+03,1.783643060465394456e+03,8.956278136050177636e+02,-2.220000929503700426e-01,9.516524648939687081e-01,2.123053103228005334e-01
7.611966544036567939e+02,3.865391488801387254e+02,2.047545560765750224e+03,2.573185240614910274e-01,-3.793627168432418539e-01,8.887469303711434954e-01
1.253099651377462123e+03,9.185908711273958716e+02,5.274912150199544385e+02,4.549957494890978227e-01,4.553162210430947154e-01,7.652881854581905507e-01
7.553283041116632148e+02,6.902915165219325218e+02,2.732757713541662270e+03,-1.461733135366615199e-01,9.182080944387351895e-01,-3.681402690781053200e-01
5.884559900052842067e+02,4.478017488816791456e+02,1.497365636628909215e+03,-3.602740660731484912e-01,-8.613349855231320351e-01,-3.581963707646780848e-01
1.051117107756549629e+01,7.032250447921267096e+02,3.170762813723554245e+02,-2.380028587231160786e-01,-3.495786715215161156e-01,-9.061729369479516460e-01
3.159069113651167413e+02,1.740156124603383603e+02,1.323947599793576728e+03,1.970621339385519311e-01,-8.543313498584531596e-01,4.809204300262338028e-01
5.565703810095490667e+01,7.656720295704304817e+02,2.908269371321215203e+03,-2.888439770414743743e-02,5.454958452261803314e-01,-8.376156483795200725e-01
6.569118978324128832e+00,2.269499589232666494e+03,1.269059122741989540e+03,6.421251166421538814e-01,2.495975397125506923e-01,-7.248285333420187992e-01
0.000000000000000000e+00,1.996307981227356834e+02,2.878909717339224244e+03,-1.811499179962770432e-03,4.313235959929887509e-01,-9.021954743903329854e-01
2.629361692846869119e+02,2.024236338811825362e+03,7.357010463995351301e+01,-6.813400824264689848e-02,7.124968793502826081e-01,6.983594732205611333e-01
7.908106276616879313e+02,1.397711712205376386e+02,2.190074223885761057e+03,-1.450859114978629016e-01,9.876795790941028663e-01,5.864407323276592254e-02
8.873681306790996359e+02,1.412678737098999022e+02,1.535912252900594240e+03,-4.677851302626204189e-01,7.658829600406248383e-01,-4.411353119220835506e-01
2.275979279518592648e+03,9.052919322395807740e+02,2.558690667435677369e+03,-5.336192656006470969e-01,6.973583764427191412e-01,4.784786036856829572e-01
4.354212818256028186e+02,2.848087870770662562e+02,2.728258116792468627e+03,-5.598810262199781507e-01,8.228489030648835634e-01,-9.722612408083564084e-02
1.889084838272911611e+03,1.792665677393757960e+03,1.991031968147219686e+03,6.340922254339378394e-01,-6.061851663971395965e-02,-7.708777108495463715e-01
1.916505659789480433e+03,1.888270116458535313e+03,8.131296550094384656e+02,-1.706641675018881477e-02,5.576831506615673728e-01,-8.298784494656409327e-01
7.935862668757433767e+02,1.374995735781860276e+03,5.184477567244985039e+02,-6.812197612618233755e-01,-5.500154126432669210e-01,-4.831383680905927402e-01
2.627066310870051893e+03,3.670786533109748007e+02,2.774272139712506942e+03,8.680103898791791117e-01,2.793248742287802733e-01,-4.105308486567991189e-01
2.695882242732160194e+03,2.363896809692435909e+03,1.233148211459237018e+03,-9.799296448095839995e-01,-1.823012467872453801e-01,-8.064828977218675699e-02
2.363352755486793740e+03,1.542904724202557645e+03,1.436086706737844906e+03,6.441465033605423551e-01,-7.599945572188261389e-01,-8.650754421521411608e-02
7.916283853319999935e+02,3.593069956327674390e+02,1.239306716600342270e+03,5.625200398636697602e-02,-7.533136653385075210e-01,6.552512752080539293e-01
2.636258639087676556e+02,4.945948997698139920e+02,2.503876716085118005e+03,3.201834950535858426e-01,-5.118969714926489001e-01,7.971474268113298844e-01
1.527736479154955759e+03,1.004271561981892319e+03,1.953388141146523139e+03,1.358635421163165991e-01,-9.181873568261567087e-01,-3.721197061272139561e-01
2.133839798425239223e+03,1.796775911685547044e+03,2.230058817948786782e+03,1.175683660639099612e-02,3.820513437357373476e-01,9.240663112259466239e-01
6.937654462827742918e+02,2.763999760479311590e+03,1.592759499194736918e+03,-7.010290141732898606e-02,-6.878056191186288082e-01,-7.225019124692418915e-01
6.469648413440834247e+02,1.858199732467072408e+03,2.441471489715094322e+03,-5.809526696482617547e-01,-5.807672139874656692e-01,-5.702661122544412375e-01
2.878009798684336602e+03,4.819638072014210479e+02,2.768183119317407545e+03,-7.201042203467677982e-02,8.516481085632030545e-01,5.191435237957866544e-01
1.695193704418332572e+03,1.442097192756989443e+03,2.373281474460163736e+03,-9.804054830331732084e-01,-1.740319640397016143e-01,-9.229281841494674232e-02
1.742050413155118122e+03,5.119631293077082432e+02,2.711247734550985570e+03,7.673519955352902100e-01,6.200061406452602730e-01,-1.635949281309721226e-01
1.138718311189424639e+03,5.341172978336958295e+02,2.671040632541837567e+03,-9.514176492820309861e-01,-2.073373159803461319e-01,-2.276306087430257641e-01
1.034058441575874667e+02,8.098062815415520390e+02,1.788019715525842912e+03,-6.914797717136821342e-01,-7.011569871532586928e-01,1.738810072347154456e-01
2.014962058384487136e+03,6.350032179819096427e+02,2.649585531436741803e+03,7.115572075829913468e-01,-5.755773397154259063e-01,4.029851937017152608e-01
5.792622172941045164e+02,2.570000165760865002e+03,2.979685075960944687e+03,-5.584392166103120392e-01,-8.204615291861903081e-01,-1.224276132133561568e-01
2.930598856517183776e+03,1.355426698543158864e+03,7.619547389029717124e+02,2.839020823327945142e-01,-9.271049125328383322e-01,-2.446959108865152110e-01
2.493074528755933443e+03,2.031271508249027647e+03,2.069511386521384395e+02,-8.447196463551552847e-01,-4.197794764149871405e-01,-3.320149247283632477e-01
1.093743816100687582e+03,5.110095524040697796e+02,7.060827652938106667e+02,5.790465915010877263e-01,-2.168128868233298590e-01,7.859371584155481205e-01
3.231650692650541714e+02,2.285400359006131566e+03,1.151759311644344734e+03,-6.407274507114536499e-01,-7.616622204259775319e-01,-9.663848033041257113e-02
2.781443416195473674e+03,2.961534059693703512e+03,2.938830635928165975e+03,-2.370500750375939825e-01,4.910396424545672156e-01,-8.382644758444448563e-01
2.936329167439281264e+03,1.667248657150431200e+03,2.382283290280890924e+03,-1.009884272680402519e-02,7.946281747662896633e-01,6.070124193483805719e-01
2.166822388929830140e+03,1.089832904694805848e+03,2.560157808381448376e+03,2.988127087821903713e-02,8.938817395405220800e-01,-4.473058745050333962e-01
1.246714043995550355e+03,2.061197240722982770e+03,2.432195191745340708e+03,-8.573406003674344245e-01,4.650344013452981096e-01,2.207036486491045502e-01
1.180375188029166338e+03,1.212699449224025102e+03,8.934011889722049204e+01,-9.133198568769277381e-01,-2.526328376595607939e-01,-3.194111588069308283e-01
1.605572223311381549e+03,8.890412296306745930e+02,2.418470532284136880e+03,-6.259237697257131749e-01,-5.034617386353759105e-01,-5.956053326008732274e-01
9.456829694262208932e+02,1.349725444058888968e+02,2.283145679864422164e+03,-4.778014369824108987e-01,8.784599024570743930e-01,-3.739865325201652269e-03
1.166664423337814242e+03,3.417708938973642603e+02,5.360749786420593210e+01,-7.197011427569893760e-01,-5.814585256956350534e-01,3.793893092986966309e-01
2.713180169825649955e+03,2.703428600719937549e+03,2.402714847961221039e+03,8.939607291663574651e-02,1.717924266148992685e-01,-9.810686542260169674e-01
2.927096890550932585e+03,2.601122721030531011e+02,2.446716470138508157e+02,-5.942342669842286540e-01,7.418194217697374748e-01,-3.107886443017646716e-01
1.530462052338834610e+03,8.615182454742015352e+02,1.321188876616023208e+03,-7.554428466079328164e-01,5.627389103080571164e-01,-3.356054593331341263e-01
2.412193736721469577e+03,6.434598208355362203e+02,2.066545109507405868e+03,-6.296483595988354443e-02,4.413357464553215315e-01,8.951302633322533175e-01
1.996109538535577940e+03,1.469008629947537656e+03,7.687144869093514217e+02,7.012106059765325083e-01,-3.151999973822008361e-01,-6.394940560445301347e-01
2.909300496754426604e+03,1.033464505755761365e+03,2.092985772072892814e+03,4.931473310433183155e-01,8.008918733379131183e-01,-3.396732505013311809e-01
2.617737954380131669e+03,1.371064996253369600e+03,1.796529660214337127e+03,2.824946581667323736e-03,-4.060862073699357255e-01,-9.138304065091685802e-01
1.686893604730746119e+03,8.453284777953074354e+02,1.863443114578843051e+03,9.602404507307138459e-01,2.399116763056285961e-01,-1.427608642195012933e-01
1.086020189760503172e+03,2.197890978641714810e+03,5.699344037192922769e+02,7.972211737119032637e-01,9.882530220960919487e-02,5.955434155698431375e-01
2.525109850312555864e+03,1.084421987523649307e+02,1.169168303087853019e+03,-2.583133972034734049e-01,6.285518646025077538e-02,9.640142189616539570e-01
1.768201181125538596e+03,2.396489691434879205e+03,5.275241305043081042e+01,-8.633541720910350437e-01,5.041376632222760446e-01,-2.155899009198913169e-02
2.896400992646350005e+03,7.159707616300602240e+02,9.538564311349351499e+01,4.703553753317784580e-01,-4.415051488908774968e-01,-7.640935966223940667e-01
2.679897939085658436e+03,1.282983672462256663e+01,6.155240792483604082e+02,8.813207675854688172e-02,3.777189738683726095e-01,9.217163955501981309e-01
1.503806145693498593e+03,9.540863779285996316e+02,1.095909542961953321e+03,-1.691285693053337646e-01,-1.570290957879016680e-01,-9.730043114605222421e-01
1.359636044940084503e+03,2.403996396378743157e+03,2.273580974672723642e+03,-7.476510583112924158e-01,5.304160700860752753e-01,-3.995956551320949401e-01
2.819349439141021321e+03,1.649723304876930115e+03,2.586527255068230716e+03,2.530314794359045938e-01,5.043669577150547978e-01,8.255840613648846027e-01
1.729253761360119370e+03,1.573799441611720567e+03,1.261531990605242754e+03,2.155913464973087112e-01,3.778229247511940003e-01,-9.004277921343448732e-01
2.831265702550511378e+03,2.806422280714612498e+03,3.136068791077835272e+02,-9.778291225111958029e-01,-3.951494181201940445e-03,2.093671245986838958e-01
2.397718289506012297e+03,3.282162011439006051e+02,2.184724991377668175e+03,7.670853785327371721e-01,-6.304984645223025153e-01,-1.185399016209567336e-01
2.854936904398351999e+03,2.297922302530924753e+03,2.409301687796371425e+03,-4.793557815085131013e-01,-5.690768622948160216e-01,6.681089428641482364e-01
9.293418185876755615e+02,2.375087133950136376e+03,2.045975314967890654e+03,-1.392087078613730815e-02,3.476040265158260034e-01,9.375380792834713262e-01
1.022938111103269534e+03,1.704273188505635744e+03,7.984895703306461883e+02,9.865403847262071979e-01,1.632283139847001407e-01,9.725575457498081278e-03
4.195000249294629384e+02,6.024593843520081009e+02,1.873063452515642666e+03,2.753822110066835860e-01,1.502603706183100740e-01,-9.495190671506910096e-01
6.166363753540194637e+01,2.817002793504017291e+02,1.527348126134889299e+03,6.749953268571220466e-01,7.376931528205411537e-01,1.378843728406687306e-02
2.700293253062089320e+02,1.358582913094720368e+02,2.490150086776295211e+03,4.194079598471433523e-01,3.615350223153062648e-01,8.327000605598200433e-01
9.637236395645995799e+02,2.786383869749890437e+03,2.055692393248776625e+03,7.497085092900270809e-01,6.062348606219651881e-01,2.653609708770148790e-01
1.793823364406852761e+03,2.528314953027355841e+03,1.447494843056583250e+03,-9.553643943156244767e-01,2.753991362876307969e-01,1.069307710903038000e-01
2.207589330703378039e+02,2.172824337543637739e+03,9.886360443632033821e+02,-9.742813112432989475e-02,3.324788884729845684e-01,-9.380647887994671974e-01
2.249890220890174987e+03,2.289740379327601659e+03,4.490860822778197559e+01,2.929991663809386471e-02,4.782575994251162532e-01,-8.777307009995296561e-01
1.123695940079397815e+03,2.781587606248026034e+00,3.744357982574510970e+02,-7.700750782557242990e-01,-4.871236272438353998e-01,4.119404636962107902e-01
2.169709009183914077e+03,4.743913737567906708e+01,2.420190798084865037e+03,6.257199466333364102e-01,2.919873089600225069e-02,7.795011112880068094e-01
4.316779501227352398e+02,2.879966684532661816e+02,4.033891331883918951e+02,2.367199401084258692e-01,8.973898852922801428e-02,9.674247174291209506e-01
2.416845872001349107e+03,1.136822588082117136e+03,7.499534901690044535e+02,9.585485938100672954e-01,8.755971061209268103e-02,-2.711418270615386650e-01
1.374778123904216955e+03,3.653941543103094318e+02,1.613520750379144374e+03,9.086502136583490818e-01,2.448590698447702507e-03,4.175509473372418512e-01
1.997019382158797782e+02,5.108773715799732713e+02,1.372520575553873641e+03,-8.276933357772502109e-02,-8.854177489526562361e-01,-4.573670815206430373e-01
2.281531878645918368e+03,2.130036927062075847e+03,1.992694378071381834e+03,-6.674827809680243806e-01,-7.258549965542644422e-01,-1.661362726450821281e-01
2.888172676300837793e+03,1.506419061855226573e+03,2.691571730380246663e+03,-2.232176923638866106e-01,-5.738259243739348703e-01,-7.879706024542669773e-01
1.033949985886991669e+02,4.559250471277482575e+02,1.118043595339529702e+03,-4.140605727279524362e-01,8.502821364902946044e-02,-9.062693004818462850e-01
8.219713899902297953e+02,5.519893970202416256e+01,7.211232708246380980e+02,-5.985143273318191959e-01,-7.189538821158272253e-01,3.533920137313822374e-01
1.700769614171184458e+03,7.294892896080925766e+02,2.858209065559192823e+03,-8.234870085456373612e-02,2.251515921123344310e-01,-9.708375003247693424e-01
1.125102395215472598e+03,6.385504695698392652e+02,1.799323743906260688e+03,2.842512407137241515e-01,1.423665175813985384e-01,-9.481207764965674523e-01
7.992663963419057609e+02,2.224461134734796360e+03,2.114351862558823996e+03,-5.567945223711188163e-01,-4.088714637343280334e-01,7.230518556792906448e-01
1.704162797963536150e+03,1.175351568999724577e+03,2.799797414815780030e+03,2.717910548995555176e-01,-8.757339560689555436e-01,-3.990233836060279593e-01
2.930658004404959911e+02,7.228459825908026914e+02,1.360804242405061814e+03,-1.602801449773304521e-01,-8.587184960844060910e-01,4.867369100536572124e-01
2.001442476046968750e+03,6.732063338989727299e+02,1.818516341734068192e+03,4.236399061614041783e-01,-3.504061080067236156e-01,8.353111931365082565e-01
1.772034424689109983e+03,3.356625988622308654e+01,1.705409618772266413e+03,7.743038600027964125e-02,-7.757349456532084409e-01,-6.262905311564765931e-01
5.078130712604367432e+02,8.121620228357650717e+01,2.084381121988042480e+02,-9.425696821897452393e-01,-3.238751436036712561e-01,-8.165344801307616862e-02
2.605104602122375582e+03,2.496372838331116327e+03,1.470284999414801632e+02,1.496314274140582608e-02,-2.947509410169600955e-02,9.994535122690783036e-01
1.430809045364243502e+03,1.636330550776042855e+03,2.730395698478655049e+03,-5.844314171358365728e-01,-4.988186365671879452e-01,-6.400155361222488182e-01
1.633816274825130904e+03,1.223081747020384455e+03,2.887405236574730225e+03,5.847897047335438858e-03,2.524441197369166057e-01,9.675938034683650990e-01
1.197194822823741788e+03,1.716147091742501289e+03,1.040547927780960890e+03,-8.995849190324658462e-01,-4.298512733505581718e-01,-7.729719431037285204e-02
7.265515326333254507e+02,3.101557859414660925e+02,5.322496420771885823e+02,2.374350855657220427e-01,9.419058191357239096e-01,2.375668495827212290e-01
1.724601173736327155e+03,1.386625802219756906e+03,1.936101354253546560e+03,-3.066074420961624816e-02,-6.277155222232840837e-01,7.778387634493810765e-01
2.679462301298035072e+03,4.954602901561505632e+02,2.180087004092591087e+03,2.410009501110995656e-01,-6.484246245159211997e-01,-7.221246764700219867e-01
2.966625415045564864e+02,1.759746160348401418e+03,9.604259218533256899e+02,-8.829635883794739737e-01,-2.351359608300871151e-01,-4.063082346206567941e-01
6.697614331205418239e+02,1.039591979741135447e+03,1.307514103307667597e+02,4.417050744376007643e-01,-4.209420044671594030e-01,-7.922780169178262888e-01
2.986021707953469104e+03,1.885205711155829704e+03,2.937780504244452459e+03,-3.412068049797451624e-02,-2.899810022390044706e-01,-9.564239632625364251e-01
1.537466925681801285e+03,6.131956728965958519e+02,4.572671226226523231e+02,-5.432491346569440216e-01,-1.761201127316749659e-01,8.208910302749468091e-01
3.531780342226757057e+02,1.969519489885561825e+02,1.932857615351731738e+03,5.420141312769174435e-01,8.320684266493949544e-01,1.178253574971404039e-01
2.308181668778314815e+03,2.242716751321006541e+03,1.312778889558585661e+03,-5.997761797183510657e-01,-7.907188480498184013e-01,-1.226060258764976041e-01
1.530954111667220559e+03,7.928438157625028282e+01,1.523812214519545932e+03,4.975925881703534559e-01,-7.601579495885594229e-01,-4.178055862183347458e-01
2.869481994215024088e+02,2.452997936153304636e+03,2.687467642249137498e+03,2.987622611483021218e-01,4.525379605130318561e-01,-8.402086083873809841e-01
1.367969112621190561e+03,2.517061752909066399e+03,3.849281159971367288e+02,3.054202435001081017e-01,-5.105926500696003068e-01,-8.037497250731955312e-01
3.789393455984655361e+02,2.679632463303992154e+03,2.853825723849190126e+03,-3.064678458532456573e-01,2.488257019653913049e-01,-9.187835596589120080e-01
6.584942048741649501e+01,5.746358026618145232e+02,8.885878635437703679e+02,-9.513489278644877700e-01,-2.092394194298072829e-01,2.261726836020807596e-01
2.621873629019276450e+03,2.125471004414906929e+03,1.682635312822422748e+03,3.509597971743452227e-01,9.341082471894146533e-01,6.533761014960659530e-02
8.945720336961323937e+02,2.367784048648996759e+03,2.724033588027572478e+03,-8.628008760813927758e-01,5.055381353585977067e-01,2.417008757386041040e-03
1.220515769854336895e+03,2.321589558022727033e+03,1.168369111791250361e+03,3.407297279714014415e-01,8.552956862316516418e-01,3.903492559107331061e-01
1.699863060259384838e+03,3.301731850690385954e+02,2.853623663853289145e+03,3.519809891407582603e-01,4.319555005745669973e-01,8.303757154486568481e-01
3.775153204421432918e+01,1.423364815428991051e+03,1.575887718366766194e+03,7.811022967007754669e-01,-4.097626346403716036e-01,4.711409399971042689e-01
1.673709974446941828e+02,1.439011732941589344e+03,9.688348141939285370e+02,-9.529145890312575862e-01,-1.245015287911733631e-01,-2.765016371381010529e-01
9.285167370539957119e+02,2.119372430018993327e+03,3.255058523806885660e+02,2.029161607148209992e-02,-7.788618086120330242e-01,6.268672374616497400e-01
1.667804465654535079e+03,1.539580265028856729e+03,1.994642807954329783e+03,7.825897456969893584e-02,8.747434249754336699e-01,-4.782253374315785788e-01
4.292195910175372546e+02,2.214633830867771849e+03,2.906369932460511336e+03,-6.267533182626372490e-01,-5.611344771655062402e-01,5.406555063836557817e-01
2.018552559050971922e+03,7.642821117950136340e+02,6.062028538681661303e+02,-1.933511634866882239e-02,-6.932366513872125768e-01,7.204506217980712890e-01
1.089831621162741385e+03,3.453664771014325083e+02,1.895005740611404121e+02,9.140760233400345713e-01,-1.531721542823271109e-01,3.755040808132180108e-01
2.811117530576744343e+02,2.502791847579459500e+03,1.013112922890008804e+03,5.540670482233485128e-01,-8.175330802857051493e-01,1.570011742364756102e-01
5.443271533512807991e+02,2.194586885217669987e+03,2.904442963363815579e+03,-3.909718208366595449e-01,5.862936635361315485e-01,-7.095074174447005833e-01
4.839707135343733739e+02,1.697115549720768286e+03,1.108752003621724953e+03,1.992580247287808193e-01,8.263431318459832919e-01,5.267383297541166076e-01
2.001024505155111228e+02,1.981297766944195018e+03,1.331297066340400988e+03,-8.260743131527263916e-01,-4.753045125916090519e-01,3.027983643603520125e-01
2.616123151787513507e+03,2.842970619743406587e+03,4.575979590721699424e+02,-3.362996250022053102e-02,7.764401598459931275e-01,-6.292930190305326965e-01
1.565264523782447441e+03,7.516258300544941449e+02,1.018933884690338004e+03,2.066712843884358219e-01,9.784077121094565399e-01,-2.308483045900588948e-03
4.273500789309569825e+01,6.881842077398412130e+02,1.196746294959770239e+03,4.580873810035746008e-01,3.957396153600611366e-01,-7.959560969048209422e-01
2.826833916085002784e+03,1.882313693150407744e+03,1.973894566302204794e+03,3.033383798379095109e-01,4.091390811920374015e-01,8.605759929016423282e-01
4.587476000265980929e+02,8.013445313553559117e+02,1.468492158599881350e+03,3.143640022952770008e-01,1.562748691716412675e-01,9.363511303599101332e-01
2.118528646205061705e+03,2.800105159953796488e+02,2.587112847539561699e+03,7.175500177442512006e-01,-5.228926467489726226e-01,4.601143901369300626e-01
2.728158211404346275e+03,2.053271196005246566e+03,2.532894976567641606e+03,2.522844999011005229e-01,-2.352061317961001430e-01,9.386323064305677200e-01
1.952721691657815654e+03,2.768534752088957248e+03,1.166365613136455750e+03,-4.954904970863243108e-01,-4.508028139169782400e-01,-7.424728885701359360e-01
2.172260561460565441e+03,3.988029530540912901e+02,1.837399951939174798e+02,-7.114187773877888032e-01,-1.197891371620836559e-01,-6.924838523734884177e-01
2.991129828930837903e+03,2.889549213704655813e+03,1.022722099837856376e+03,-1.658786871549542408e-01,9.823564353013932715e-01,-8.637184245857176812e-02
1.791575676962596617e+03,3.855452739608454635e+02,8.821022036979605900e+02,8.144626822099556573e-01,2.839105289081224059e-01,-5.060092398983196960e-01
1.417199675541577108e+03,2.314550983921344141e+03,1.974699678287563756e+03,1.461738427397121787e-01,4.561111785267554092e-02,9.882068779496200328e-01
6.851626540091642710e+02,2.286387967346143796e+03,2.838343827053612131e+03,-2.997027708365010978e-01,-4.696232229727151930e-01,8.304410139182935024e-01
1.954797790881511446e+03,1.662514396085087810e+03,2.451792967752569893e+03,5.749524052280737818e-01,-7.498716002492620269e-01,3.272954549975661820e-01
2.581738365768465542e+02,2.826559325389294372e+03,1.956991749970848787e+03,-1.665878607792718180e-01,9.830582467077726427e-01,7.645239185811016080e-02
1.837228648460363502e+03,1.392262002375510292e+03,2.543166684549450565e+03,2.791877525380352387e-01,-6.032870138906826218e-02,-9.583395257535136658e-01
1.882242662171859138e+02,2.177633560823210701e+03,5.102775012394651526e+02,9.254332817490072971e-01,-9.914105304873083169e-02,3.657106679215842426e-01
3.346228134646891590e+02,4.944171347221106885e+02,5.011771395267956564e+02,4.613777987423405835e-01,8.674237641357844808e-01,1.862969141992942834e-01
1.130554768068339172e+03,1.110509524689702630e+03,1.757306559998628700e+03,4.294931769247628539e-01,-8.892354449512134273e-01,1.574672487137940280e-01
2.432131695910373764e+03,1.269286031408805002e+03,1.393833759104270484e+03,-2.979918313993495070e-03,3.700054468352293457e-01,-9.290248055886904943e-01
1.866684317326743894e+03,8.706633290800347424e+00,1.670598086497198210e+03,-8.328900782700573435e-01,-5.464061242190957346e-01,8.794580680830722808e-02
9.906900935752116766e+01,1.047817974384944591e+03,1.576737536358582020e+03,7.960476102602672688e-01,3.148873268857672048e-01,-5.168695904826030585e-01
1.303287292547730658e+03,1.376771927201341157e+02,2.415693274971311894e+03,-8.869393846621962396e-01,4.210036395369268769e-01,-1.899854295247560554e-01
2.982734370922224265e+00,9.427530694590379881e+02,2.242552807777308317e+03,2.755584097224111351e-01,6.354923463418583607e-01,7.212607299528897009e-01
2.926114658555907681e+03,1.479505024282914064e+03,2.814827262724090815e+03,-2.624138175206701673e-01,-7.908324121239114213e-01,-5.529223130861192770e-01
2.135902658120557135e+03,1.555697611875074472e+03,8.371792633182450345e+02,-2.412568848284629697e-01,-4.458309830766201687e-01,8.619917923343587418e-01
2.840732797416769699e+03,9.534437825320630964e+02,9.684039191700946958e+02,-5.251977636516619308e-01,7.430533285775073327e-02,-8.477299254858189359e-01
5.706551810218003311e+02,1.167492507246770117e+01,2.118700371601243660e+03,-2.033675567584152244e-01,7.426533283768120830e-01,-6.380498967235680441e-01
1.533039620066787393e+03,2.684311070035687408e+03,2.821604365712225444e+03,-4.773170858593111521e-01,-8.204285562987105873e-01,-3.147465385931804693e-01
1.733960265477302073e+03,1.650649071414874925e+03,2.392957454988958489e+03,-2.835156758526392040e-01,-9.574125077885443647e-01,-5.459076364983173751e-02
2.832502145347113128e+03,7.043869374315338518e+02,1.170808162648491049e+02,-5.430017969994075516e-02,-8.090921580012581105e-01,5.851678138324265532e-01
3.512170617648138204e+02,1.142126258846527435e+03,1.316536343067294638e+03,1.021696472730255177e-02,-4.863823637680582679e-01,-8.736863337875654389e-01
7.593512573440410733e+02,2.066427519626020057e+03,2.912564114513205823e+03,-4.194441527893721239e-02,8.198102995848484120e-01,-5.710969608757422433e-01
4.179965402609902867e+02,2.835414439765782390e+03,1.572860612113862317e+03,6.962112710461056952e-01,2.798441245713491621e-01,-6.610424585541092579e-01
2.361874509626743929e+03,7.948579496228513896e+00,3.664994587069132308e+02,-1.921909316188891159e-01,-9.177561627885785223e-01,3.475431936710136616e-01
1.221724731358542840e+03,1.465081378839201307e+03,1.745176252050146786e+03,-4.222643408081304395e-02,9.272385494641234294e-01,-3.720827873638972161e-01
8.849483099323409760e+02,8.540754742664274772e+02,5.722521573400372290e+02,5.733906800305721418e-01,-5.520657519921735590e-01,6.053482745753835381e-01
2.299045486779201383e+03,5.195216786731333514e+02,2.870936334326996530e+03,7.923350594359407362e-01,5.249474638931420634e-01,-3.108622102166856416e-01
1.380178143782728739e+03,2.396390962830890658e+03,4.829235380401527777e+02,-8.483760961728420424e-01,-4.919108631773993490e-01,-1.956571034503848949e-01
2.234620207808551186e+03,1.409912389249870330e+03,2.741430795087287152e+03,-7.323116000222608113e-01,-4.595310821619361663e-01,5.025444308714565045e-01
7.268917905838709430e+02,1.784554550114690301e+03,9.687046691186440057e+02,-5.346608574913078726e-01,-8.262356491501678946e-01,-1.774046773342237981e-01
1.506822800511335572e+03,1.916659224188748794e+03,5.441216574126472949e+01,-5.935910720476123004e-01,4.220472701862343912e-01,6.852194837522603832e-01
1.781839031648896253e+03,1.113620622252123837e+02,1.864975030535971655e+03,8.881992532020855924e-01,4.339197460519946259e-01,1.510488020390423625e-01
1.128198394988608925e+03,2.454056810170349763e+03,2.857062534202667621e+02,3.462006428004311132e-01,-1.748506603819136376e-02,-9.379975412495538123e-01
2.156224489005000123e+03,1.857468261024872618e+03,2.162842976899792575e+03,-2.495069901807922541e-01,8.654132922831699881e-01,-4.345182336686538860e-01
2.969551872038489819e+03,1.387321228337385037e+03,2.046727160716183789e+03,2.415422746781090702e-01,9.030674439540024023e-01,3.551429588401122661e-01
2.341574785429177155e+03,2.758200956421196679e+03,2.178450007849467511e+03,9.079202747587717948e-01,3.497021579691622084e-01,-2.310609776523669390e-01
2.704623727779240198e+03,2.146675885471361653e+03,4.044652667542518998e+02,9.500004993776457463e-01,1.660389815127313873e-01,2.644430142780076487e-01
4.397163400939767826e+02,3.822057962006889511e+02,2.743206770121209388e+02,9.405200652791921856e-01,2.263227684022662833e-01,2.533772115048198437e-01
7.000069782169837254e+02,3.688243483450230542e+02,4.031776112849253195e+02,-5.141542071648751155e-02,8.515065993995910576e-01,5.218169848629795604e-01
1.604454677421596216e+03,1.679681863855098982e+03,8.495551890348018276e+01,6.139512661012493933e-01,7.122194713865566129e-01,3.403046685405990979e-01
4.298560233276559188e+02,1.512080441920783869e+03,2.228393914071748441e+03,6.867574875283908309e-01,6.496110703882292947e-01,-3.261435428653330360e-01
2.527991546960938649e+03,8.644642608534205692e+02,2.257808371718259423e+03,1.464286815521380625e-01,-9.011073680127711372e-01,-4.081227174907060551e-01
0.000000000000000000e+00,1.086712478707638411e+03,1.954519108820757310e+03,-3.870002306262636249e-02,-7.478448322880464350e-01,6.627446076996901247e-01
1.602551204822107820e+03,2.473883151086996804e+03,8.331780108683083199e+02,-2.568510203480734236e-02,-9.904118312185499207e-01,1.357375412912000534e-01
1.532510856820739946e+03,1.887990664170604305e+03,1.130942614586843547e+03,-4.459513027510506045e-02,9.481757531715424570e-01,3.146013595859445400e-01
2.589860790940490006e+03,2.460158330285125430e+03,7.388055584324939673e+02,-1.319410436945142318e-01,8.733076353776304535e-01,4.689619760491612888e-01
2.997818632105417237e+03,2.181806968925204728e+03,1.351983417222207208e+03,-4.743045262685334842e-03,6.971243514847372813e-01,7.169345451912750855e-01
2.715402330042018093e+03,7.615750733659325533e+02,1.142039722663428392e+03,-4.510438475433201644e-01,8.552358249750705577e-01,-2.552080156901985752e-01
1.957354963575309057e+03,8.658046333810062833e+01,2.732051429498214475e+03,9.660128029986999598e-01,-1.397097502721124374e-01,-2.174866665372818808e-01
1.533095792466333933e+03,6.733102504210827419e+02,2.108052043357279217e+03,-7.001850021699337345e-01,-7.103832607042414038e-01,7.139037503403211637e-02
2.228677823987685827e+02,4.090592653020675016e+02,1.194958589100787549e+03,-2.180451457747242805e-02,7.695097111027757730e-01,-6.382627732075272231e-01
2.149235341654337844e+03,1.061383585017099449e+03,1.439255790704427682e+03,2.633489805366678177e-02,3.772774770781042730e-01,9.257257576810118405e-01
2.515113944557379455e+03,1.768369802619460415e+03,1.713649602608048326e+03,-2.852624973646699647e-01,8.962338811333682154e-01,3.396912390773292323e-01
1.888375671921311550e+03,1.127948837060527239e+03,1.443061369848235472e+03,3.033651159827714938e-01,9.491406285848033031e-01,8.427142798365429288e-02
2.413215849989369872e+03,9.291246855453983926e+02,2.605016761847463158e+02,3.069846264318552564e-01,-8.419093120163921862e-01,4.437895328582901477e-01
1.737726586619240152e+03,6.937728176652439060e+02,2.574385240646898296e+02,9.612852351034699427e-03,-3.685329981780696706e-01,-9.295649640146514958e-01
2.105456069438722807e+03,2.607077070666614873e+03,1.694370763370372970e+03,-4.960309328904166093e-01,2.376456501831745657e-02,-8.679795844749766953e-01
2.682010620107910626e+01,2.352708218256628243e+03,2.959616888328692767e+03,-4.678438775243099479e-01,8.763572425275858446e-01,1.145429602047400852e-01
1.073500091240620804e+03,2.379690018717240036e+03,2.949534731683709651e+03,2.578407040997651722e-01,-2.828767535886506090e-01,9.238500492983063861e-01
8.150064832436374900e+02,1.988248497085538247e+03,2.456884280229013257e+03,-6.389340727912541373e-01,-2.274543669601466200e-01,-7.348658119528621580e-01
4.404377534968788837e+02,2.957681286369921054e+03,1.032084183171666503e+01,7.202966174377302133e-01,-3.374477590577835140e-01,-6.060542820693903820e-01
2.612297008689282848e+03,3.076930772509753069e+02,2.743328824816356700e+03,-7.256849365716280253e-01,-5.554627505222755612e-01,-4.060080117624041418e-01
1.477483260568765445e+03,1.324329961908649466e+03,2.398142933950887709e+03,-5.203044757392372155e-01,3.594382615912727341e-01,7.746530763057495328e-01
2.963399366383943288e+03,3.972114431936968515e+01,4.897793487125006209e+02,-5.830196145646533434e-01,8.090954691045598723e-01,7.384206732855758126e-02
2.092977865836804085e+03,5.995922866996827452e+02,1.698420034630877353e+03,-8.584720578932234503e-01,3.044135865856696377e-01,4.127445870252244298e-01
2.350984801288454037e+03,5.166912746265579699e+02,2.850587531394886810e+03,-1.075122493112872363e-01,-5.760559420659033814e-01,-8.103089952966042731e-01
2.354515147513214743e+03,5.267014122440482993e+01,1.664077034081669808e+03,2.689096315885733390e-01,-6.748994631509043218e-01,6.871668826984598244e-01
1.657855678053098245e+03,1.913656955510770331e+03,6.888274789814170163e+02,-1.853583237453463317e-01,-9.570475720256929053e-01,-2.229399845205912722e-01
1.775904607116371380e+03,3.506629245669548709e+02,9.228529339712316641e+02,9.290195135917087566e-01,1.810629690156164151e-01,-3.227056625116375699e-01
1.953916440169845373e+03,2.420125377494282475e+03,2.253288723194697923e+03,-5.969143894474784329e-01,7.714990276036303163e-01,-2.201873340526130651e-01
1.880892976951021637e+03,2.592173981569927491e+03,2.727964653447373848e+02,-4.220772990728827168e-01,-8.948544966477175455e-01,1.452108241030969915e-01
2.705582352602042647e+03,1.692053199641044330e+03,2.722587202205969561e+02,1.041692644855580357e-01,-6.157487645735345572e-01,-7.810263908874678362e-01
1.261820919850428254e+03,2.465250008796474958e+03,1.688043586763856865e+03,-9.206833446942147559e-02,-1.943871363811165709e-01,9.765946257263430352e-01
3.048075629710538124e+02,1.735429499127756344e+03,4.681554244764317900e+02,2.268679663854615558e-01,9.684835837801913927e-01,-1.028128093984510688e-01
2.917193159055100296e+03,1.270655526001097087e+03,2.509986754048044531e+03,4.297957961784977798e-01,6.710112069284231984e-01,-6.041684647213493298e-01
2.363056739143289178e+03,1.879190181940201001e+03,2.808124233787196772e+03,-9.940529100399090323e-01,-2.996437485868662723e-02,1.046945475204745790e-01
3.909069469050248244e+02,1.351551701130413903e+03,1.198424577313147893e+03,6.222293315623420584e-01,7.441717498014536192e-01,2.429795582779006313e-01
1.700726924722488775e+03,2.032099553786540582e+03,1.041506461081881980e+03,-1.642856158469399863e-01,-1.607948943503891837e-01,9.732190084336818092e-01
2.710879961623129020e+03,1.666450205841271782e+03,7.995150895251392740e+02,-3.375277449651374884e-01,-3.101124576570051250e-01,8.887661587755697479e-01
2.332440718085486878e+03,2.371559506530011731e+03,7.584804304840480427e+02,-6.951219162980259991e-01,6.834841887218687795e-01,2.228337614666344724e-01
6.144808637168424639e+02,1.708131856602610014e+03,2.060858452666910580e+03,1.050223859296576800e-01,2.089222264178967614e-01,-9.722766076391178292e-01
1.684900101370067659e+03,6.070057512021126058e+02,2.757351394590093605e+03,-8.305367179524708598e-01,5.395322772788252452e-01,-1.382522401520593913e-01
2.227123770128097476e+03,8.232954890460698607e+02,2.046185109294517133e+03,8.676702233935782438e-01,4.447245547238341534e-01,2.221901299829167620e-01
2.514439273331810455e+03,1.894236117607592860e+03,1.585660157291830956e+03,-1.895914583097101785e-02,-3.707970477894131922e-01,-9.285203821887895170e-01
9.750235425225109793e+02,2.117542614821676125e+03,2.329953209635302301e+03,5.148895503574678623e-01,-2.264945847465654472e-01,8.267943843623790645e-01
7.902631556919460536e+02,1.971355534162695903e+03,1.875898531939299687e+02,-5.633812811646855823e-02,9.474012253636203695e-01,3.150506840174178702e-01
1.084783846534063514e+03,2.653604971966856283e+03,2.024680520526144619e+03,-7.787799789561278274e-01,5.868263639163879830e-01,2.216676859394808574e-01
2.675244815906070926e+03,2.189502339052100979e+03,2.864785109471942633e+03,-8.005109535406076393e-01,5.460528319019738452e-01,-2.469990243570647781e-01
2.344665248469785183e+03,7.209974402311704580e+02,6.683748542742704331e+02,4.344818981288392848e-03,-2.984209877108784381e-01,-9.544244530824237405e-01
2.967594921682737549e+03,1.244974863507697137e+03,1.716974090377809716e+02,5.582087068396753837e-01,8.522292764965117007e-02,-8.253121180566778126e-01
1.746038476173270055e+03,4.424216832010725398e+02,7.050144523297542491e+02,5.597344077157002940e-02,-8.364171584739267251e-01,-5.452277606088979933e-01
2.915949591992579371e+03,8.081218271261654991e+02,6.846901099057243982e+02,-8.447120817005958626e-01,-4.830834238764256106e-01,2.304168062552630902e-01
2.505848235595768529e+03,8.039769214293385176e+02,1.617882565649370690e+03,6.908085239413055967e-02,-6.171617440625237760e-01,-7.837979443059316376e-01
1.127838835263672763e+03,1.823726341341176749e+01,1.813239580681374946e+03,1.984439216369061065e-01,-9.762534761041439246e-01,-8.688590426496746455e-02
4.869956758544363993e+02,8.094169178891706906e+02,1.026922152415903383e+03,-5.157374856106060612e-01,-1.024528327155961177e-01,8.505987673425116080e-01
2.391570823060537805e+03,1.181118746906033039e+03,2.340740416219422514e+03,-7.114178665386684530e-01,3.808317887030176485e-01,5.906367478263010451e-01
1.595237316708719845e+03,2.164196567407807379e+03,1.604762866088784449e+03,2.521581841621066133e-01,-2.346095063173347928e-01,-9.388155461567546656e-01
1.261186549715646379e+03,1.638631568759741640e+03,3.247303222770714228e+02,2.310291803987036263e-01,8.394978081954423965e-01,4.918017363118512009e-01
1.569772512434200848e+02,7.716846070442272776e+02,2.919208043731773159e+03,-4.767832128183544516e-01,-7.250439653359191938e-01,-4.969798952720060337e-01
2.458004293749297631e+03,2.691947992211783458e+03,9.507384075947055635e+02,-1.158099680338629672e-01,7.892965822654463004e-01,6.029916720221608628e-01
9.256117011410184432e+02,9.021982910649610403e+02,2.968712757496144150e+03,1.270670055227497985e-01,9.075072413742971689e-01,4.003555706627479616e-01
1.908244226219762368e+03,2.936932701795615685e+03,2.613628683587123192e+02,6.536465080609666911e-01,6.592057826531957376e-01,-3.717445071770292264e-01
1.871995327091445915e+03,1.133501535393210361e+03,2.778539177893150281e+03,9.588667760936910867e-01,2.835110045064427875e-01,1.400057239683994044e-02
2.042472009351174165e+03,2.409188014485332587e+03,8.616718550582345415e+02,8.246380525231594705e-01,-4.019825581610032006e-01,-3.979724931011524025e-01
1.572719251209173308e+03,6.595119328251803381e+02,2.135673517317306960e+03,-8.050883847461098863e-01,-5.901821198118906153e-01,5.931069213255658196e-02
2.718841536487632311e+03,1.524185587564893240e+03,2.224048765562982680e+03,2.597472804992926113e-02,-1.387769195798772559e-01,-9.899829695982919064e-01
1.338195195791403648e+03,5.624205920253838258e+02,2.330527355055746284e+03,-7.389598355174447075e-01,-6.231399061924700611e-01,-2.561933231028290514e-01
2.785562079192498004e+03,6.957610340525712900e+02,2.756599030672605750e+03,6.891762840400295076e-01,-2.166600358958863659e-01,6.914437637019874572e-01
2.971566737875130912e+03,2.298308426954667539e+03,3.453998149625868450e+02,-2.507307568912570117e-01,-5.740299492218097210e-01,7.795022161258708948e-01
3.188000399649965289e+02,2.485019018198281628e+03,2.314673102966123224e+03,6.467145314441374859e-01,4.190013621960104739e-01,6.373367816914988770e-01
2.256639974918210783e+02,2.878846738078894759e+03,2.086707695163090648e+03,5.776515578190848377e-01,3.343412009039161692e-01,-7.446708260213446007e-01
1.511316478764257454e+03,1.841014957764643214e+03,6.220515545958345456e+02,2.748734579552007395e-01,-4.601690721028026815e-02,-9.603785849145902720e-01
1.279799738274196898e+03,9.535389225259945079e+02,1.953782215600973814e+03,6.217623463772123937e-01,4.211894765254309836e-01,-6.603112974133767965e-01
1.397975590231315209e+03,1.882149274412489831e+03,4.529365721293263505e+02,4.173784754023326937e-01,-7.898689710666754182e-01,4.493353055535429519e-01
1.691016962967297843e+02,8.412613918641785631e+02,1.839143767507690427e+03,-8.550353968923913861e-01,3.001376870432125865e-01,4.228851367421436191e-01
1.619858560288261287e+03,1.729582368802030487e+03,1.203054259209971406e+03,-6.845272914521793872e-01,-6.726200626282298201e-01,2.810776380417681075e-01
3.694287722905287552e+01,2.089022002179112405e+03,1.484941363630036449e+03,4.556485630376827523e-01,1.083556558187071112e-01,8.835402870575810308e-01
1.970430092405179494e+03,6.766463567705376363e+02,1.667932645473779871e+02,8.630095974907976419e-01,-4.972737657304307501e-01,-8.906871816214813331e-02
2.063565990083838187e+03,2.742266742142320709e+03,2.012091120850717743e+03,-5.061268484864113182e-01,8.537010846649902840e-01,1.225971911710563994e-01
2.422967957609317637e+03,1.874534992188242768e+03,2.845570672059960543e+03,5.750357317715166366e-02,2.073875113225543132e-01,9.765673347083125844e-01
1.735774852563426521e+03,1.288089293992257581e+03,2.822035427857457762e+03,-6.845454202360471418e-01,-2.659000461856101949e-01,6.787449690954210357e-01
