x,y,z,nx,ny,nz
2.916128701553847350e+03,3.419062238014425361e+02,1.984712932601321199e+03,2.444828905940377717e-01,9.293157360593080618e-01,-2.767677346067101696e-01
2.076632907392008747e+03,2.474883758944692715e+02,2.473384007786767143e+03,6.606599731748237225e-01,-7.260464798550211318e-01,1.907482868462353487e-01
1.606758092715253724e+03,2.371601563409277844e+02,1.526246493228394911e+03,-8.136941855656715239e-01,-3.958788229376283274e-01,-4.256544724610991648e-01
2.977303983830500783e+03,2.871733898457413034e+03,2.710435193953177532e+03,-7.348519057966959034e-01,-6.223734160511719127e-01,2.695255229839264577e-01
4.982919286838342146e+02,1.478700983583210018e+02,2.020071057938413333e+03,-6.175448522743109264e-03,8.164154459139740805e-01,5.774319730571123577e-01
3.177710464570256477e+02,1.602874233663237646e+03,2.782148576069423143e+03,-8.527184338173406097e-02,9.845156307508338145e-01,1.531590204120181486e-01
1.586887109144475971e+03,1.229543757312761272e+03,2.354341549234083686e+03,1.690554427828528383e-01,-9.457902754895860520e-01,-2.773103172527602300e-01
2.544498125022958902e+03,1.393006433774364496e+03,2.862912307761409011e+03,7.534085005367882060e-01,3.605834453439075715e-01,-5.498683572118199248e-01
6.055015386574357308e+02,2.760865111503129810e+03,2.144931441186709890e+03,-8.665950740939972752e-01,-3.671708385405754727e-01,-3.379327638472335860e-01
1.686264804830338562e+03,2.702275608681501126e+03,2.796053494814481837e+03,3.654536288462314486e-01,-6.335349481130105875e-01,6.819656257338531091e-01
2.811205623623751762e+03,2.593347939724959360e+03,2.459938683562978440e+03,-6.352698603191789806e-01,4.885677360008686132e-01,-5.981084950985366966e-01
2.940719508766418585e+03,2.014023477425545934e+03,2.201743506264091593e+03,4.691239612978378819e-03,6.706295754493520889e-01,7.417775709763104741e-01
7.444127374761897045e+02,4.153932478086348397e+02,2.176003978840311447e+03,1.928495810446096970e-01,9.288799841776232968e-01,3.162135577186671598e-01
2.194007078551687300e+03,2.751304980895549761e+03,4.442596926673068083e+02,6.577746080580929577e-01,5.096082906010191566e-02,-7.514888947253506313e-01
6.604190870834519274e+02,1.648066506685464901e+03,1.492939413854256600e+03,1.031330705306016809e-02,-8.922556220891714185e-01,4.514128271858200425e-01
1.990969556152817631e+03,2.893004015072058792e+03,1.956719352858608318e+03,2.598320734218995121e-01,-9.649533702598680485e-01,3.677345299803680412e-02
1.272274738921828884e+03,2.147202957979435723e+03,1.727726636127518532e+03,-6.999436363250743920e-01,4.352918392836999106e-01,5.662154365796163713e-01
2.717961132112911400e+03,1.950853192198907891e+03,1.131606462130366708e+02,-8.526333949447083560e-01,-5.041556153939063395e-02,-5.200716921538115489e-01
2.993896899840084643e+03,2.555375087764391537e+03,2.367645548503271584e+03,-8.289374091905267194e-01,4.577984393265753238e-01,-3.213772869924838016e-01
1.385407672684877070e+03,1.076208103970174534e+03,1.119407313947164766e+03,9.222938153653736926e-01,-2.365867199871722337e-01,-3.056155134552130392e-01
1.991708038745214026e+03,4.670509910187589071e+02,2.069087325778650097e+02,-5.370501192953076597e-01,-1.537620538220172695e-01,-8.294181093811074934e-01
2.420294009354084210e+03,2.706660594413944636e+03,2.832465007444312505e+03,-3.098508753951833006e-01,7.275693645894261152e-01,-6.120745499755545493e-01
2.159097333646737752e+03,1.702023105840981316e+03,2.719840617656077342e+01,1.646344664862025090e-02,-9.094846570771776273e-01,4.154113785943480686e-01
1.086269896966653505e+03,1.378497797725391820e+03,1.888964003601817240e+03,5.212017014433303341e-01,-8.190227838763783907e-01,2.398967817707542693e-01
1.140677750678922848e+03,1.636660003698695618e+03,2.711018654465774944e+03,6.527884997276629520e-01,3.756720192810656944e-01,-6.578280235385185470e-01
1.131573945812088823e+03,2.082923052310620733e+03,1.512313404177964912e+03,3.420221250302959426e-01,6.051431333813676039e-01,7.189037864075700224e-01
2.513939449929543571e+03,2.414465419827900860e+03,8.318733407983704637e+02,-4.330280296395890849e-01,-7.183900643076865933e-01,5.444285454037592897e-01
6.419040703182004108e+02,2.688856858971614656e+03,9.405142679594382571e+02,-2.606469053408367875e-01,9.653476269650015373e-01,1.292864452621644844e-02
2.150911969197903090e+03,2.822842331628919965e+03,1.618593097340529539e+03,6.311987010594083403e-01,-7.570104609220676961e-01,-1.688886077729174762e-01
7.445141235085073106e+01,4.017828977672630799e+02,1.825010347390660172e+03,-2.645811113244044277e-01,9.221732874004894276e-01,-2.821227809577195877e-01
1.595733827215812198e+03,1.139826071340282624e+03,2.103299871414819336e+03,2.671709184627256706e-01,-4.267149101321639493e-01,-8.640220401116414095e-01
2.808058455262907501e+03,2.100242182376481708e+02,1.720639347235118521e+03,-1.986254160248617784e-01,-5.905683312679362862e-01,7.821617417212092249e-01
2.026495187116014904e+03,3.323620017724339277e+02,7.539287703131481067e+02,-6.283168320195957612e-01,1.067832361078010911e-01,7.705941208491047245e-01
1.786304317098507454e+03,7.098518352602463892e+02,1.686826856630446400e+03,6.360932282771695513e-03,-8.648792251658183883e-01,5.019397019733222720e-01
2.426728704231200027e+03,1.688552715919476441e+03,1.687701983985909919e+03,9.695022318910212489e-02,-2.439934628741342870e-01,9.649185687394929989e-01
8.894819117485723154e+02,7.067801810600406043e+02,1.441374582460108059e+03,-5.160369753098111856e-01,4.077121251685726921e-01,7.533104692645837819e-01
2.195189949333260302e+03,2.499953878458182317e+03,1.491586150099746874e+03,9.493938185207608793e-01,-1.401030297315407347e-01,-2.811094420588033937e-01
2.174866693310651044e+03,6.256326292379266363e+01,2.762961804185108576e+03,-7.063709562886152371e-01,6.442317160458180814e-01,2.932670594399713337e-01
2.388941298640172306e+02,2.428373767078299807e+03,5.657147077461881963e+02,-4.337888352697542860e-02,9.460820257078714768e-01,-3.210094595124003969e-01
2.469031970870081295e+03,1.644870364984003800e+03,2.844431036738831608e+03,-8.183843346861599533e-02,-8.685233940758103621e-01,-4.888451541648312082e-01
1.801250007229315997e+03,2.983700005551086633e+03,1.584199300727119862e+03,7.276617512116296815e-01,-1.382775642429615870e-01,6.718539209163387760e-01
2.168467728324493237e+03,2.200801361755566177e+03,2.254846204902334250e+02,1.780839569222722116e-02,9.789115071530614109e-01,2.035070568953098180e-01
2.798401651214369394e+02,1.867068896284524271e+03,9.018364000469924804e+02,4.107119746657232340e-01,6.304614291747614452e-01,6.586608081471825304e-01
3.319163456203988289e+02,1.986736425006249647e+03,2.844485131187840580e+03,-2.565063940967955702e-02,8.070559015421578941e-01,-5.899176353389083971e-01
1.001367640788710446e+03,1.953522838131368644e+03,1.908458217361037669e+03,-6.921730766552948166e-01,-6.365333287569174825e-01,3.401790019022064016e-01
2.833375144908150560e+03,1.264711050233026526e+03,2.837116615104558605e+03,-4.601692513723764644e-01,-8.534765375348327687e-01,-2.445854860144809628e-01
2.614228350887873148e+03,2.101720728414363748e+03,7.668606811896758018e+02,-3.093497801641600931e-01,-7.957700475155793374e-01,5.206272610893886155e-01
2.038219594303423719e+03,2.809890588788005516e+03,2.453089538001731398e+03,-6.840294455347910307e-02,6.086639646777409346e-02,-9.957993366926096712e-01
8.418842563883478078e+02,2.041724573656357961e+03,2.184838884383067921e+02,-3.631199283014560075e-01,-3.626758718350449051e-01,8.582599429421342574e-01
1.785138612872699241e+03,1.263304687348513198e+03,2.078333226536154598e+03,-9.757011472016552389e-01,-9.672567483869358440e-02,1.965996316791396303e-01
8.324253946182151367e+02,5.539781103221163221e+02,2.109832146829828162e+03,-3.246351324768463886e-01,-4.606460391807060128e-01,8.260855024444309080e-01
2.569670681904228786e+03,2.400428577202818360e+03,1.459789503477782773e+03,-4.711024336910236698e-01,-6.710498627213136169e-01,5.724985403580528098e-01
5.986367340729315174e+02,7.082161371307769286e+02,2.103532999923716488e+03,3.646882078146783113e-01,-7.075266278733622904e-01,-6.053169268499491995e-01
7.801826455257107682e+02,1.584661263406365606e+03,1.290741021193690131e+03,6.386659894215024336e-01,4.699659868753387482e-01,-6.092928073894705587e-01
1.663412884892132297e+03,8.280523835623678224e+02,2.249844397831309834e+03,3.075859959141828415e-01,3.300344582280776984e-01,-8.924506213228715623e-01
1.234673278471033655e+03,1.283767910455105948e+03,2.071246704150386719e+01,-6.932814224067123110e-01,2.758247285255179815e-01,-6.657939534717554064e-01
1.220140364435528454e+03,5.278490685309559467e+02,3.498051371663890450e+02,-1.472823269967703796e-01,-9.788425344615048207e-01,-1.420394624158869690e-01
1.886370839539352119e+03,6.561394581037783382e+02,1.259451963523372115e+03,1.052980711093434857e-01,-5.597245617006090246e-01,8.219615144577711030e-01
1.208225900191581331e+03,8.278854917942326210e+02,1.225184375616854368e+03,6.528718923997466339e-01,-5.824618945763434530e-01,-4.842483179949213512e-01
3.455604155828725652e+02,1.172046760705809675e+03,7.512647610364815591e+02,2.164961499904644038e-01,6.342476878652543171e-01,-7.421989541065693308e-01
3.634114996290426234e+02,2.754956407708320512e+03,1.256260054026135549e+03,-1.046310771509979531e-01,6.755932355645442033e-01,7.298123853112197246e-01
2.788467223044638558e+03,2.057515759388363222e+03,2.955687191705299483e+03,4.812288945648688365e-01,7.295739114400649414e-03,-8.765646144048075961e-01
2.863675997757512164e+02,2.790800429111470748e+02,1.752136587846600378e+03,7.521191152641884536e-02,9.766984224902266476e-01,2.010058702367796546e-01
8.087156485498803704e+02,9.188459209660537681e+02,5.842120600004054722e+02,1.618826634953912224e-03,-7.632593434492885853e-01,-6.460902058054176500e-01
2.303429813584404656e+03,2.434590729738412847e+03,1.240944999218823170e+02,7.801291376519391314e-03,2.485278310852495620e-01,9.685933393477988984e-01
1.532053913820799835e+03,2.504884473086454364e+03,2.745332917044530859e+03,1.673961841149110841e-01,-9.858665412449640897e-01,6.758727502880867988e-03
2.137761062590979293e+02,1.910801304503484516e+03,2.058029225509313619e+03,-5.121053602758901535e-02,-9.074482145919923193e-01,-4.170314362653881890e-01
1.239195971727982396e+03,2.470854609571665151e+03,1.481370230471068680e+03,3.673110266702913074e-01,3.312848193451021217e-01,8.690989461263312066e-01
6.414029826096062834e+02,2.370679954137792720e+03,2.835859072634530094e+02,5.229618203469293958e-01,8.445927292527286578e-01,-1.147782912961030632e-01
1.530984216520659857e+03,1.474519375847600486e+03,1.928254581642845324e+03,4.906005943975947914e-01,-1.589750134571775442e-01,-8.567601775718902690e-01
1.572692407619989865e+02,5.821085805096442982e+02,2.639001186178104945e+03,-4.711658656540763657e-01,-8.613408514429802265e-01,-1.899859591599515340e-01
2.133782121026963523e+03,2.236572713732336069e+03,2.247306754122067559e+03,-5.837771210044334635e-01,-7.158688959064892776e-01,3.830613486967839876e-01
3.335876173938174816e-01,7.174362157412417673e+02,1.362746836317561701e+03,7.235955632781780889e-01,4.371155219322490626e-01,-5.341717713339347862e-01
3.600954332117906915e+02,2.949232369546141399e+03,2.664686064575449109e+03,1.274599701928506509e-02,-9.965019026535618663e-01,-8.259235780515905567e-02
2.393669018266642112e+01,5.706253471158386219e+02,2.449849991670157124e+03,-4.624132615372957833e-01,-3.463589974318090348e-01,8.162165279216493374e-01
2.403077322139271018e+03,2.466580925734861296e+02,1.835533949837340018e+01,8.285197227759779140e-03,-5.740071047303907381e-01,-8.188084020245098849e-01
1.386604565240049851e+03,2.521877540123728068e+03,9.340540706025793725e+02,-1.207101933844319797e-01,2.914581923749374193e-01,-9.489368637115047633e-01
9.583895363440780102e+02,2.498015623832745575e+02,1.409476718846606445e+03,7.815286116646780190e-01,2.753713250807761359e-02,6.232613701190805600e-01
2.382661353940135541e+03,2.204904341159213800e+03,1.854250801756181488e+02,-3.895436955655831590e-02,9.992386787192424347e-01,2.149428731955106437e-03
2.200111072657658951e+03,2.812607097350173717e+02,2.095088374114827729e+03,8.803657330765892741e-01,3.090447895636368094e-03,4.742853836629628561e-01
2.425724596109045251e+03,9.693452279248560899e+02,2.941895346315484403e+03,3.469535137379773371e-01,-8.953243607895382539e-01,2.793162155723796225e-01
5.621919182518050775e+02,3.394912922222197267e+02,1.106261462474173641e+03,2.686940883832698579e-01,-6.784437434044738868e-01,6.837525677488955900e-01
2.396536128280174580e+03,5.073979796586652355e+02,8.952206383621409032e+02,-1.521355764453477706e-02,-9.317678356365183268e-01,3.627357828186167366e-01
8.301397924537870949e+02,2.843209054706679240e+02,2.706532248390637506e+03,3.475193232035393015e-02,9.968652892003564414e-01,7.107670777048795407e-02
1.173677624033025950e+03,2.634216919449228044e+03,1.881134491503700247e+03,3.138786339976916695e-01,6.448556556997504796e-02,9.472707189356501800e-01
2.765418790416307274e+03,1.201079374429413519e+03,2.887951685730311965e+03,3.287435503634623668e-01,-8.140895906846463692e-01,4.787335547393046231e-01
2.358353801119143554e+03,1.660709044059525013e+03,1.291147531109278134e+03,1.810081569455183337e-01,-7.544493858830555455e-01,6.309058339085691358e-01
1.790528559284224229e+03,1.338940804293496740e+03,6.660880052642193050e+02,2.086663161433401359e-01,9.025595404434622049e-01,3.766226818204847504e-01
2.668129078155063780e+03,9.427914291179073416e+02,8.349378038193555085e+02,6.337534144467324992e-01,7.732228870685662336e-01,-2.197672838389764030e-02
2.918318271913009539e+03,1.330096124824694698e+03,4.625340032257091707e+02,2.949799680867058460e-01,9.300928673876539543e-01,-2.188928424187921440e-01
2.280709711209883608e+03,1.298990524487790026e+03,1.176941593464564221e+03,-1.370955450365063041e-02,3.292563388312385597e-01,-9.441410442591510188e-01
4.441333000817878656e+02,8.916906909424684500e+02,2.732501125993399455e+03,-1.490791009879640673e-02,3.435139545045864384e-01,-9.390292419712537031e-01
2.434119796438086723e+03,1.407726904867507301e+03,1.923764004875984256e+03,7.975762278357396706e-01,-3.060310312222960794e-01,-5.198241709658470988e-01
1.075008764988735265e+03,2.797542183081101484e+03,2.912140769261143305e+02,5.909934694104331671e-02,6.896520965253094548e-01,7.217251921260525727e-01
2.721172225074766629e+03,1.163688968660061164e+03,2.496140954450984736e+03,4.010577094824151201e-02,-4.639857722767146697e-01,-8.849343084440945972e-01
2.245618474706629513e+03,2.056894755476513637e+03,1.731117412645960712e+03,7.694254192610318066e-01,9.457917617044148129e-02,6.316955782890252280e-01
2.958981320612728723e+03,2.323576204873717415e+03,1.838265480228994306e+02,6.657400390797700851e-01,3.238347653688410932e-01,6.722508795863149089e-01
2.890892171443321786e+03,2.430683161386547454e+03,4.656086981084698095e+02,6.061812560742787515e-01,-7.649333929955762779e-01,2.177640674318999103e-01
9.246697559047879622e+02,1.037443763375791377e+03,4.808622753554195697e+02,-4.479257839142434389e-02,-5.114933206693111911e-01,-8.581189939814463097e-01
1.078749929467202264e+03,2.559059688862293569e+03,2.688941411701291145e+03,8.897494957266914861e-01,-3.550500159483810925e-01,2.868541807768409946e-01
3.819716485607603431e+02,5.609678605631980872e+02,1.511110197749679401e+03,-5.220408717485507388e-01,-3.196272654094349797e-01,-7.907665517906657948e-01
2.189617204412642877e+03,9.855390443131548750e+01,1.663954914004267494e+03,-1.825164896660411706e-01,4.728721489567245806e-01,8.620206852164483680e-01
1.608547341072014888e+03,2.804345661847600240e+03,2.463744843528013007e+03,5.957312312192155623e-01,7.330178488052743191e-01,-3.283125545618468810e-01
1.863818655138707072e+03,1.895242503161395234e+03,1.130639629596433906e+03,-5.630420249324352699e-01,5.985655863991432568e-01,-5.698270938965896981e-01
6.920656615712638882e+01,8.975716113536950616e+02,1.544740208266545778e+03,-8.574857451429737099e-01,-2.632513988344198919e-01,-4.420598351901248169e-01
1.685665760258146975e+02,8.767175210657505886e+02,8.785521408993986370e+02,5.013103081848773179e-01,-6.604101114387691540e-01,5.590585475753104827e-01
1.269977886119779669e+02,2.327181656394869151e+03,5.911957319114852680e+02,2.345510445174582570e-01,-2.615891622679972772e-01,9.362461843445326615e-01
1.998214593017288053e+03,2.336947022469355034e+03,2.703745325920723189e+03,-8.154413102328473828e-01,-4.531288192155056849e-01,3.601801532040582177e-01
2.375006579918300304e+03,1.250343867444037414e+03,1.548930205575901709e+03,7.723604949464842884e-01,4.653408965449258305e-01,4.323391213489551910e-01
7.813411988987887753e+02,9.295884340370818109e+02,8.641616194740176979e+02,3.833999161649132015e-01,-1.908748177101420862e-01,9.036433523513895949e-01
2.323246050047551762e+03,1.849195510973166847e+03,4.020277396109312917e+02,-8.282206630253328150e-01,-4.343990777252234592e-01,3.540451589972011814e-01
2.210401216201649277e+03,2.236256541038575506e+03,5.449344579576471688e+02,9.090014862899374881e-01,-3.458856332333847261e-01,-2.325498369068985660e-01
2.660292410525608830e+03,1.525430691499225304e+03,2.467259153096712453e+03,9.109559828224331191e-02,9.958003949431525337e-01,9.119506821176674716e-03
1.007703623028080528e+03,1.114501682458301502e+03,1.972019559988935271e+03,6.334838916507828932e-01,6.730863807638766128e-01,-3.816449698989425876e-01
1.115390810830132523e+03,6.169186592972672543e+02,9.317269763665057098e+02,1.109586797725730378e-01,5.465247908056712900e-01,-8.300595306470162082e-01
7.433887009192523010e+02,1.903114542600605319e+03,4.411966794316497271e+02,-5.199134567035570420e-01,-4.476552615962181569e-01,7.275264698303285371e-01
2.641692999408197124e+02,1.874169034059277919e+03,1.582627689633041655e+03,-5.484260589318972201e-01,-8.127835103425936625e-01,-1.964989139908877025e-01
2.380847079203216708e+03,1.806583188885585059e+03,4.764060193349590122e+02,-3.146382819035861700e-01,-2.780982965972794707e-01,-9.075594134768537602e-01
5.721706928548898077e+02,1.966427722631304505e+03,1.313214245003336146e+03,-2.862235200852100703e-01,-8.952249210236999932e-01,3.415383394703170872e-01
1.115214923877863839e+03,2.350802982603961937e+03,2.472198519309266430e+03,-5.359387168208007424e-01,-6.766859680713991354e-01,-5.048423441310635473e-01
2.511310784706383856e+03,2.801035251078818419e+03,2.867420730102164271e+03,9.509518921064491481e-01,-2.660417135045152759e-01,-1.578363252700265007e-01
1.416238398677685382e+03,1.547134611430657742e+03,1.171554353956727027e+03,-9.672070400164733961e-01,-1.154833596880677493e-01,-2.262170094792350650e-01
2.660672604166525161e+03,7.459091995267111770e+02,4.212435364575193262e+02,-9.584245626604230850e-01,2.763702203495821408e-01,-7.100604898950679811e-02
2.474910721745139199e+03,2.155601190781836067e+03,4.648506997599121178e+02,5.057714012790756053e-01,4.030764424521493527e-01,-7.627087721983532020e-01
1.245111196162295300e+03,1.114184096228563476e+03,1.991202814141692215e+03,3.727844992333577689e-01,9.012159848844956134e-01,-2.210010536626538791e-01
1.867236916730714256e+03,1.251048344126504119e+01,1.220632574151325343e+03,-6.176963819102311293e-01,5.201069220435556861e-01,-5.898643652717026065e-01
1.076688288727123108e+03,3.200916570932985792e+02,2.398808490130785685e+03,-5.847791656810366057e-01,-4.012985611374332573e-02,-8.101993100673938741e-01
1.302206870810849750e+03,6.875390016287211665e+02,2.454515225072936119e+03,4.460695042399328014e-01,8.724687016260125327e-01,-1.995503998246073440e-01
2.247203461420426265e+03,1.432046807544293642e+03,2.530274556174789723e+03,-5.479503244354139158e-01,-3.607218596919450904e-01,7.547384857627901233e-01
4.729168567381038883e+02,1.836325680149446953e+03,1.768225696267487592e+03,4.953175380865453836e-01,-5.978837013703086622e-01,-6.302345722821173224e-01
8.394454073078475176e+02,1.475293744318290010e+03,2.658849464026494843e+03,5.121509270989104134e-01,8.386947775186761600e-01,-1.851823372641812071e-01
1.380540182751830798e+03,4.018579674910035351e+02,7.351333026841945184e+02,-8.769101011822726388e-01,-4.361887287308052752e-01,-2.019110382636379875e-01
1.020909710498576374e+03,1.406499740705208296e+03,2.752637342014203568e+03,1.301655733880665300e-01,4.089228752591901883e-01,-9.032380669537309892e-01
4.311898081630274078e+02,2.026740250710433884e+03,1.154996138152077947e+03,8.941536476869255123e-01,-3.208097609548221096e-01,3.123625323310648128e-01
1.103622407246664579e+03,7.563513491412423946e+02,4.827217768156731950e+02,7.364288265912739551e-01,-6.763004046850981110e-01,1.703954190030266061e-02
2.146477104835295449e+03,2.106784647860189580e+03,3.816677183327922194e+02,-6.104780702302805562e-01,-3.218444346186917771e-01,-7.236937789375332830e-01
2.349854881670824398e+03,7.744302700740489627e+02,1.436120973916214098e+03,1.091812163396124885e-01,-9.918455770570521191e-01,6.574049947305062036e-02
1.423485896490631376e+03,1.540108289708081884e+03,1.056352055312576795e+03,8.529071457261842015e-01,3.496368700495750687e-02,5.208905272321940894e-01
1.482264811802655231e+03,1.204602731076660803e+03,2.576498425313613552e+03,3.581548545802633043e-01,-4.457470173453538242e-01,8.203869188793244671e-01
2.423717861658793481e+03,2.349560170791567089e+03,1.588187163522666879e+03,7.546459215075348448e-01,-6.555195806514449997e-01,2.834806050856819928e-02
5.808810559338307939e+02,1.969159778692074497e+03,8.133671071665668251e+02,9.693283354919154937e-02,-4.280962055382865894e-01,8.985197073987002403e-01
2.432995545047539963e+03,1.950514630815873943e+03,2.735291509938976105e+03,-7.651709938923577370e-03,-9.025103349978986778e-01,-4.306002166244127793e-01
6.306057819787606604e+02,2.852429472763961257e+03,1.845682571083604216e+03,5.874942461932382981e-02,9.586992428003281441e-01,-2.782881006456723316e-01
1.939316661690313595e+03,5.551914603582853260e+02,1.992702538486061712e+03,4.093072781816892158e-01,3.359147812599597716e-01,8.483093844574458586e-01
1.229929910775187409e+03,1.912016658654670209e+03,2.903030014080707133e+03,-2.681510782721757136e-01,8.187774275105424993e-02,-9.598911576129148804e-01
2.812977643146423361e+03,3.066812546859754320e+02,5.768315055242759399e+02,-2.225178743223861499e-01,-9.365933579948083620e-01,2.707003460785662452e-01
1.979890093039795147e+03,2.562464076381281757e+03,1.916372986278925282e+03,8.233501034614102432e-01,3.737396783932604993e-01,-4.270986536206680673e-01
6.146881545072172912e+02,1.571655996541656577e+03,2.556955504942077823e+03,-2.387498774128658796e-01,9.332165082051645522e-01,2.685245702886450148e-01
2.501936596317938438e+03,1.761454659603038181e+03,1.879749900095133171e+03,9.220514319309738305e-01,2.370837684767318210e-01,-3.059615067274186195e-01
1.451573310514463174e+03,2.744385499865386464e+02,3.865662518527249176e+02,-9.061127718149383781e-02,-9.790649481711996005e-01,1.822674510439666329e-01
6.622776822251521480e+02,1.853118340129079570e+03,5.143501720875631236e+02,-2.858621962476687317e-01,6.212483641115715827e-01,-7.296117288292148784e-01
1.963874243137190660e+03,1.827724339053290350e+03,2.787618283098214306e+03,9.511153455821521607e-01,2.060566784034424948e-01,2.300440059716479801e-01
1.052042999832565329e+02,1.189770111253548066e+03,8.081855679068399922e+02,-2.491554311453126336e-01,7.115302533827408960e-01,6.569979221062163255e-01
1.700233999433733061e+03,2.459948794509819834e+02,2.827115086540640277e+03,-2.439308555714701134e-05,6.777169779995476651e-01,7.353228523146401185e-01
8.720951142788785546e+02,2.884691564982623277e+03,1.148670235301676030e+03,5.115147208397400336e-01,5.635627392959979831e-01,6.486522406046508760e-01
1.107077885157370019e+03,1.106473824535584527e+03,2.239786704312567053e+03,-4.181862475507960863e-01,-2.645803568458665253e-02,-9.079758998492731825e-01
2.317816995491745274e+03,3.644210974979105231e+02,3.495971106766552339e+02,-6.071904255588548294e-01,1.814640804792775619e-01,-7.735570920142009754e-01
1.399509697972756840e+03,1.989896009516963886e+03,1.897943737811833216e+03,-8.235165653864627844e-01,5.138034908719474325e-01,2.404712858157587174e-01
1.162144377261577802e+03,1.518095660523142215e+03,2.231523059810897394e+03,5.079336557399775215e-02,4.909018340223910565e-02,9.975019738863681873e-01
1.141513222578442083e+03,1.978354537833317409e+03,2.276175971987304365e+03,-4.445532643403827255e-01,-8.954980546766917460e-01,2.134547339766945662e-02
2.763613604117271279e+03,1.931999263884890524e+03,2.938651761088665353e+02,-9.172326653596950541e-01,-3.409793896767833177e-01,2.059545906572566309e-01
1.307830281827612453e+03,2.362809132713705367e+03,1.297172954463181213e+03,-8.568929269874525634e-02,2.729825877408642576e-01,-9.581951011704714638e-01
4.031493829429184075e+02,4.134010433637308211e+02,8.792368725907734870e+02,-6.460436924693026967e-03,9.878452092324253864e-02,-9.950878761097974312e-01
1.058581938812933913e+03,2.866014620833270328e+03,1.360469005725751231e+03,-4.114441987293941672e-02,7.160739120134846925e-01,-6.968107987445539830e-01
2.530019873811555044e+03,2.507474612680985047e+03,8.266643918592903901e+02,2.755095359085240822e-02,-5.406192397551969897e-01,-8.408161407601233428e-01
2.965770793789586605e+03,9.941706461215061381e+02,2.548846339047383026e+03,8.269437310835457966e-01,-1.809757401620127604e-01,5.323643931504398186e-01
1.912669015842190674e+03,1.989596956679549976e+03,1.019708792041239349e+03,-6.446471604052991244e-01,-3.741768154241124078e-01,6.666496451513750365e-01
2.950523119209227389e+03,2.743097207826822341e+03,2.885424612248289577e+03,-4.524918546404624320e-01,3.447166993343279140e-01,-8.224484899883282019e-01
1.216044647295187133e+03,2.770240063091212050e+03,3.566679707430493522e+02,6.803060901530910698e-01,-4.242136892658923131e-01,5.976841720675188929e-01
2.458459553007563500e+03,2.186421269259608557e+00,1.648628923922087097e+03,9.778856036182436151e-01,1.451319751965485516e-01,1.505870379937519488e-01
0.000000000000000000e+00,2.775968727796462645e+03,2.326083105344343039e+03,-1.485539674814661398e-02,-8.390590402028526018e-01,-5.438375163974281667e-01
1.782630112370634151e+03,2.031651094799568682e+03,2.828028241889703622e+03,4.328856300962616865e-01,6.465754380303136983e-01,6.281323381199781508e-01
1.167889012344332059e+03,3.040371688275222937e+02,6.481072332012458901e+02,-4.961156414402746462e-01,-7.722107756523730604e-01,-3.969380156707911222e-01
8.524899383892434344e+02,4.518303157961446459e+02,2.141054332220381639e+03,6.236059523816178674e-01,-4.884371955135650145e-01,-6.103644175351794487e-01
2.226671539187127564e+03,1.427066742179665653e+03,8.522384013971866352e+02,1.944999942518849632e-03,-8.638089806363222767e-01,5.038157023627403142e-01
2.426408454637794875e+03,1.989299227972211099e+02,1.082787613097522581e+03,-6.885563954276696652e-01,1.595049295623398311e-01,7.074236833475167074e-01
2.377289563065226957e+03,1.878557348998147972e+03,1.803014289626163873e+03,-8.775044884203540008e-01,-3.529464568575366723e-01,-3.246762562828453547e-01
6.705656800123998664e+02,1.075233831370463577e+03,2.982313956940749904e+03,7.247116365309562713e-01,-3.141984406354556003e-01,6.132474082936438808e-01
1.139526495181474957e+03,4.042563034390118446e+02,1.494796987800446232e+03,-6.478528875969925827e-03,7.034066688655004063e-01,7.107581071357143010e-01
2.717601299910897069e+03,2.851760963399638513e+03,1.606837222893332182e+03,-3.148735423758413643e-01,7.935955080243156656e-01,5.206350179879544182e-01
1.027842258645677020e+03,6.086465839207741055e+02,2.719726749907830254e+03,9.356635630641646495e-01,1.727869016303943961e-01,3.076985267742445296e-01
1.394797198304301446e+03,4.447635459548870926e+02,1.154625444670738716e+03,6.046119933059099227e-02,9.964544305848064276e-01,-5.850650513759858562e-02
2.973272248312633565e+03,2.653773127739294523e+03,1.227227048620756705e+03,7.798695913858244566e-01,-6.217451401315654547e-01,-7.236298193473889029e-02
2.195065653541035317e+03,2.392531039148711443e+03,2.637840541467573530e+03,9.365636900597800185e-01,-3.366057512210900993e-01,9.769863206050534432e-02
2.403036183019139287e+02,2.898071839426423139e+03,4.386997380879658976e+02,-1.882548496556608053e-01,5.008787803071862443e-01,8.447961641834733637e-01
2.782876770732162186e+03,1.198970473199703747e+03,2.751148079107347712e+03,-1.088513841146556416e-01,-1.251288459736819569e-01,-9.861511791209389699e-01
2.365001431819548543e+03,2.894670521181242748e+03,1.515488187600608398e+03,1.741328597265112410e-01,-7.131858234191794654e-01,6.790020091556239201e-01
1.965214395974790307e+02,1.884100294773239739e+03,2.721013413295493592e+03,8.626268450360617956e-01,-2.926974300977379095e-01,4.125568332209637035e-01
1.621991853057037645e+02,2.098955423888539826e+03,2.303004135592699186e+03,9.338853279491805548e-01,3.359021791132993373e-01,-1.225884183281129580e-01
4.459181962179985703e+02,2.737674234244070249e+03,1.644377385589538562e+03,9.875691145859784026e-01,-1.534014924749397824e-01,3.428156971796459535e-02
4.361842917405867297e+02,8.899856364290549209e+02,1.944042641052255476e+03,9.475831507844183488e-01,2.624985675013478126e-01,-1.821556323839997049e-01
1.102800859243455534e+03,1.072457655514875796e+03,1.304673081571010698e+03,-4.050262507500116405e-01,3.674059629223370149e-01,8.372374780266940153e-01
1.985514038182457398e+03,2.623034025208614821e+03,9.508167213524818635e+02,6.058832011915560312e-02,-7.672206174859144134e-01,6.385151365235368637e-01
1.045733496337699989e+03,2.399855160585836984e+03,5.564869533157336718e+02,9.851494441375654443e-01,1.625060940208984950e-01,5.542871206799660638e-02
3.671531483095089357e+02,9.634679190412356320e+02,9.247602018832842532e+02,5.708844587371886270e-01,3.801922964900608659e-01,7.276982564648351026e-01
1.789668390599468694e+03,2.900367762881846829e+03,2.832071087042957060e+03,-1.856779328088640213e-01,9.482036169425880345e-01,2.577471747368353938e-01
8.268603626694450668e+02,2.704539908066590215e+03,8.315933922363211650e+02,6.313467995157853174e-01,-7.691914405571473878e-01,9.872054758152049025e-02
2.540748766803115359e+03,1.241624775856569386e+03,2.101337109723241383e+02,7.400866899584554459e-02,-6.204565272971906964e-01,7.807409395233311233e-01
2.356066583218390861e+03,8.704857085416252858e+02,7.971034151527740050e+02,5.018931146392118237e-01,-7.440293735014547050e-01,-4.410482885634905981e-01
1.374020808798184362e+03,9.758822825678437312e+02,1.896686245234182252e+03,4.740516159683534902e-01,-8.709027542614101725e-01,1.296281528746074940e-01
3.663314312988424604e+02,9.810851005555808797e+02,2.030799261991024196e+03,2.806861538231383846e-02,8.927295581500247490e-01,4.497177879912928056e-01
1.321546677036323445e+03,1.169318770909922875e+02,4.766132320116028609e+02,2.256428131619493127e-01,-6.274938020743425771e-01,-7.452092653923779730e-01
1.193519748070282503e+03,1.872779847893397573e+03,2.090352841828871078e+03,-4.416875834094443065e-01,-8.179052379341723578e-01,-3.687046248988070651e-01
1.814636682789614213e+02,2.767262974929838947e+03,5.205222696483427853e+02,-3.253818567975373666e-02,-7.146018198559678236e-02,-9.969125883763607643e-01
2.945425599558977865e+03,2.061361767967557171e+03,2.146212226502801514e+03,-2.441295263113172145e-02,-7.381015550632828992e-01,6.742478047105484595e-01
2.118131549819391239e+03,2.974027269896189978e+02,2.164484893994027516e+03,9.715792521491299905e-01,-2.085465188943347592e-01,-1.119915454415749689e-01
2.475678190176746284e+03,7.152079490681169318e+02,2.032731319845626558e+03,3.378689169916636037e-01,-8.797352722443132489e-01,-3.345301865304599609e-01
2.888304985959111036e+03,1.237653835381653607e+03,9.444663482291383616e+02,-8.047015240555780435e-01,-5.838255846738300558e-01,-1.077178901709943126e-01
2.104120277445350439e+03,2.935459546912988117e+03,2.980901092964150394e+03,5.590401200608171584e-01,-7.782479810391824682e-01,-2.860143775596317717e-01
2.983556865201439450e+03,6.333912007201361121e+02,4.587000776533581643e+02,-8.302320663302980019e-01,-5.270055838723303188e-01,1.816034983261827218e-01
1.861993345234883236e+03,1.932626381349688018e+03,6.022920492209088934e+02,-8.725215327528114129e-01,4.174153243284231540e-01,-2.539106573156824087e-01
5.578927447259792416e+02,2.809037124514361949e+03,8.100135509413235013e+02,-3.236962694185392675e-02,2.818083189312038939e-01,-9.589245427210704165e-01
5.168325214374167444e+02,2.752963530913454179e+03,2.744736846277192399e+03,-8.313114524070908118e-02,-9.880758318724159883e-01,-1.295969257374621764e-01
8.174311095107693745e+02,2.067755855726327809e+03,5.574478094503801913e+02,1.469717333492438494e-01,-5.308031044306893431e-01,8.346540444537853265e-01
1.794942237164074186e+03,1.137474114279487480e+02,1.507619857720284244e+03,-6.096686389843448683e-01,-7.658109246487497801e-01,-2.045428520569798625e-01
5.901936419224468864e+02,2.690294632477736741e+03,1.829160558734816277e+03,2.796599736405551151e-01,4.294669402661205893e-01,8.586899593926904384e-01
2.821768276634634276e+03,3.954610786181732465e+02,1.827978338239330014e+03,-5.154907401488402208e-01,-4.605625328013262521e-01,-7.226004775810961345e-01
1.657431119108301573e+03,9.601213779649327762e+02,3.435057757254303965e+02,2.250597463159553224e-01,-6.232824568207390170e-01,7.489106018796245490e-01
1.509230467285624627e+03,1.054093455886982383e+03,4.300086026893711164e+02,-2.435654148309526052e-04,9.972269882794080331e-01,-7.441958427101158513e-02
4.824261273722121359e+02,1.350081660910765549e+03,1.644601527589349871e+03,-2.460090211087893886e-01,-8.779327104814704796e-01,4.107477539801694388e-01
2.230673342705607411e+03,2.887579903569697308e+03,5.223617750274688660e+02,-2.058285498566111149e-01,-1.025049070981727123e-01,9.732046814954804503e-01
1.276154585417591306e+03,1.426549956894822344e+03,2.132128011550546034e+03,8.121283701548359657e-01,-2.482080138404570493e-02,5.829506310214473963e-01
2.552147967644425989e+03,6.995857604757202353e+02,2.997996095801205456e+02,9.601775072398844868e-01,2.725575858583644817e-01,6.141267769493574669e-02
2.898998490036064140e+03,8.695875399766038072e+02,2.085735502204596287e+03,-1.259176597015987942e-01,1.165108906413751116e-01,-9.851750886706513999e-01
2.156905204959037746e+03,2.082573307165974654e+02,2.834663459009381768e+03,4.305849609742262718e-01,-8.614133493773813433e-01,2.693763777640232893e-01
8.769940026931685679e+02,2.747871495491124733e+03,7.520931664127757585e+02,3.126900511096837865e-01,-9.399991615839419223e-01,1.364789659929681043e-01
4.451768408073962746e+02,1.661740308548052781e+03,2.005706823319831301e+03,3.657221764099160555e-01,-3.617284123628423664e-01,8.575545728240574483e-01
2.714988326442671223e+03,2.740998055857376130e+03,1.674252070626469049e+02,-2.404426106590364376e-01,9.597914006861735237e-01,-1.448717299832515404e-01
2.012335582173119519e+03,2.997155269210880306e+03,2.910785070335311957e+03,4.738605700803332765e-01,6.832099025667592862e-01,5.555901269441899659e-01
2.211538584295969031e+03,1.846980215381041262e+03,1.499295001709937878e+03,-4.346122903850783287e-02,-9.812070797874150596e-01,1.879994365563784631e-01
1.000492265003599982e+03,2.867285222064910613e+03,3.841742061865667210e+02,-6.344482623246648911e-01,-1.998943944124789429e-01,-7.466710343355241752e-01
2.053685239112753152e+03,2.056967985299754673e+03,4.484247253398651765e+02,-3.152149231526371782e-03,-4.133727241175372824e-01,9.105564534452922354e-01
9.486941143498165729e+02,8.671975882316061188e+02,1.202999953695596787e+03,-2.927079867595740459e-01,9.559041012851658969e-01,-2.386176090225577973e-02
3.533964196327796685e+02,7.431825015881635181e+02,2.036780527617630696e+03,6.530506926971207937e-01,7.322828180555313038e-01,1.930975586289494228e-01
2.651963503197483078e+03,2.553203486630794032e+03,2.003725227639167542e+03,9.196820286844289982e-02,-2.850459985448079436e-01,9.540915199155384219e-01
8.353966765480579397e+02,1.051575871857197399e+03,2.709127141040488823e+03,-6.418237622651087326e-01,3.130066904313424381e-01,7.000636184926902761e-01
1.060350650538485297e+03,9.428740912743504623e+02,3.875741906443669222e+02,-5.100971230982139781e-01,2.148451763683561777e-01,-8.328520127838892062e-01
5.739927240855857349e+01,2.434907934524926986e+03,5.758128525222230110e+02,-6.855399613175013895e-01,1.942291028934760022e-01,7.016480720603415211e-01
5.690338828312859505e+02,8.842899982060690718e+02,1.136611800394587590e+03,-3.668918161098770614e-02,-2.988956886160799575e-01,9.535802385113878454e-01
1.712731628952056326e+03,1.284515111646877358e+03,2.236473947686667088e+03,9.991502805241556096e-02,-9.949957587874312948e-01,6.535780816443459429e-04
2.273573536101241189e+03,3.081895062296413812e+02,2.150284776821200921e+03,-3.854523417896712351e-02,-7.212081275975836814e-01,6.916452136820411267e-01
7.077929598840424887e+02,2.659125733133192170e+03,1.172727393659973359e+03,-8.946644595825105073e-01,-3.492700566608646362e-01,2.785425143134363513e-01
5.313016568622501836e+02,2.437266956430449682e+03,5.749116976986553027e+02,3.102326671229352004e-02,-2.712527419009091445e-01,-9.620080597031070990e-01
2.501124157460375045e+03,1.231235005989109368e+03,3.773277949875363788e+02,9.627699163456032716e-01,1.283314737547804618e-01,2.379183074582666702e-01
2.468497873370633442e+03,3.429377221767161359e+02,1.365011335504889303e+03,-2.845427105213913996e-02,-9.671751012221061483e-01,-2.525127284611610179e-01
9.488439708159950214e+02,2.788813190402920100e+03,3.266040980493881420e+02,8.583337861568799410e-01,-3.861840311363052280e-01,-3.378239269751459606e-01
1.409916571135327104e+03,7.927885047929651137e+02,1.214826665408699228e+03,5.108359387890818587e-02,-6.863742426893388870e-01,-7.254521799602309251e-01
1.196473062501103641e+03,3.924376217056435507e+02,2.040072985107082786e+03,-8.769406493076155051e-01,-4.714602346691584844e-01,-9.327563839309660487e-02
1.564354789123900673e+03,1.668127990540309042e+02,2.865796816059620596e+03,9.874602801261723739e-01,-1.578339710936600970e-01,3.260788546793902832e-03
1.365848737411090951e+03,1.109111981775475897e+03,1.790006872746415411e+03,9.065264331450526569e-01,-2.940448751800941452e-01,-3.028983944982726051e-01
5.793180988896574490e+02,2.747759297826584771e+03,2.444498084532863231e+03,8.380159608125099802e-02,6.159726617962378858e-01,7.832974993027187471e-01
1.498590092056962476e+03,2.300582611165773415e+03,8.988104515232164431e+02,-7.966477040787977026e-01,5.913024126910437772e-01,-1.253550650421872970e-01
2.394964507044194761e+03,2.887648171490785899e+03,3.772654498068872613e+02,4.202558717249906817e-01,6.466992494254157897e-01,-6.365257913653397104e-01
2.955114419695355537e+03,1.297333769384427796e+03,1.240077301730315867e+03,-3.964987305403947504e-01,-2.524199346656921805e-01,8.826510824007542944e-01
2.033861985497067053e+03,2.513731673352795497e+03,2.659549853442922540e+03,2.609930021261218092e-01,-8.824005914544447160e-01,3.914739442696542615e-01
1.215497958283793650e+03,2.635539767058270172e+03,2.677784951759886098e+03,-5.746873960958459593e-01,-7.675650750786237042e-01,2.838630872236176939e-01
2.759492417304326864e+03,3.324134402648610944e+02,1.713002047485767207e+03,-3.255961427416021459e-01,1.776303982325908859e-01,-9.286735666828906943e-01
2.974090154868844365e+03,2.778898716924197288e+03,2.154510815883472333e+03,2.309999577746943422e-01,4.823281406275942151e-01,-8.449843692440808240e-01
7.655572690361702826e+02,2.099271988325933307e+03,1.050132934168377005e+03,-3.041743137889820758e-01,-5.917412646454164316e-01,7.465388553497032120e-01
2.661677431952185543e+03,1.641759004700851392e+03,2.959488148216950322e+03,2.756666641361210646e-01,-9.187854340783825347e-01,2.825618806729972565e-01
6.893525959754196037e+02,1.471766782570475982e+02,1.695808462336896355e+03,4.698656042465729765e-01,8.112529439373052931e-01,3.479870326593484386e-01
3.087515166572820817e+02,1.395223237686441053e+03,3.577187171987864645e+02,-2.302909260188315543e-01,-9.653405181185736872e-01,-1.228160147210164560e-01
1.211945244603479296e+03,1.842057453400151189e+03,2.137191737875411491e+03,4.167419501509304208e-02,-3.319600316146574248e-01,9.423724310909353807e-01
1.364836158795307938e+03,4.490772845146409509e+02,7.117458399358766883e+02,2.915881687883396106e-02,-4.053389255787758216e-01,9.137013291053430741e-01
9.492289592939586100e+02,2.780074108300449893e+02,2.433071737957833193e+03,7.890362554188871114e-01,-6.069067589250899397e-01,-9.532037350736488612e-02
1.291022426225356185e+03,2.626964297012635143e+03,2.809576823062415315e+03,-3.759436962914917274e-02,-8.826763262582247860e-01,-4.684753637444243890e-01
7.658438020779716453e+02,3.695262399690615212e+02,1.297229416026385024e+03,-3.345089698002383094e-01,-4.465510262051248791e-01,-8.298770572309690507e-01
1.680819858387906834e+03,1.672483131792896984e+03,2.034102689582104858e+03,-5.702025245472134296e-01,-2.094602317016348858e-01,-7.943522470135537805e-01
2.179421498889651048e+03,1.206113197603946674e+03,2.526495910216608081e+03,1.824045104641959236e-01,9.730907513120764518e-01,-1.407941201656366381e-01
1.604582933664037455e+03,3.922789503762946595e+01,2.076403452779525196e+03,-8.836729556791983464e-01,-3.562386639428406498e-01,-3.036710748711661800e-01
1.633891420248070290e+03,4.710186671360716559e+01,8.760043237187014711e+02,1.106035725115036422e-01,7.874656009633805853e-01,-6.063536732362346804e-01
6.197094015505961124e+02,2.256713113497636186e+03,6.102348591638532298e+02,-8.064615016297239647e-01,-5.336718778868858593e-01,2.545862783847854249e-01
1.080556108323292392e+03,2.273938176694253343e+03,7.215857367940325275e+02,7.346917592881972991e-01,-6.778270059347480947e-01,2.790284680008081608e-02
6.004324392056330453e+02,2.279159602267737228e+03,4.616102199764698071e+02,-8.604124952794237708e-04,-8.662844448279897192e-01,4.995503181256115144e-01
2.442431381405182037e+03,3.417633269155874132e+02,3.266015872516241529e+02,7.440648101567116646e-01,6.573639207008910024e-01,-1.193324517774154714e-01
1.076536459769012936e+03,1.986916685688739335e+03,2.594303498180026509e+03,-7.533390348271656878e-01,5.795607538765242817e-01,3.107887243317386528e-01
1.365727192510863688e+02,2.937583260888141012e+03,1.185094145519578888e+03,-6.391791583500741059e-01,7.368442203193014128e-01,2.202512168250881086e-01
4.196529818362576520e+02,4.285841526682995095e+02,9.478267747481424976e+02,6.127099028996163543e-01,-2.766133232734255265e-01,-7.403186099757144145e-01
6.256790027696855532e+02,2.024791136756811738e+03,9.939892362849035408e+02,9.189177317831279668e-01,-9.109647683222574233e-02,-3.837859222578481888e-01
2.418555249583570003e+03,1.202259973672586057e+03,2.980504026633701869e+03,-3.870245590982589468e-01,7.223268501863537583e-02,-9.192357857861044312e-01
2.020471065799564030e+03,8.816436283835420227e+02,5.155181268858441399e+02,8.410236292744978082e-01,3.437886683302097124e-01,4.177183339640400117e-01
6.189497768523610688e+01,3.738254678801762338e+02,1.974570109974392835e+03,7.204849985162565806e-01,6.158939991956282611e-01,3.187098189071766452e-01
6.051439177324029970e+02,2.732582123734434390e+03,2.403778977780985770e+03,-3.209034353667575834e-01,5.854544086086275190e-01,7.444891675575512346e-01
2.631015495341890983e+03,1.494562584339642399e+03,2.929901697767152200e+03,1.131050767908809845e-01,9.540016034407067247e-01,2.776475864053018494e-01
8.617305502864719529e+02,2.632296489024001858e+03,3.788440965740848014e+02,4.824443882348181112e-01,6.017951121161677630e-01,-6.364668532561779113e-01
1.408862837066048314e+03,2.064364446864321962e+03,6.496460914744232014e+02,5.032415812653460996e-02,-9.633126309716073532e-01,-2.636214219660750757e-01
5.694689554858695146e+02,1.946507886771908261e+03,1.690932241123457288e+03,9.058313854768024198e-01,3.586274349766562786e-01,2.255124474773859689e-01
1.425792189856378627e+03,1.432498012687195796e+03,1.658066846806561671e+03,5.983550595869884248e-01,6.769963679221970843e-01,-4.285407104194474126e-01
2.375365338037594938e+03,1.779954226505487441e+03,1.205192439581739791e+03,-7.848635015140741356e-01,8.401017614225846086e-02,-6.139475338297351037e-01
1.485169224501007875e+03,3.816364920292753027e+01,2.749050255695470241e+03,9.053394963125852013e-02,-7.555586442811091930e-01,6.487948358427777507e-01
1.592685123504864350e+03,2.472925927484792282e+03,2.726529299951515895e+03,-6.093967819521769330e-02,-9.850017300403903775e-01,1.614247423380358315e-01
2.789154953351624044e+03,2.298029899166000178e+03,2.520144698266817159e+03,5.160927181382783747e-06,6.670758710247044476e-01,-7.449897866883791187e-01
2.831629895459604086e+03,2.594236123011719428e+03,1.666528560937278144e+03,5.922489525695736473e-02,-9.505929143437272799e-01,-3.047384501196095941e-01
1.476109113990866717e+03,7.804270041421636961e+02,3.012221209473230488e+02,-3.354978476550288802e-01,-8.164935106658065544e-01,-4.698718349289192631e-01
2.256082856720348445e+03,2.562057767085533669e+03,8.583148637279205104e+02,-8.286578814456849740e-01,-3.427796843002547389e-01,4.425248055747461606e-01
8.820900440326709031e+02,1.354634807703089791e+03,2.454486239636687515e+03,-5.358387957203436525e-01,3.554413463582827837e-01,-7.658578420960271416e-01
1.489772448147481327e+03,1.926053067902303155e+03,9.921972721455442752e+02,-6.057251487337121931e-01,-6.176729912143994472e-01,5.015746406226879728e-01
1.312992560931457547e+03,1.099617215570673579e+03,8.232374999467671159e+02,-8.495915908989010168e-01,2.495995516996731001e-01,4.646441568180930126e-01
2.500166109309008789e+03,2.903297260251033549e+03,1.914037093960288530e+03,-3.965183175731482046e-01,-4.774373790991899291e-01,-7.841089037039794540e-01
1.968278120189097535e+03,1.573910400016002541e+03,1.165227159491268907e+02,-6.647274928472171052e-01,5.858856425172876969e-01,4.635465177791309732e-01
2.734279156193941162e+03,1.812300924978564808e+03,6.669897010872060719e+02,4.382403154076200957e-01,-8.804633689376241135e-01,-1.809134652546318112e-01
2.540051208291733019e+03,3.823902902988317578e+02,8.786073812760642454e+01,-8.031025502131150517e-01,3.469389511405432391e-01,4.844168226049656578e-01
1.725980017048117134e+03,2.183350664376269378e+03,7.119035508684374918e+02,8.002416787796958753e-01,-2.619547474829605482e-01,-5.394376384856662821e-01
2.279268227400066280e+03,2.653851729962519130e+03,2.443965497079107081e+03,-8.142864837932433097e-01,8.596920677598904326e-02,-5.740616846628446845e-01
2.520060863219319344e+03,9.450597707098380624e+02,1.158558921088637362e+03,-7.424428581902832169e-01,6.500513971650554446e-01,1.619005354098694838e-01
4.925658206636303476e+02,1.809450296743468698e+03,2.040457317528597514e+03,1.789370794636303830e-01,3.271929891621715158e-02,-9.833163118099169653e-01
1.034028078654271440e+03,5.727148560187545172e+02,2.323301292066551014e+03,-5.444916097905714951e-03,-2.843706691948333920e-01,9.586989493007538332e-01
2.964749377168693172e+03,1.148602380585094124e+03,9.232064962796554255e+02,4.895488972115723536e-01,7.490358626164136391e-01,-4.464158977382173821e-01
6.129167522312226311e+02,1.636495215422982028e+03,2.575697338422013217e+03,1.332862213170817045e-01,8.763583619870464192e-01,-4.628507368281862266e-01
2.189511997984783648e+03,1.331299367712195817e+03,1.216501490172656759e+03,1.309223655232638339e-01,-9.655804122719856553e-01,-2.247527566960084155e-01
1.877168698746874895e+02,2.629319148241217590e+03,2.649692523465597560e+02,9.589492116618493212e-01,1.377515805266598947e-01,-2.478727728402716768e-01
1.203735368842326807e+03,3.468386241523252238e+02,2.473526615007530381e+03,-1.853115351433116675e-01,4.937489647345526533e-01,8.496302694504160868e-01
2.856496158832607307e+03,1.083435076706500922e+03,1.169299679471182344e+03,8.162061520645288448e-01,-1.473175800198706364e-01,-5.586636268355981150e-01
1.422354379563237217e+03,1.492665081088157990e+02,9.990368426334438823e+01,-7.129731119386058247e-02,9.420178323878583004e-01,3.279010473905303868e-01
9.879933595310270675e+02,2.733768703127001118e+03,5.613605663985346155e+02,-7.796029722873544510e-02,3.268448313077690348e-01,-9.418570211573533690e-01
2.031959642877421174e+03,2.420798624568722914e+02,1.858677591072513906e+03,-2.656273337298510895e-01,8.537471717822414652e-01,4.478368969272120137e-01
