x,y,z,nx,ny,nz
2.937577583201053585e+03,2.739020850354862887e+03,2.759716202600633551e+03,-5.700198796044205762e-01,-4.383213435129077462e-01,-6.949472905744733531e-01
1.515693978619256541e+03,2.168333919508905637e+03,2.141258633152791845e+03,3.347860389499962563e-01,7.136252954390117642e-01,6.153513190314576775e-01
2.923142571776803379e+03,1.140260861764130368e+03,1.132811307993037190e+03,-5.821373359927082269e-01,8.095132429846008115e-01,-7.618681956787211329e-02
2.971531717499708520e+03,1.139674181787922407e+03,4.868497853701924214e+02,-9.556717586110389240e-01,2.354559126240665656e-01,-1.767823605557186095e-01
3.481244483248628967e+02,1.609241283033674563e+03,1.438674559711008669e+03,9.373034727074178729e-01,3.481947359120330376e-01,1.492065460240654673e-02
2.207629423613533163e+03,2.068057841794821343e+03,1.869088301692778032e+03,2.133632078433402857e-01,7.701079014198406458e-01,6.011738198803475708e-01
1.506671777405583725e+02,2.334162982119636354e+00,9.170244044286384906e+02,-2.519490315841100281e-01,9.665496793651194851e-01,4.799377879490097226e-02
2.341720947286126375e+03,1.923663493211859532e+03,2.804701123221788293e+03,-3.882795387283409227e-01,4.395539317322479378e-01,8.099576167328936815e-01
2.176520888812632165e+03,3.337167838375556812e+02,1.570867675573357246e+03,-1.332382931951513749e-01,3.472097171862189441e-02,-9.904756490441133376e-01
4.885816219366836322e+02,7.706860135182142812e+02,8.090881232210741700e+02,-4.640603455180514203e-01,-5.558342722986716611e-01,6.897073708870110620e-01
2.413273046298289955e+03,1.803307417808068067e+03,2.753601181972818267e+03,-5.052511063782602445e-03,-9.448054191195810469e-01,-3.275930282137018423e-01
6.431482314280675610e+02,2.786120415177287668e+03,2.187211339209453854e+03,3.867144561922923884e-01,-9.004818718423932555e-01,1.989581057788776253e-01
1.235262727261654845e+03,2.906036393343257259e+03,2.385488947809796173e+03,-5.959625858984385349e-01,5.111039166528322797e-01,-6.193556188421809328e-01
2.678451247166452049e+03,5.176796999668068793e+02,4.425748614028839256e+02,6.992238371849346379e-01,6.538414409192234711e-01,-2.890975538620999541e-01
7.159389682962149664e+02,8.678645569856943212e+02,2.537135293247320533e+03,1.127128739096977250e-01,9.895387961097058538e-01,-9.004875928501544780e-02
2.733889175308470385e+03,6.384597354957488591e+01,2.899788310682683004e+03,7.520267109356687518e-01,2.561508181653978158e-02,-6.586347194179882347e-01
2.637299993619846646e+03,1.434129002929992794e+03,2.642332932267434444e+03,-4.291468909952872446e-01,-8.342468143061934072e-01,-3.462155380237097457e-01
4.723281433564045528e+02,5.825727822824585473e+02,1.259685225357840409e+03,-9.319867893664460223e-02,8.168149900161930654e-01,5.693217704684325753e-01
9.135113396176221841e+02,2.943832297696377282e+03,1.847269247260320299e+03,-4.599638534719248384e-02,-1.717792681584409675e-01,-9.840610832493799087e-01
1.479529155344860669e+02,2.662651872641476075e+03,9.849595533310873634e+02,-4.640238262459244617e-02,-4.654502894283263914e-01,-8.838568022920049172e-01
8.571339203175632520e+02,2.897816338155045287e+03,2.417509274743957121e+03,3.533000047883086414e-01,-3.641213363267900016e-01,-8.617393800031269979e-01
1.198153611697624683e+03,1.308304924927197135e+03,4.308102994615268244e+02,8.112494324577111671e-02,-4.919570649405134999e-01,-8.668315810112630082e-01
1.720361432709078827e+03,4.117574146941409481e+02,1.309946423977773975e+03,1.539049980577372467e-01,7.125738810695483316e-01,6.845083751060530020e-01
1.754247814437811712e+03,2.864055877963127728e+02,2.034322695511592201e+03,-8.186372101012692193e-01,-1.213442668079399572e-01,5.613454258747050396e-01
1.411946221181814053e+03,4.428865037053453193e+02,2.202414544062635741e+03,1.555507061405817515e-01,6.709001659774950221e-01,7.250496156198802389e-01
2.294633467218234273e+03,2.763381364002433656e+03,1.284640565751835766e+03,-4.098508590139754611e-03,9.493205746553806668e-01,-3.142827528887235933e-01
1.197891811945204381e+03,1.537599644318133642e+03,7.587575340527383787e+02,6.109775917078387186e-01,-7.133459963613888455e-01,3.432839522990656644e-01
1.191152547242900937e+03,2.403445232988207465e+02,2.416722379579871813e+03,4.739304045653672248e-02,2.183577943206573002e-01,9.747172786894170438e-01
2.934859687098860377e+03,2.074362379131786724e+02,1.081933055778095877e+03,-1.819500228520386231e-01,9.726419120436123888e-01,-1.444364916504432828e-01
3.336655668076761003e+02,2.922729462909067479e+03,5.034108047637342054e+01,7.244949677542381616e-01,-6.844421728007424877e-01,8.152271947490553894e-02
1.130678549632060594e+03,2.988833707960608990e+03,2.715554273878179288e+02,-3.257189601921652855e-01,-7.828191019129883133e-01,-5.301899778866789870e-01
2.457527730202668863e+03,2.645301743193029324e+03,2.910587582444773943e+03,4.982167191398932660e-02,-9.824074995398557331e-01,-1.799814041937201070e-01
2.936687768681934358e+03,5.357902885858796935e+02,1.647624825609881327e+03,6.656226131724995998e-01,-6.586870285045144380e-01,3.508246503786556225e-01
1.609672932802954392e+03,9.027383388950130438e+02,4.004615586785609480e+02,-5.467156542652908957e-01,-3.283340456027695753e-01,7.702588836744393985e-01
3.459639309066507735e+02,7.586343464178302156e+02,1.302603004915713427e+02,-9.815483695499470640e-01,1.724640035672863475e-02,1.904346604706617374e-01
2.625373264394036596e+03,2.296293235226331490e+03,3.782627124980132294e+02,-9.663425771252390772e-01,-1.121537108451789999e-01,2.315244453154081672e-01
2.765980565889589343e+03,5.916021337366452144e+02,1.364772557873921642e+03,5.061136558373207084e-01,-6.246581495451394295e-01,5.946857687735802589e-01
1.478470760134256807e+03,1.936191340607188351e+02,1.933047616453395904e+03,3.885049126332488223e-01,9.079644794208678871e-01,1.570491546294476848e-01
2.098768669470998248e+03,1.768348885367183129e+03,9.524228306673393263e+02,5.872053722045221802e-01,-2.401518957660258025e-01,7.729921848338007218e-01
1.342419856391952138e+01,1.244815694900582002e+03,5.221032399187897255e+01,8.526984159948035324e-02,8.767599623621544769e-01,4.733085912090684855e-01
2.181658169059614920e+03,1.347564493424634293e+03,2.706159362018490356e+03,9.789675080483658531e-01,-4.541269105211172274e-02,-1.988977266762451124e-01
1.339738349137184059e+03,1.595627964496177810e+03,7.133165796720099934e+02,9.713137786091856629e-01,2.040278345013397110e-01,-1.221564007027049481e-01
2.229853846291267473e+03,1.329121913100330858e+03,1.041951115313130231e+03,-1.872621796575457964e-01,-8.908650328519348571e-01,-4.138748232396192162e-01
2.047541905452504125e+03,2.702112677281596916e+03,6.728964574101303242e+02,-4.188823037768676797e-04,-9.761213552865278809e-01,-2.172255148255097523e-01
2.862178022188286377e+03,8.517866579145020296e+02,2.532113520533144310e+03,1.825109917655547698e-01,9.818055017135153273e-01,-5.241845753001483921e-02
1.790900930693160035e+03,7.824792951593331054e+02,1.276875253387072007e+03,-7.023540519140304417e-01,7.115165820766525817e-01,-2.104612054279142441e-02
1.632942184857466472e+01,2.101225127724223057e+03,9.251469790850208028e+02,-7.656772057070108106e-01,9.581351248787483774e-03,-6.431536475593925273e-01
9.775459798622262042e+02,2.736172013221862017e+03,1.625990953049354175e+03,-9.321851556980668141e-01,3.599859828764050973e-01,3.795955253529315759e-02
1.941248746630213645e+03,1.281513643397820260e+03,2.052993610448745130e+03,3.691316475646734263e-01,5.601801150624553804e-02,9.276873445041038391e-01
1.631167093134444031e+03,1.957355607756890549e+03,2.422417630257305973e+03,-5.341904120705951442e-01,8.309027394099758324e-01,1.556959899703451999e-01
2.035752405979523246e+03,1.421223725921997811e+03,1.009754218768921191e+03,-2.578250690149148650e-01,-2.424971881489394743e-01,-9.352653888214361722e-01
2.723302939521992357e+03,2.196621850374624501e+03,5.390616233914051918e+02,3.179706030206504441e-01,-9.376614297534970888e-01,1.403058757405107049e-01
2.070513017080301324e+03,1.753960032710628184e+03,1.761228502026790238e+03,3.364856275566218136e-01,-5.903093902049905833e-02,-9.398365659444116726e-01
2.964878174899552050e+03,5.750756345418321871e+02,1.482467414142082134e+03,6.288548666221984405e-03,-1.526825756896372233e-01,-9.882552733157818903e-01
1.751916274996982565e+03,7.512556000741441267e+02,6.295522357757121057e+01,1.029384493034631899e-02,6.452513602459579722e-01,7.639009876006778166e-01
9.497003357807958537e+02,7.933787303847328758e+02,1.779374427755343049e+03,-1.507877588096195876e-01,-8.004058483904494814e-01,-5.801840480877916706e-01
2.206098509418377205e+02,4.400932998881164053e+02,8.274956225226517290e+02,-5.555578627340191505e-02,-9.932179564606359312e-01,1.021354276228499391e-01
1.500300448399933941e+02,2.259552668063103738e+03,1.828378713121994906e+03,9.898916021178503222e-01,-5.496091305491996454e-02,-1.307436961873314207e-01
6.864631506530075740e+02,1.430321362717661486e+03,1.312894408308780839e+03,3.764512467185360950e-03,3.919432562424745026e-01,-9.199816913025662402e-01
1.332268879732396954e+03,3.098297738716286744e+02,2.402755491164661180e+03,-9.042602909698824742e-01,3.677338879808506600e-01,-2.169910454501537966e-01
1.807608420555346356e+03,6.894158610380662822e+02,1.861285020355034703e+03,3.887593094936698246e-01,8.304939265938762194e-01,-3.989311183308346109e-01
7.454994609385565809e+02,1.285397245341204098e+03,1.822517514437149657e+03,-9.384826415034592390e-03,-2.835535313389416223e-01,9.589104858631881667e-01
2.699007743800501430e+03,6.535367371773024843e+02,9.809302853628061030e+02,-9.565929985292989102e-01,-6.303851601172072439e-02,2.845276448146381587e-01
1.780019743819156474e+03,2.048884814241762797e+03,1.458369851557362608e+03,5.607021743693270110e-01,-8.256842833571442775e-01,-6.211711418367604765e-02
9.609569725014192727e+02,5.204297476664776241e+02,2.283859999716182756e+03,-8.371251405872629503e-01,-2.554149640744616256e-01,4.837196451702131528e-01
5.441104247329542432e+01,2.573697084861493295e+03,2.512009842584716807e+03,-6.741058194752893584e-01,7.385764487922192867e-01,9.282964990944499520e-03
2.152726092295132730e+03,2.539852494823049710e+03,6.084380097811148289e+02,6.733021475269382883e-01,-7.170956616580419496e-01,1.801056083713890033e-01
5.014088927746716990e+02,1.913989943396716626e+03,1.319311940196102341e+03,-3.495859161100979828e-01,5.382649152997110997e-01,-7.668510730349527016e-01
1.360284216512725607e+03,3.933409482190098743e+02,6.338780172566308693e+02,-2.190886745905483157e-01,-4.020846102106495623e-01,8.890040038705713243e-01
5.246676031897040957e+02,9.211505384204923530e+02,6.120421523834562549e+02,-5.962096756831994915e-01,-7.793277656441945922e-01,-1.928270113800485408e-01
1.360705471211093482e+03,4.616726027638922005e+02,2.210935952950440878e+03,2.870830854850607849e-01,6.505779776327894615e-01,7.030871902172639576e-01
3.056628263166309125e+02,2.336660761827370152e+03,1.011104882133733781e+03,6.998207608461810558e-01,3.074600366746358393e-01,-6.447629242882253475e-01
8.030435065219595572e+02,3.828544343247631900e+02,9.488200991876809667e+02,1.176810520001334709e-01,9.131384044616036588e-01,3.902940228820557800e-01
1.818484169882725610e+03,2.453566919791633154e+03,5.292377968875987335e+02,-9.809592885366574810e-01,-1.403912236816977910e-01,1.341982807148074386e-01
2.668926642153280682e+03,1.516500006887251857e+03,2.116560626022594988e+03,-4.967279890806315934e-01,2.931197636977445065e-01,8.169100984769930296e-01
1.983062259208258183e+03,2.132992643132428839e+03,1.769308412162254854e+03,-4.555925325012548655e-01,-3.368944113582029165e-01,-8.239766986539747151e-01
6.174607843339528017e+02,1.180205956959302739e+03,2.267509351646413961e+03,6.381366434433650703e-01,6.301239378666810831e-01,4.424086880049065695e-01
2.278209074609956588e+03,8.803989362222160935e+02,8.436333184233403699e+02,6.596063642377651970e-01,7.395386869319776624e-01,-1.341714380483536584e-01
7.634679470709309044e+02,1.158537419056258841e+03,5.137218570723540552e+02,9.032381343004796115e-01,1.989634712015445062e-02,-4.286782104523894077e-01
2.976599985242691218e+03,1.076769582512695706e+03,2.269861756115173534e+02,-8.094782903878511293e-01,-5.345398075234701896e-01,-2.429240448443366063e-01
1.972558261830168931e+03,1.134347337869819739e+03,1.728613358974116636e+03,7.377870179984741261e-01,-2.893268357238006350e-01,-6.098854795803652085e-01
1.561125435179371607e+03,4.064650143610996338e+02,3.526539562060192452e+02,8.914846033164524064e-01,4.470995635359120146e-01,-7.319277516056144073e-02
7.976672384022564302e+02,1.596782970072816624e+03,2.614911980868026149e+03,4.240340882289210245e-01,7.685646374054599939e-01,-4.790652253604739674e-01
9.412952864022461199e+02,7.865401841899055171e+02,1.504674592291913768e+03,6.512754215904080143e-03,9.568589135963789793e-01,2.904799537036601986e-01
5.190426576042381157e+02,1.146988301815711566e+03,1.231712023389049591e+03,5.198233401451263225e-01,-8.521262367255211245e-01,-6.053570619366310801e-02
3.833355149755508364e+02,2.375807506273843501e+03,1.573621605842357667e+03,8.664857455622781979e-02,8.413387634894631262e-01,-5.335176750374773791e-01
7.180221096297185568e+02,5.868271779445504990e+02,1.781212177810951971e+03,8.405706567122674111e-02,7.641607563787881086e-01,6.395254085033226232e-01
1.276003828537124946e+03,1.885676084199510797e+03,2.206854307219654856e+03,-4.810228393300063909e-01,-4.209620575798768694e-01,-7.690305417348619610e-01
2.929970215572538564e+03,1.688680866919019536e+03,6.879199396123344741e+02,6.523765761894149140e-01,-5.091813516156156183e-01,5.613725625698777755e-01
2.928832930473095075e+03,5.316970008697481944e+02,1.466757582815530668e+03,8.823945775794918246e-04,-9.999214161517814281e-01,1.250531490308300249e-02
2.716997244389383468e+03,1.000398267972868325e+03,1.551032667210805371e+01,4.881091060444680552e-01,6.597631053176191696e-01,5.713686598494203128e-01
1.510222028263857283e+03,4.413938803436993226e+02,2.165622156711032403e+03,1.288376386070082258e-01,9.782373358512771455e-01,1.626424840709390918e-01
1.760608351205735289e+02,1.967459823763035047e+03,1.456803751018916728e+03,7.014361951513112814e-01,-4.139292239880009716e-01,-5.802153580010985801e-01
1.674782002821707010e+03,1.330668706992275020e+03,2.221365989406903282e+03,9.586755247690852133e-02,-9.851793949920514271e-01,1.422356216465585077e-01
1.938397228975581356e+03,1.951693860415517065e+03,1.200009631311465682e+03,9.570174465161247479e-01,-2.344173628371503670e-01,1.707808744099645892e-01
2.718075992813704943e+03,1.123226557176352117e+03,4.167923043486375718e+02,-4.757264845579271817e-02,4.134606159401115755e-01,9.092783744185963801e-01
2.165317485220456092e+03,1.103194980458239570e+03,2.559439296965698816e+02,5.871251636671750429e-01,8.094839063679664104e-01,-4.455055560888876443e-03
1.347216161939606536e+03,1.644693479612434430e+03,2.456623738493680662e+02,-9.213591102595760640e-01,1.170257694787668751e-01,3.706782421718124443e-01
5.080476918268184150e+00,1.886930412933223124e+03,6.394292588026798967e+02,-6.829217413254714542e-01,-3.994924219114330821e-01,-6.115747706211592805e-01
4.653350281076221790e+02,2.053569334293358679e+03,8.036035527282587054e+02,-1.876055663446598576e-01,2.990351032109219154e-01,9.356185967177719220e-01
2.586016705291980543e+03,9.405358522662954783e+02,2.095326352986477104e+03,9.166222020805224746e-01,2.070594100583773578e-01,3.419504925560581388e-01
2.262685989813760898e+03,2.148808817112612360e+03,6.434555699385792877e+02,-6.538626397001501278e-02,-9.295317522732257087e-01,3.628985505618753660e-01
8.539380961786548596e+02,4.500766779053029154e+02,9.483044567463488193e+02,4.984161253956881366e-02,9.957854970592066035e-01,-7.698738536932081544e-02
2.571986095377346373e+03,1.709038321828602136e+02,2.539645727788150111e+02,-2.145879320210531960e-01,-4.439397148406897253e-01,8.699824992596660866e-01
1.340636131060627804e+03,6.001520063053202421e+02,4.551951510463870818e+02,6.536966704374359838e-02,-3.302408031560593038e-01,9.416304044376598847e-01
1.955931559653378372e+03,1.806376198188265562e+03,1.494147148337479166e+03,-6.825955574718066687e-01,6.800318752456377958e-01,2.676190456033631926e-01
3.847985055680397295e+02,2.007370515374170509e+03,2.694684052334511307e+03,2.144775340776065575e-01,-8.489748449868502744e-01,-4.829504114870828424e-01
2.769399426881258478e+03,1.965575119341647678e+03,2.947462638088917629e+03,-9.912393142435268478e-01,-1.243592331154964592e-01,-4.449048254344201148e-02
2.595952548009836846e+03,5.772485919239915120e+02,1.717067895501535986e+03,-8.470475804724236779e-01,5.279291946317477002e-01,6.165356333000768241e-02
6.690231114086843718e+02,2.777519935973278734e+03,2.237048197021229498e+03,3.834855088174028426e-01,-6.284548997981199703e-01,-6.767446368068184004e-01
1.772998926966190538e+02,2.302060935031395729e+03,4.307419089652436810e+02,-4.522174708296702872e-02,-2.805854110209413110e-01,9.587631723804235229e-01
1.562732429592274684e+03,1.243876508432315859e+03,4.585924165456303285e+02,7.515299559632711013e-01,3.850272475058134081e-01,5.356834363389828546e-01
2.865206886420534829e+03,2.687478349447271285e+03,2.737512695363292096e+03,4.799339518596779097e-01,-8.651250900451341597e-01,-1.456776593261679409e-01
2.111672492094568952e+03,1.126869835790839716e+03,2.266476213648531655e+02,2.696680058178847761e-02,-3.269720623617604072e-01,-9.446491740859561670e-01
4.683702216967707841e+02,1.744411723875816278e+03,1.702464233479888435e+03,9.274053903010192057e-01,3.739941850395543388e-01,-6.898666335883208746e-03
2.410649231623276137e+03,1.959196352361768277e+03,1.182929957611188001e+03,1.257766624822057866e-01,-2.419339540440411385e-01,9.621061235931580580e-01
1.316692332182696191e+03,5.422974547067597086e+02,6.962399966274000462e+02,-5.059005693557223626e-01,4.070351021650687184e-01,-7.605176128999434626e-01
1.172945346249540080e+03,2.318864077052613993e+03,1.784701105635590693e+03,-9.158379805785549221e-01,2.688316887225636886e-01,2.982789239426231198e-01
1.056073785122429854e+03,9.473378993509664951e+02,2.466477797514126451e+03,-6.825843503095710973e-01,-6.181182485493287304e-01,-3.898825919719564048e-01
2.698390097252145097e+03,2.333445854796615095e+03,1.509126671479250490e+03,3.852902074118149667e-01,-8.338419232219834720e-01,-3.952962220285243244e-01
1.111659918820653729e+03,3.169659868058984671e+02,1.714796719108629077e+03,3.583499193815924411e-01,-2.382284260392566744e-01,-9.026807587990699489e-01
1.000153531520860497e+03,1.945415488411685828e+03,1.291199376721667477e+03,2.361821167495266049e-01,7.863664915246953990e-01,-5.708290013084953429e-01
2.393188602539535623e+03,4.616043778128866393e+02,1.657449857688239490e+03,3.950536761736873070e-01,6.999209704667583853e-01,5.950153174856311900e-01
1.554620389469159591e+03,1.427186997618750638e+03,1.535421614055218015e+03,4.185954847631484510e-01,-9.000381013993329071e-02,-9.037019056614851165e-01
2.078509568557052262e+03,2.767509527551236715e+03,7.693544268227321936e+02,1.337269265649121408e-01,9.875288133487573061e-01,-8.309002297206345700e-02
9.193466559400011420e+02,1.985878948361037146e+03,2.946320279137101352e+03,5.364229519145612655e-03,7.628520848444439451e-02,9.970716082649986323e-01
1.676590319748176398e+03,2.451709301963124290e+03,6.655141394349345774e+02,4.076736427628215031e-02,-9.957741129262722701e-01,8.229178595619734971e-02
1.295112503934278266e+03,2.699520551986811370e+02,2.581297694205169591e+03,-2.227151849635049252e-01,4.551524441270767274e-01,-8.621103171820994060e-01
2.913080670082276356e+03,5.551114777578020210e+01,3.000000000000000000e+03,2.951207411751293613e-02,-9.427839755728064652e-01,-3.320954876002026324e-01
2.136755798384753234e+03,1.360972904485736080e+03,1.012768734202757514e+03,-9.521456821435685391e-01,-4.203749858688744095e-02,3.027399027018342625e-01
2.733818106656947293e+03,7.577566980048824519e+01,1.698343161002034378e+02,1.536821060690431867e-02,7.829926858746502072e-01,-6.218410343243223615e-01
1.590098090070822309e+03,2.476515921239321870e+03,1.669786084121923068e+03,-9.486116048560313541e-01,1.305457840038914130e-01,-2.882599892653748275e-01
1.832877876440109503e+03,1.389518471657846248e+03,1.023011325765939006e+02,9.376107850745400984e-01,-4.570076488962005606e-02,-3.446700680366783232e-01
1.261280935066267375e+03,3.023153145266042543e+02,2.543607443068257908e+03,5.709509057503650564e-02,-9.714512282106557706e-01,-2.302665017761742761e-01
2.956213832007075325e+03,1.657444637082177223e+03,1.763185058080256795e+03,2.586902649328305936e-01,-4.105251593233903984e-01,-8.743846066757390290e-01
1.707598561977309146e+03,2.612182717927888007e+03,9.645330569638292673e+02,2.870240079710648096e-01,4.458372750140052188e-01,-8.478480660214495757e-01
7.621900168213365987e+02,2.846770349435171738e+03,1.717299561518071641e+03,8.157152875460772778e-02,-7.903237338493104280e-01,6.072351121362471460e-01
3.955914710242394108e+02,2.516664614620737666e+03,1.904041669117690162e+03,3.568336785829359648e-01,-2.526061063908158766e-01,-8.993663774252635967e-01
2.260427021076585788e+03,8.621061520072838675e+02,1.919637119905975851e+03,1.482254022271876637e-01,6.642007912459492180e-01,-7.327117707822383696e-01
2.612754063991373187e+03,1.836760009541359295e+03,1.498522527657395358e+03,-2.457963694877309535e-01,6.955459356331183951e-01,6.751296143489047274e-01
1.054157940477683582e+02,3.646570511887899784e+02,1.486395619372648071e+03,4.300261940189026300e-01,-1.749613772778667586e-01,8.857008461769972918e-01
1.490255755537132700e+03,5.227015119253406965e+02,1.440607611574681869e+03,-8.353127975249301507e-01,-4.166121578073939680e-01,-3.587294806091940735e-01
8.006049143219191819e+02,1.469105238297124743e+03,8.327253392927329969e+02,4.017211500174143191e-01,-5.530638875036022473e-01,-7.298907137154773128e-01
2.550864840627554713e+03,6.175323079405145563e+02,2.220782275199451760e+03,6.178887085503931287e-01,2.659541581264754373e-01,7.399202184162595453e-01
1.498434877340422190e+03,1.580001069216043561e+02,9.357816230515154530e+02,-1.269048614330949842e-01,2.361814339030185710e-03,-9.919120817782566268e-01
2.905210832254591423e+03,2.861055278904790612e+03,2.292901704298192271e+03,-3.113403127653117074e-03,-6.451102681384743853e-01,-7.640831425069332106e-01
8.340266730300410245e+02,1.420774899481008788e+03,5.803027445870356615e+01,-4.088313248043817238e-01,-5.005176032537849151e-01,7.631114444770048522e-01
4.348402394452529620e+02,2.566965707015721705e+02,1.483754903480837129e+03,3.823932849676900392e-02,-8.110693083921391988e-01,-5.836988356510687259e-01
6.424535156751049954e+02,2.105198780127207101e+03,1.265492901812784368e+02,8.957469659315831986e-03,2.609426183371019864e-02,9.996193541727053100e-01
1.900379081298607616e+03,1.304973229342747572e+03,2.036105824369001311e+03,4.935266465481846776e-01,5.242283471744548645e-02,8.681493509454986102e-01
1.776443992135672261e+03,2.075561706244701327e+03,2.174926579218835343e+02,9.314136383741961067e-02,-8.629384532638906258e-01,4.966506943728455359e-01
1.376555994400384634e+03,2.990168175906919714e+03,2.561091066957588737e+03,-9.288280949717049317e-01,3.593234920218603135e-01,-9.036037888615623681e-02
2.361990230687234089e+03,1.355416214666678343e+03,1.899659653905133837e+03,8.785277441446285099e-03,6.674718517968303289e-01,7.445832028451803142e-01
2.846094930112030397e+03,2.074312140486214503e+03,9.783397686325928362e+02,5.305843857991009438e-01,5.655995084929474892e-01,6.313298706213155143e-01
2.641275442740695325e+03,2.438550567485324791e+03,6.766208707348091593e+02,5.091901134989592626e-01,3.361469266999996264e-01,7.922945613754155403e-01
2.050811730039603844e+03,1.524676532009446191e+03,2.722264357454999754e+03,-2.593690917100837656e-01,8.465026271914527500e-01,4.649311523478014685e-01
1.916094793482628802e+03,3.709680516733743616e+02,1.054331875129284981e+03,-7.020673242360002675e-01,-6.961864075676922337e-01,1.497529904813064416e-01
9.716068676544203981e+02,1.010071284898116687e+03,1.909596743987042373e+03,6.511944402270676280e-01,-4.785236688128674531e-02,7.574007869029546480e-01
2.088780655037229280e+03,1.711532775356550076e+02,1.569589494184919886e+03,-1.364705818099564913e-02,9.832892753866081526e-01,1.815377611206099584e-01
2.270005444480351798e+03,2.198455343928786760e+02,3.464138051433290002e+02,-2.679879799794078754e-01,-5.487500633581513521e-01,-7.918685563595649901e-01
1.980620695661769332e+03,2.727317620674819864e+03,1.974861274680606357e+03,2.225270323677129569e-01,7.117633359374986313e-01,-6.662392013989738571e-01
1.461289165886395722e+03,2.577344076043571476e+03,2.643953381903672835e+03,8.845093974162317185e-02,-1.545285746461674825e-01,9.840210113999841024e-01
1.453408773690043290e+03,1.104845504105928285e+03,8.085727909028785234e+02,5.140829199289550511e-01,8.270712561645223726e-01,2.273145148549879924e-01
2.115939583840475734e+03,1.755635078718685236e+03,2.630302355451662606e+03,-2.188725275103984846e-01,1.983530180004781374e-01,-9.553799751676355090e-01
1.600720522489356426e+03,3.103135454298052878e+02,2.626523872131183452e+03,6.753472913594618099e-01,-2.631667363530472148e-01,6.889479696832874200e-01
2.453675400796198119e+03,4.761353270319011131e+02,1.776071962397346624e+03,-7.616976548272655356e-02,-3.901351862585107633e-02,-9.963313265127905494e-01
1.503981471648819934e+03,1.610464875991792496e+03,2.120182757685697197e+03,4.048993259605407902e-01,-7.288010129625921429e-01,-5.521825960145788637e-01
2.630855612601670146e+03,7.943728949556448242e+02,2.773097345064025831e+03,6.559009804797875098e-01,7.544455185085616744e-01,2.461429275849935649e-02
1.239178697203866932e+03,1.777889977801084569e+03,1.688812160697682430e+03,7.325738750706992652e-01,-4.407971373353353206e-01,5.186842982787054357e-01
1.679266252188404678e+03,1.282907988638722145e+03,2.202332367716131557e+03,1.574223286830377447e-02,-2.082038505635115666e-02,9.996592887931494698e-01
5.720806025156948635e+02,6.560477257451945832e+01,5.927410693746855941e+02,5.526007975977659942e-02,-5.970048586342155961e-01,-8.003321325250433160e-01
2.796116246933413549e+02,1.805111243876627668e+03,2.596524432657252419e+03,-7.681584465301560805e-02,7.795627697977510762e-01,-6.215956997562821496e-01
3.199848454978172754e+02,1.753635384092349113e+03,2.498520219320559590e+03,5.011852107738815620e-01,-5.667476710863488254e-01,-6.539193083399048589e-01
2.138420878585242917e+03,1.681612000794157439e+03,1.472092971097853024e+03,5.998021637785632132e-01,5.685233160482352499e-01,-5.630440510617904515e-01
2.966712331838955834e+03,7.387250678955808780e+02,2.645086499523094517e+03,-1.136784071045494060e-01,5.475710179847032011e-01,8.290013269117053607e-01
2.933465432022472214e+03,1.173535627446635544e+03,2.005962317920390205e+03,-1.832407533869374883e-01,3.949274773377318137e-01,-9.002528055728806766e-01
2.330000759466594445e+03,2.683489233550847985e+03,1.826698706535138854e+03,3.513488769250430188e-01,-5.480440496564986663e-02,9.346392051908971599e-01
1.010259492207991570e+03,1.078182951797781925e+03,1.192890803133000190e+03,-2.299112265999240373e-02,-8.705292850803654503e-02,-9.959383494559328476e-01
3.449773148281879003e+02,1.664768655373701904e+03,1.441349253711805204e+03,9.066719060688170906e-01,4.215895422173033258e-01,1.443303982335853407e-02
1.082539746866801579e+03,5.530533776233770595e+02,2.579426081366442759e+03,-2.042318150769540375e-01,7.301016820805126262e-01,6.521049758540253816e-01
1.692506706474039220e+03,2.169761129369015180e+03,1.129427123464529586e+03,7.206587342470789637e-02,-8.222010129798196232e-01,5.646166878002212286e-01
1.411135615890474810e+03,5.688310867589157169e+02,5.275794124076477374e+02,1.762919089650837046e-01,-4.773476025980621928e-01,8.608486679593163604e-01
1.060927988618788959e+03,2.105043241798942745e+03,1.025447640388483478e+03,2.552360591431819814e-01,5.358927274623411785e-01,8.047816714898712309e-01
1.667538972322810196e+03,5.776718650897757925e+02,1.744670581269782815e+03,-7.231302025328096850e-01,-1.330119090233672918e-01,-6.777835511745746722e-01
1.672109879284952513e+03,3.646071128305583642e+01,2.704165680065086690e+03,-2.396110362286908158e-01,7.651200372010701356e-01,5.976436061657868226e-01
1.401237232706236455e+03,1.133782098459463668e+03,1.621993517456377731e+03,-8.681075906408540765e-01,3.088161303781870037e-01,-3.886152450560503291e-01
1.599727252260230159e+01,4.584465177512677769e+02,2.560355934781320684e+03,8.355525527886908943e-01,1.809343920975739206e-01,-5.187626406022154413e-01
2.492987959067543215e+03,2.112985737029729023e+02,2.842634232752820935e+03,-7.851484264953876302e-01,2.855095156185590843e-01,-5.495691629477337248e-01
2.224799863846566041e+03,2.633151896333475179e+03,4.779166196909814062e+02,-4.799177261152999252e-01,7.141340221955913004e-01,-5.095994255325125843e-01
1.305939677113862444e+03,2.889300669287743858e+03,1.677284170658217818e+03,-4.189455218881824594e-01,7.931438119355832539e-01,4.420492543576233224e-01
1.802221237769886329e+03,1.433452366177785393e+02,2.104513633542929711e+03,-1.653177769342964731e-01,-9.702823237928465128e-01,-1.766981741972903919e-01
8.647232931934034923e+02,2.873592338163802197e+03,2.455092856187772668e+03,1.060102995440265344e-01,-3.870289936549123344e-01,-9.159532599762127969e-01
4.279419541669789737e+02,2.218608954292262297e+03,1.028136930192642922e+03,5.779947560790620747e-02,2.136229221818808088e-01,9.752048337338803385e-01
2.553782449540499783e+03,5.567931179361740988e+02,2.455939597467197927e+03,2.433525709492695699e-01,9.624986622280493620e-01,-1.198993387037479152e-01
1.989405866329426999e+03,1.292687991165007361e+03,1.747529016438045119e+03,-2.109064827495908678e-01,3.922472107615297965e-01,-8.953550028809782457e-01
1.257739517758763668e+03,6.245915915330604093e+02,2.093376940310525697e+03,-4.955358278037008679e-01,-7.602263418319884503e-01,-4.201192123048572147e-01
8.457912226319467663e+02,2.535210680227400644e+03,3.380310263217408533e+02,-1.713673211803567187e-01,4.979816318368714967e-01,8.500867812079864194e-01
5.028251738575261243e+02,2.449303618540622665e+03,7.667694014027249239e+01,-7.066894595613714136e-01,-6.710859433635978366e-01,2.241286781396947259e-01
1.624319176421444809e+03,1.569384157711578155e+03,7.636593426332794934e+02,8.537862550364831993e-01,-3.254704839177954834e-01,4.063471358445798765e-01
3.000784910039217266e+02,2.016069168188661109e+01,6.415967005140361152e+02,-6.354384529212763200e-01,-7.713907356358328249e-01,-3.426814153443014793e-02
2.428584424757103989e+03,4.174501549103012508e+02,3.682824197431044944e+00,-8.279435917999010686e-01,-4.448102090541630194e-01,3.415454387320533969e-01
2.739607357366191536e+03,1.274784459328667936e+03,1.315660242659412006e+03,9.436783702942604934e-01,3.257680798595892213e-01,-5.784713980280243445e-02
2.697002753183268396e+03,9.654966922985847759e+02,5.096106174661977661e+01,-6.866222654826329430e-01,7.268793609372233844e-01,1.400925362004201702e-02
2.136001013111327211e+03,2.438202552696192470e+03,1.578519124305658806e+03,-3.788422647075991856e-01,-5.848916308546900922e-01,7.172031222933696881e-01
2.510890771110026435e+03,8.234764047926576040e+02,1.996440611182226348e+03,9.985051469487116194e-01,-4.553684370260909636e-02,3.023023953818615786e-02
1.432116499376250658e+03,1.586581564367340889e+03,1.290813312910684317e+03,-8.310032505088406074e-01,-1.521341243063925042e-01,5.350596283268514997e-01
9.863156730890635799e+02,2.592916849862191611e+03,2.263265009145059594e+03,7.537333471110980315e-03,-4.328092433876343792e-01,-9.014540184847859017e-01
2.863004320415825987e+03,2.322016593499043665e+03,2.619955055361397172e+03,-8.775027500114139789e-01,-2.756439610658175110e-01,3.924402253214518410e-01
2.007810037449083666e+03,1.868111069427090797e+03,4.465227695875848326e+02,-2.441138127758200327e-01,2.935736115559853809e-01,9.242418411920265697e-01
8.574289385046580492e+02,2.030035889409945185e+03,2.715739747890268063e+03,-3.953595897793866776e-01,-7.864721462712624955e-01,4.745022211844207582e-01
2.923057776462224865e+03,1.768999283615013383e+03,2.242072796730795403e+02,-9.548543225215491148e-01,4.398885295647834981e-02,2.937995976469112147e-01
1.626356699162627137e+03,2.590362902387581698e+02,1.509753827583660041e+03,-2.250551577301005413e-01,2.127749484045618478e-01,-9.508296363232036086e-01
2.509154202701987515e+02,2.309318080351036770e+03,6.289939115973063508e+02,1.395575912607150970e-01,6.754845419562208741e-01,-7.240471754655919412e-01
2.023393526568756670e+03,5.731458895932378255e+02,4.750606931875713599e+02,-3.710526050459216352e-01,-9.255055020087824547e-01,-7.589156764823745682e-02
1.128839846277620381e+03,1.077234411932207422e+03,1.008163804905377674e+03,-5.376462622261886093e-01,6.897629459941024832e-01,4.849366711723763768e-01
6.890019320910192846e+02,1.324036081475921719e+03,7.847602909508982520e+02,4.511261226865443397e-01,-5.179021465406822289e-01,7.268167499709665691e-01
6.240546063792968425e+02,2.073072989730748759e+03,1.086601257126527344e+03,-2.666766142753257962e-01,-6.412074151584749027e-01,7.195391817993211925e-01
1.367885449323464627e+03,9.645692973302957398e+02,2.704234587165547055e+03,-1.404392329527234806e-01,8.273004996890205298e-01,-5.439215982675698058e-01
1.729475411095071422e+03,1.652622850617863378e+03,4.897398674854956084e+02,-5.321956913659643407e-01,-6.615029271471445371e-01,-5.283764032082269857e-01
2.590513797007504763e+03,2.375221107440774176e+03,1.091642574368382157e+03,-9.261708733661903059e-01,-2.307279975369486702e-01,2.982819211428982542e-01
4.602150677419014642e+02,1.462143871461781828e+03,1.940561698044283276e+03,9.060483034083708365e-01,-3.613557171357456577e-01,2.202237897778620834e-01
2.371246954934309542e+03,1.864147736070230621e+03,2.657008861763276400e+03,6.347447469439336798e-01,-4.522370705992157514e-01,6.265626370945858170e-01
2.850754261210272489e+03,7.120842515767340046e+02,2.057098526353971920e+03,5.960736798601325992e-01,-7.629624953829667877e-01,2.501687406871547226e-01
1.479198947897920561e+03,2.694118197845255963e+03,2.246995792817006077e+03,4.168556995561323308e-01,5.177124712230956050e-01,-7.471312621538755971e-01
5.791872611174046597e+02,9.263700174741111368e+02,2.339855862447279378e+03,-9.500610144330364770e-01,1.790143159242806037e-01,2.556128782918254405e-01
2.412692749080571502e+03,2.970922395706727002e+03,2.631966503406226821e+03,5.152910248086169931e-01,-5.357211778358753618e-01,-6.689379488187432443e-01
9.602567685908310295e+02,1.797579889165776649e+03,8.546066523717765904e+02,-6.226227749951407375e-01,-7.154850667951960785e-01,-3.168943029630296171e-01
1.619437796169178000e+03,3.488081446800119920e+02,9.331647017054665412e+02,-2.283672993029328968e-01,-4.260752668806830346e-01,-8.753903378274399127e-01
1.232700690693695606e+03,2.102377736055200330e+03,2.783985518176957157e+03,6.375966794701600771e-01,6.823925498274409085e-01,3.575064786386807913e-01
2.570489128178630381e+03,2.232812439322664432e+03,2.820680260598408950e+03,-7.360771024856448408e-01,5.536801079779661572e-02,6.746294409352682209e-01
2.114397404972168715e+03,1.104981717612325156e+03,9.400199108582481813e+02,-5.281303858099363202e-01,4.405605270805442730e-01,-7.259371305855356615e-01
2.912275460879302045e+03,2.620706120544130499e+03,1.892955111839156359e+02,-8.917430654350001484e-01,-1.053932898535064888e-01,4.400983523059860403e-01
2.104942058875435123e+03,2.240316929008047737e+03,9.305553843766899718e+02,-8.588666431296279047e-01,-4.325292095588683106e-01,2.743475390770347411e-01
2.521403785050939405e+03,6.179705367378204528e+02,1.697028244541585082e+03,-6.180851314988377448e-02,1.725256206129986425e-01,-9.830638931088356847e-01
2.788039598885089163e+03,2.657168907431945627e+03,1.965117265718057979e+03,-4.051405384870893078e-01,-8.895543296031075409e-01,2.110787501354823015e-01
2.196103199183043216e+03,1.307933803608197877e+03,1.791545795077913226e+03,1.622121112138635024e-01,3.821088797745285648e-01,9.097692207219345573e-01
1.980786197980492716e+03,1.618366453306105541e+03,1.031041914552611729e+02,-3.386322033637937379e-01,-6.061795727331612538e-01,7.196350161338902485e-01
7.790324758030609473e+02,2.862380821822197504e+03,1.972642500770995412e+03,6.808300304306594830e-01,-2.485940969520972488e-01,6.889640372503913479e-01
2.187357741100519434e+03,1.361216309338681413e+03,9.850934976257958624e+02,-9.486241463352061976e-01,9.559015206745045956e-02,3.016202112218661080e-01
1.756103158737596004e+03,2.233126907779406338e+03,7.549044133155474583e+02,6.752277699149118462e-01,-7.351022917027115744e-01,6.076248406012108721e-02
1.294350579838617023e+03,2.001081207255181198e+03,2.603409712647047854e+03,-4.177709761089670737e-01,-2.468412587147348902e-01,-8.743779528997093209e-01
2.963860620400558673e+03,1.543127909416462899e+03,2.571890346048871834e+03,-7.457519295201741061e-01,-3.860984656307575036e-01,5.429383339335251968e-01
2.398180872443092085e+03,2.251851910252868947e+03,1.959877783254849419e+03,2.850600246459226161e-01,-4.712790437776436803e-01,8.346477372190592714e-01
2.308466868006608365e+03,2.000416171774639679e+03,1.267692661484120208e+03,-5.964371428953817167e-02,7.389000376452549146e-01,6.711701436398886944e-01
2.958558853658037151e+02,2.314722830992055606e+03,6.747636273650502972e+02,3.457943263181832878e-03,-7.142411798788494970e-01,-6.998911198134017964e-01
2.641902603577820628e+03,2.862661649928321822e+03,2.606349936940117914e+03,2.817299820487311757e-01,-9.587916784706560502e-01,3.669788154980913736e-02
5.446461556319436568e+02,9.405489489725693986e+00,5.844373078603582599e+02,-9.545455663472381114e-02,-1.103502434029234452e-01,-9.892983631840214231e-01
5.371857805333639817e+02,6.769589935211348575e+02,2.705377913455572070e+03,-1.061264405408123973e-01,8.403239803107537265e-01,-5.315945698865156555e-01
1.209265830081310895e+02,1.198943615101378782e+03,2.580435067371607602e+03,-7.895309956621630043e-01,3.608895873229653328e-01,-4.963864549426922346e-01
1.189592884665522206e+03,2.630805283135720742e+02,7.682143504057860355e+02,-9.168653977346173933e-01,1.906090896788288358e-01,-3.507506484224230392e-01
2.114539497153694811e+03,2.389458119576917397e+03,9.798017862582059934e+02,2.491045700908764982e-01,9.438321611979483272e-01,2.170893010911634224e-01
2.683911599626828774e+03,1.899671134423896035e+02,1.316369272460254479e+03,7.703149024200980910e-02,9.308420564221768778e-01,3.572103239085178683e-01
1.279293009309147237e+03,1.919735103181493287e+03,2.231945464547093252e+03,-6.885071774047958615e-02,-9.284016688490926983e-01,3.651436976655088040e-01
1.609048500556367344e+03,4.903040031800787091e+01,4.483853123967119814e+02,8.911170017357763484e-01,4.201003451241061004e-01,-1.715406343816159307e-01
2.188975614974054224e+03,2.663351859534490814e+03,2.727180130226891379e+03,6.250854942580441609e-01,7.471853481805386110e-01,2.257923389588411822e-01
1.136630649167353113e+03,1.996413626738086805e+03,5.010441443822953715e+02,4.890501348026191630e-01,1.502044294743636044e-01,-8.592255786554663377e-01
8.017065825233030409e+02,2.557356346118652709e+03,3.485510407404434545e+02,3.810848890720022752e-02,7.305045881909594252e-01,-6.818436695498217848e-01
0.000000000000000000e+00,4.678376695363174349e+02,2.559300395313983245e+03,-7.905767589891607742e-04,-9.443875491306135128e-01,-3.288335932283397711e-01
1.037155063962276472e+03,4.671273698274103481e+01,1.809495066550679439e+03,-8.607340312481533973e-01,3.616523863474718770e-01,-3.582519768270397975e-01
2.707598285971178484e+03,1.910342233461929027e+02,1.010054668125489115e+03,1.760050185751413643e-01,-9.253164305710941395e-01,3.358745848550226953e-01
1.962004397016068253e+02,2.824430127301208358e+03,7.681170233985511686e+02,-4.551213902586486171e-01,-8.587186852334631748e-01,-2.355137782804808122e-01
2.300754576542821269e+03,9.816824273159096492e+02,2.225090364432860497e+03,-6.455333617628630227e-01,2.789023035699304820e-02,7.632226502808800994e-01
1.639196749774671673e+02,2.968755405795322417e+02,9.802837415454356460e+02,-6.387594590753612467e-01,-6.239341466605214936e-01,-4.502138759220541964e-01
4.252516418756935224e+01,8.663165800058877721e+02,6.409357368142568703e+02,-2.248867715566807146e-01,2.061673349303011216e-01,-9.523239837295658372e-01
2.201683855746507561e+03,8.360436520037055743e+02,2.185901673422999011e+03,-6.585758515866304563e-01,3.327675159111887493e-01,-6.749397217983552633e-01
1.331291803668444800e+02,2.442808427654516436e+03,2.089174180671917838e+03,-5.718692619663767740e-01,7.885268659328479313e-01,-2.262541246478217138e-01
1.315743173604279718e+03,4.830721922333810312e+02,6.701460631064516065e+02,7.471034716544764365e-01,6.239344274581990479e-01,2.292209259082567396e-01
1.991636427465831503e+03,1.261826789932888317e+02,2.150124035763406596e+02,-1.607403899828138139e-01,-3.083852627032200866e-01,-9.375825599783940145e-01
2.517693326214589888e+03,9.753219197564678211e+01,2.057512070367288857e+02,-8.752070989368003762e-01,-4.837231159480707698e-01,4.947834689960518319e-03
2.942192978047644374e+02,2.889124605586699545e+03,2.971621684070050833e+03,-7.487604890931113255e-01,-3.867271939767753519e-01,-5.383305744725022102e-01
2.014187807474403144e+03,1.822776057634766630e+03,5.770864633798222485e+02,-9.366855760306659340e-01,-3.445123208343795485e-01,6.270081697561091794e-02
1.394509683647452903e+03,2.991964466437656483e+03,1.135850877419677403e+02,-8.572525497650429482e-01,4.080670468590255617e-01,-3.140053362430111350e-01
9.843477623422082843e+02,2.284096546203383696e+03,8.877247647063744580e+02,-1.790930285525502152e-02,4.562539633564953734e-01,-8.896693643105445526e-01
5.240923098593543727e+02,1.895015848037056003e+03,1.275012543503053848e+03,4.707105165410607056e-02,-8.835172284341712423e-01,-4.660274918458964799e-01
7.299266985982091001e+02,2.834879431066990946e+03,3.624827886804134778e+02,3.938087289971036742e-01,1.763740796260517552e-01,9.021124480915607702e-01
2.885114853556247638e+00,1.049839920438152831e+03,1.020233281803664909e+03,7.008304537525216968e-03,-5.962703451922420905e-01,-8.027531121782298662e-01
2.117044286660772059e+02,9.113020146131315187e+02,6.392538902086321286e+02,-2.475514066913863942e-01,7.948557253289939561e-01,5.540060261015531395e-01
7.754646139758622780e+01,1.921641096071637548e+03,2.579022014783884060e+03,-4.127046991752832406e-01,7.235159424664268091e-01,-5.533529725912360586e-01
1.328086783448786491e+03,1.049938401323291544e+02,2.755211869712586576e+03,6.724738219710760800e-01,3.953853043122514399e-01,-6.256591882946511696e-01
1.081118092181834754e+03,1.807936311504094647e+03,1.655458792101390827e+03,-1.628839387179106118e-02,-9.416244450385021780e-01,3.362708621498600170e-01
2.800134539953859985e+03,1.828914559166582649e+03,2.204401525821480845e+03,-9.259791823475213013e-01,-6.134860469989412979e-02,3.725572473599085832e-01
5.876120867058617705e+02,2.538380602547460057e+03,8.158494285926526572e+02,9.743249376516031068e-01,-1.263899474909988040e-03,2.251428844718774691e-01
1.710644950294565888e+03,7.106265565757406648e+02,9.487373996116383523e+01,3.704073626154600176e-04,7.866650528604915982e-01,-6.173799133486492785e-01
2.175513633822484735e+03,1.106025121739144879e+03,3.069121743740145121e+02,-4.174225018698427547e-01,-8.057127107028345669e-01,-4.202207547761196427e-01
6.460249101693726459e+01,2.762994208302121024e+03,1.302484266235156156e+03,-9.222076786646290492e-01,3.823188447808057444e-01,-5.801119148463241421e-02
8.539537504335162339e+02,1.145955568620134954e+03,5.481148961172765439e+02,6.223331157219406939e-02,-9.787865826613065812e-01,-1.952020505347202839e-01
2.498411984316784128e+03,1.317533173345739442e+03,1.396805636703660639e+03,-6.010135598559722681e-01,-7.964696152030517062e-01,-6.647445319485090209e-02
2.921702028181536207e+03,5.610463588912375599e+02,1.473349358178680632e+03,1.419325320455989579e-03,-9.972346737967556773e-01,-7.430337067127615325e-02
2.244501470642891945e+03,1.943062651607681346e+03,2.445074951358344151e+03,-4.387571295040281621e-02,7.772364159084070856e-01,6.276770472137302992e-01
1.987826066589587072e+03,8.486128719960521494e+02,1.713431991529215793e+03,-3.557364208033653163e-02,-9.320132325519576710e-01,-3.606741608948313971e-01
2.359898537816630778e+03,2.117608143916791619e+02,2.311213864385640591e+03,-4.559041687893691241e-01,2.312647223258870177e-01,-8.594579786632996488e-01
2.827015429007166404e+03,2.039556765741627032e+03,1.361814425883569584e+02,8.596028442241731016e-01,-4.859423491103773141e-01,1.579334782204213639e-01
2.664459516829458039e+02,7.107560807438921984e+02,4.085279824633615817e+02,2.783131234596110740e-02,4.858863221445129943e-01,-8.735787886653270107e-01
2.342529783599904931e+03,2.830016656848006278e+03,1.910335693146621907e+03,5.330298967031813495e-01,2.831376492152707924e-01,7.973156218320609501e-01
4.712419104024801868e+02,1.221749814027815091e+03,1.445695310388528469e+03,-9.277859298765995799e-01,8.979311899677583364e-02,-3.621470200123761973e-01
1.313006479225930661e+03,2.459860477559096125e+03,2.315301238229771570e+03,9.023808585120507431e-01,3.679912249946281633e-01,-2.242570946882334326e-01
5.248104357842158834e+02,1.562948256405382153e+03,2.676346356630031096e+03,-6.059780091928229639e-01,-3.201045115150615850e-01,-7.282333101983230472e-01
1.575413901480615323e+03,1.012251315186779550e+02,1.079906536582314629e+03,-1.065299363093307888e-01,7.288109733332531759e-01,-6.763770677802184439e-01
1.881434500820825861e+03,1.298595861919270192e+03,1.286642854705326499e+03,1.091256073536859966e-01,6.978448231539330360e-01,7.078871411580698325e-01
1.083096790456538656e+03,5.729452570097491844e+02,4.285448698093716757e+02,8.145682797825722909e-01,-5.789585088325441831e-01,3.585474337459571698e-02
1.054602744327469708e+02,6.969170332262513057e+02,1.114995155934756212e+03,-7.552918347538527949e-03,4.120748065449817421e-01,-9.111187119334951401e-01
1.127935922713452783e+03,2.266501435638047496e+03,1.774873771387423176e+03,-3.087986100594592997e-01,-2.584101695216489843e-04,-9.511274108391211124e-01
2.085722744000308467e+03,1.126981701547640341e+03,2.863682325130459049e+03,-7.280223727232818520e-01,-6.099132740282406928e-01,3.130323034105509383e-01
1.670179276691563700e+03,1.945681648682666491e+03,8.339556113460488973e+00,2.627556240226314177e-01,-2.087603377705148089e-01,9.420077512517708307e-01
2.682079707352709647e+03,2.648083357198243903e+03,2.358168028875874825e+03,-9.117298262285198351e-01,-2.903769134136546248e-01,2.905683604965825229e-01
1.141021824110712942e+03,4.891407898425866847e+02,1.702791384555089053e+03,-9.336703063037273820e-01,-3.358950703698654339e-01,-1.242347005788926317e-01
2.878200166100395109e+03,1.282688617468215170e+03,2.699921884228108865e+03,-7.141726339603720053e-01,2.631522193529464149e-01,6.486203499364810998e-01
1.628619176255217553e+03,1.023522152284272465e+03,1.605236968102407900e+03,5.408283329394875105e-01,-4.632187546898718922e-01,7.020919452560747676e-01
2.522930973364296733e+03,1.227787258214812937e+03,2.248737029804892245e+03,-3.552318980629908252e-01,-3.613951135120912483e-01,-8.620927273374643374e-01
1.894511233361212817e+03,4.408755774685395750e+02,1.888750022827788371e+03,-8.484148711873124027e-01,4.597892500651957343e-02,-5.273311528854149888e-01
2.305566653732963914e+03,4.521699152950828875e+02,1.007492250116665900e+03,-8.296023462139365812e-01,5.404892510290730812e-01,1.401118006392156889e-01
1.261394586700895161e+03,2.147104213429301581e+03,2.768956161686862742e+03,1.737702814160342613e-01,6.324822552113636975e-01,-7.548311639958564800e-01
2.837066052304788627e+03,6.688497058950958944e+02,2.024982709077968821e+03,-6.801244547837630855e-03,3.202550781026414772e-01,9.473069344315344642e-01
2.390268128751604593e+01,1.853312068712546932e+02,1.705259982333577682e+03,7.283318424492048193e-02,-2.022045132655439781e-01,-9.766312825666552122e-01
7.402587717744922884e+02,3.911256537764260202e+02,4.275312197886316881e+02,3.507525719834213573e-01,-1.097768321078549658e-01,-9.300116560449007697e-01
2.210073044082737397e+03,5.054527153258524663e+02,9.793429820665606940e+02,7.935409150520363886e-01,-5.626356565940421328e-01,2.318058111164773560e-01
