x,y,z,nx,ny,nz
1.407586560273038231e+03,1.767556926297818791e+03,2.344815694326169250e+03,-3.600347688252953371e-01,-2.587126990937228532e-01,-8.963496553045340320e-01
2.399044057418467673e+03,1.686140580441380962e+03,6.643626855731765772e+02,-2.400838261467467052e-02,8.996582025872119637e-01,4.359343024834986813e-01
2.193284488521588571e+02,2.572336181265040068e+03,9.441026076928818611e+02,7.385036098115108083e-02,-5.008130297105233275e-01,-8.623992308989614219e-01
1.731221501758585191e+03,2.380699207488365118e+03,2.464584002569570202e+03,3.571554960162456327e-01,9.165749587864908676e-01,1.798062751711748952e-01
2.197454819542690529e+03,2.418630095362619613e+03,1.458401710957234172e+03,-2.119784338588271907e-02,9.486883867766721101e-01,-3.155011826140483033e-01
1.836706404452715105e+03,1.933413561472379115e+03,4.481014968706527384e+02,-2.316883489316442224e-01,-6.772655126006379422e-01,6.983064759911108421e-01
3.000000000000000000e+03,1.490706791272033911e+02,2.446459017724723708e+03,-5.564388192667403255e-01,-5.410302399242904459e-01,6.306045669835420586e-01
9.267490644666753496e+02,8.257246856593636721e+02,5.265923681078440950e+02,7.107794347064030349e-01,-1.430724887924761657e-01,6.887110120719523998e-01
2.374254099110451534e+03,1.639261900881524525e+03,6.579906743416528343e+02,-1.951281000023363495e-03,5.077370925279042213e-01,-8.615098591274330531e-01
2.790999160968543947e+03,1.704713302472299347e+03,1.229350860457576800e+03,-5.110740395087749466e-01,-4.724632347609745292e-02,8.582372114154541709e-01
2.091866302998890205e+03,2.556179375888937557e+03,9.988586333658977878e+01,2.786639720171128418e-02,-3.507769115677905059e-01,9.360443484247735757e-01
2.338875563005217373e+03,2.792422272643331326e+03,1.455110025292072805e+03,7.299852374983267778e-01,-2.161382676896556748e-02,-6.831210694502933833e-01
2.097974592856403888e+03,3.592748315020789391e+02,1.413620070979235834e+03,-8.689435835752936654e-01,4.635149876330778573e-01,1.734673018261208288e-01
1.367808594494276122e+03,1.669070669555095265e+03,2.554957626595732563e+03,2.199753000716794527e-01,-2.886875583932411171e-01,9.318102601856901313e-01
7.323326598703947639e+02,1.754747421135147306e+03,2.522490477997799189e+03,-6.012786557919561625e-01,-7.120242448696866289e-01,-3.626092287942639381e-01
8.687047828694410327e+02,2.818463880485175650e+03,4.057315228908639142e+02,-3.164831353887211374e-01,9.186787510033611603e-01,-2.363636551363785809e-01
1.294884391991424309e+03,2.822966346091870946e+03,2.544456411470209787e+03,9.027791996029583751e-03,9.886797249551658728e-01,1.497694909995158918e-01
5.841550987411089864e+02,1.234239166912980863e+03,9.382719852167254260e+01,4.555095707722068843e-01,-2.502458436751772708e-01,-8.543348574524034511e-01
1.423847036844295872e+03,6.105293582096689988e+02,2.467590311785877475e+03,-3.506591068847346726e-01,8.839620200145552609e-01,3.092722715191056904e-01
7.048181100499266449e+02,9.729555749062134282e+02,2.966741102127024078e+03,2.011679684517820865e-01,4.392307368841071868e-01,8.755614245986554911e-01
2.198284817761796603e+03,1.749556577405341613e+03,2.359941753027364939e+03,1.286104718486227316e-01,8.884212252004169974e-01,4.406439301116771290e-01
2.927793952657436421e+03,1.882623036917570062e+03,1.907990387281336780e+03,-3.298007708963340834e-01,-2.297080300606958031e-02,-9.437710494211190015e-01
1.143153586048598982e+03,5.085954745171937930e+02,1.798762914516295041e+03,-7.999718303215056503e-01,-1.002696201173096102e-01,-5.916004343926657416e-01
2.281015140341398819e+03,8.157721172954926487e+02,1.301132884773791602e+03,6.650079434101224818e-02,9.751623179039679012e-01,2.112725682434306029e-01
1.823220254107824587e+02,1.850693657848536077e+03,5.141351566023666209e+01,2.939308166326426996e-01,-5.478063793045977459e-01,-7.832706083001295116e-01
1.713208010708179359e+02,1.020348095770334226e+03,1.912416362938721250e+03,-9.142341724398183045e-01,3.462582162217149317e-01,2.104308096316623022e-01
2.357625765184282955e+03,4.363880203988099424e+02,5.810330580210143125e+02,-7.414824799229838281e-02,-7.049567239093020854e-01,7.053637747536632974e-01
1.484095756425660056e+03,4.935036596761911483e+02,4.972034246974866392e+02,5.205561507034449642e-01,4.876447708495700861e-01,7.008736486898923257e-01
1.806914131198607038e+03,1.553083534049065292e+03,2.472570312813703822e+03,-1.545525020254880366e-01,8.131698047350909286e-01,-5.611313507412999391e-01
1.404047720489103540e+03,1.803620833685997923e+03,7.747255292519923842e+02,2.467249779029820067e-01,5.630356804991647479e-01,7.887443234430377981e-01
1.038542002668600162e+03,2.938855612606335853e+03,5.388124219027753270e+02,-2.820324639711820902e-01,5.604019881013030391e-01,7.787215811819079292e-01
6.544940718159444941e+02,2.694902081379045285e+03,3.288044539315417865e+02,9.547340595159052867e-01,2.773785193536737470e-01,1.074431598634528751e-01
1.192329890766647850e+03,1.269620607171051915e+03,1.278715532175314365e+03,5.624208403532813261e-01,-5.261504928966503902e-01,-6.378467348516577706e-01
2.473071332060047553e+03,2.247209467389276085e+02,6.873161561192067666e+02,-7.027478823098710636e-01,-8.534995876979954016e-03,7.113877759382511989e-01
1.000685226165969311e+03,1.104240715602543332e+03,5.240718778441527093e+02,1.045694366639709633e-01,5.556223284909497240e-01,-8.248327472876394451e-01
2.379132535230337453e+03,1.963539070641588978e+03,1.846512134689187860e+03,8.202814526247182991e-01,-4.955480622431924775e-01,2.856054209690339629e-01
2.340913857403199927e+03,4.063475724367708608e+02,1.094486680439007159e+03,-4.945157163751380813e-01,2.252112827941848278e-02,8.688768641407170756e-01
1.116616838608146509e+03,1.514621419592879192e+03,2.323135121016528046e+03,7.176344751178913572e-01,-1.064773196887093681e-01,-6.882320397323689054e-01
2.629409998001075337e+02,2.029425142775994118e+03,2.075132946491380153e+03,-1.166313023396719772e-01,-3.832488362510893531e-01,9.162518588394448216e-01
1.060689184503164597e+03,2.511318521132341175e+03,1.421384312851060713e+03,1.556559256196569097e-01,9.810644779015379457e-01,-1.152550346807918458e-01
2.345482288000697281e+03,5.880232955633115353e+02,1.190435008264809539e+03,7.927531503508252753e-01,-2.054809048995423770e-01,-5.738641305487799382e-01
1.992337183850392250e+02,9.632864135027493830e+02,1.938882469895358781e+03,1.120338217404117376e-01,-1.219433479636235079e-01,-9.861938159782084323e-01
2.803522323388459426e+03,1.918084796567930653e+03,2.659430351200318000e+03,9.042932258666902534e-01,-2.824541283473998576e-01,3.201147091764542374e-01
9.065933174979284104e+02,2.388845716375215034e+03,3.768782263303911577e+02,3.743875701863199623e-01,8.105310381035931711e-01,-4.504146795572885331e-01
2.123145258678379378e+03,2.048554337251741799e+03,1.409281939435159984e+03,-4.658732788909519251e-01,-2.761325174582461850e-01,-8.406621918568508711e-01
4.188693930214102465e+02,2.797111225010794442e+03,9.731060396398249850e+02,-8.006161133550045994e-01,-2.589586700438039624e-01,-5.403279062249799480e-01
2.935985212004936329e+03,1.902418981555919970e+02,2.656174356993055426e+03,-3.091209132611887761e-02,-2.026926971294017443e-01,9.787543681334220924e-01
1.563535592969347817e+03,1.279223598397291653e+03,7.347526812275459633e+02,2.590504902068788695e-01,-8.077599829601010972e-01,-5.295438163663823694e-01
2.704380291894325183e+03,4.122799018735031495e+02,1.848723436969188924e+03,-1.421385271809733342e-01,8.539319802431789563e-01,5.005964564484917112e-01
1.999307953248979629e+03,1.262552325429570146e+03,1.574484405359956554e+03,6.590704692926877550e-01,7.445641379409688732e-01,-1.060677189277594579e-01
6.616629671346383930e+02,9.630095693832355437e+02,2.959799345760280630e+03,9.915716506099829519e-02,-7.543737507770250650e-01,6.489130147836986717e-01
1.114644881214232555e+03,2.322062633294034185e+03,1.137552066642457021e+03,-4.621582433221648190e-01,-7.032427409639344651e-01,5.402401368011295890e-01
2.708355239410863760e+03,2.968518469153318165e+03,2.329882570410509743e+03,-4.166963288192219173e-01,-8.871197982288402395e-01,-1.984505811001944231e-01
6.606837699352269055e+02,3.345156951237294152e+02,1.084764604411550636e+03,9.258303474279362399e-01,-3.237791476650313527e-01,1.949493044839423483e-01
2.002990985810343545e+03,1.579677271113613983e+02,8.066179668475645030e+02,1.309305419031892848e-01,-8.095934024457138722e-01,5.722025130260348647e-01
5.390701670641794863e+02,2.423903949853807717e+03,1.307145856474444372e+02,9.199928704113919942e-01,-9.507582570699950331e-02,-3.802284915131162180e-01
2.369496161929057507e+03,8.477560063453289558e+02,1.909459948591965713e+03,-3.698346894097975235e-01,4.095482790623474201e-01,-8.339619353581002592e-01
1.714906477856907827e+02,2.607865676601082214e+03,4.203216373057424562e+02,-3.657276930909013346e-02,-1.115031705651989835e-01,9.930908697087956760e-01
6.400270542156481497e+02,2.579423161171629999e+03,1.114815673451106704e+03,1.750132383306062314e-02,-6.480502457445546094e-01,7.613964687694005917e-01
1.248439916348921315e+03,2.973181392379776753e+03,8.944869083378010828e+02,5.353850437223359572e-04,8.183743864380829125e-01,5.746851981606506676e-01
9.780178654801325138e+02,2.785768817782846781e+03,1.867071400619701308e+03,-7.631982835854446146e-01,-3.195217964595368221e-01,5.616352922667000591e-01
1.808320868367766934e+03,6.887270980703531222e+02,1.600609431180144611e+03,6.135658096015959018e-01,7.820223049872930821e-01,1.094445603504320685e-01
8.229073976357379934e+02,1.223097106052702429e+03,3.043216625258449426e+02,-4.770817056622062569e-01,-9.973104602389350204e-02,-8.731819767845760971e-01
2.055889609776459565e+03,3.737906732279566313e+02,1.371582998207023820e+03,-9.289526012291509094e-01,3.467140254805310962e-01,1.297553436459550902e-01
1.513545381058185058e+03,1.230718163442314108e+03,1.045402124239063369e+03,3.260954051997576597e-01,-1.686759150959270259e-01,9.301667712696242152e-01
6.538760100201699288e+02,2.027025236370507173e+03,2.086721399607506555e+03,-8.012385574443565694e-01,-8.315247167180561672e-02,-5.925389780591283628e-01
6.825024060460401643e+02,1.127337370226941403e+03,2.600052193411946973e+03,7.950288586500595667e-01,-3.412166198164754971e-01,5.014980880069259683e-01
5.875725476329719186e+02,2.422675872787133358e+03,7.595979589171382713e+02,-8.376532116576106413e-01,4.716979674080646889e-01,2.753872265425370558e-01
2.579701021599561500e+03,6.667257166733123768e+02,2.353398207324305247e+02,-3.093578816236720042e-01,2.855699006905663695e-01,-9.070543163983588730e-01
2.619524894661220060e+03,3.497805948809794359e+02,2.551247253714414001e+03,-6.529075473833620968e-01,5.381847756646389591e-01,5.329811270698477932e-01
7.011502793919233056e+01,2.341686644758457078e+03,1.444209550068864473e+03,6.255644172794415370e-02,-4.721860588676491388e-01,8.792764169528120011e-01
1.438690288140286384e+03,1.776650129417047992e+03,2.375558513804455743e+03,-5.277975242191376704e-02,-9.883271114351013242e-01,1.429119258026787798e-01
2.176681931160972908e+03,5.709921062890294934e+02,2.042066863361688547e+03,-1.935611054136075759e-01,-3.661337649445162157e-01,-9.102088577016903548e-01
2.699006660896743597e+03,7.965627722772943571e+02,1.144832653372600589e+03,-2.382288600336173456e-01,9.489710849165761131e-01,-2.066419372715511127e-01
1.475397752323968916e+03,1.704611018824532039e+03,1.988324227134650300e+03,-6.329617818302910731e-05,5.953940413937163223e-01,-8.034338376409420057e-01
1.523335383554732061e+03,2.431058079990189214e+01,2.803888802077276068e+03,-2.052021641908819694e-01,-2.945641456325324148e-01,-9.333402573119593537e-01
1.511309976556219965e+02,6.056671550343027093e+02,6.391273307176755907e+02,2.388856709434621917e-01,-8.343444416833236676e-01,-4.967927020901523605e-01
2.161503228768379813e+03,1.399229488572037326e+03,5.357515171265290519e+02,2.782883901897976187e-01,-1.348593723106276433e-02,-9.604028849303665183e-01
2.358590256017703723e+03,2.332221369756293825e+03,6.534049711052780367e+02,-1.806691293275873448e-03,3.395035516450662372e-01,-9.406030375705559665e-01
6.184437805157550656e+02,2.768322346687502886e+03,1.167117125112034500e+03,3.320238971954651407e-03,4.654435883976039690e-01,8.850713203085562863e-01
2.364718935139434052e+03,1.924995509113214666e+03,4.769951923633123556e+02,8.817338692993567095e-01,-4.707493956783562195e-01,3.066578221483129418e-02
2.334317377769063114e+03,1.645974726322213201e+03,1.610674891900104285e+03,3.746061344832384288e-01,4.922678324197336808e-02,-9.258763242567409346e-01
1.937256598433827435e+02,2.156981894685481222e+02,4.035288930153531055e+02,-6.966444304591354886e-01,2.078042796575351736e-01,-6.866614295752163644e-01
1.424198319162829875e+03,2.262845657774067604e+03,1.705945426280221682e+03,-9.451451536822987887e-01,-1.532848109846077223e-01,2.884517380642330764e-01
2.921489150229544066e+03,1.675895692048192586e+03,2.737461186767220624e+03,9.106843397522372818e-01,1.764940631163730844e-01,3.735021807362113311e-01
1.766737813910382897e+02,1.191123517879897008e+03,2.228716016467560166e+03,-1.189620056892705252e-01,9.901528370365586529e-01,7.379295705445132469e-02
2.599675685451055415e+03,2.377695144348684835e+02,7.690816987408983323e+02,-9.972258013657110398e-01,-3.436638858716333390e-03,-7.435651016468103336e-02
1.176222409719029201e+03,1.207893299472756780e+03,1.258916228394745531e+03,1.209450587088648117e-02,-7.825528014508091879e-01,6.224667347491185110e-01
1.702856761120003284e+03,2.571941350661063098e+03,2.976299963917726927e+03,-5.909040843498786222e-01,-8.062943711776360267e-01,2.686540723480668191e-02
1.602708693720654765e+03,1.244488355854105066e+03,2.060012986614212423e+03,3.722109441457697732e-01,8.700260965135369062e-01,3.232856390926335255e-01
2.669975504954129519e+03,1.434664398192421231e+03,1.945064565128395998e+03,-3.786615259283820922e-01,-2.613134843525925510e-01,-8.878798971015711139e-01
2.727870635597249020e+03,2.440318255348590355e+03,2.548487441120202675e+03,8.882200031702389698e-01,4.193976158143071786e-01,1.875389714633617644e-01
2.581680964462902466e+03,1.005975967823608244e+03,2.706200498361818973e+03,-4.628717112860734062e-01,8.655237445448041855e-01,-1.913594171193109261e-01
6.373490389458314667e+02,5.058316274562055810e+02,4.448957721285880211e+02,-8.054394593015106185e-01,-2.957579033004161806e-01,5.136093262738051779e-01
1.101399735952632000e+03,2.149983551762040861e+03,2.197285690131372576e+03,7.194675562489820653e-01,-6.396324033066266290e-01,-2.706230295915464379e-01
2.893874314674178549e+03,2.855068040968261585e+02,1.026209759735206262e+03,4.101365731005038318e-01,2.504503468050954806e-01,8.769621515154359948e-01
3.143777943411679985e+02,3.295220216296501548e+01,5.377672063848293504e+01,-8.548724847645621239e-01,5.160879960764084284e-01,-5.334993063069970454e-02
2.823530898838619123e+03,4.622944414351133560e+02,2.926984814418814040e+03,-4.262963637344466816e-01,-5.918909209228813140e-01,-6.840588775798849275e-01
2.845021503776774352e+03,2.144573468132270136e+03,6.167940854240257522e+02,-3.579669310335472088e-01,9.285561528922147145e-01,-9.819952755707994640e-02
6.300218119547558899e+02,2.655312059165276423e+03,2.622847261171332889e+02,-5.053549717656009984e-04,-9.782329170632999560e-01,-2.075092879612369934e-01
9.991412468832154445e+02,8.912035471298826224e+02,2.693637581375884565e+03,3.920572608805104053e-01,6.417211357863314980e-01,-6.591548286070367801e-01
2.410419872018753722e+03,1.751345484933331988e+02,1.114081599210449440e+03,7.879994246291389670e-01,2.510053059768235229e-01,5.621861285692018040e-01
5.111463601485623940e+02,1.930178648500385634e+03,1.479214103424536404e+02,1.843363572841504039e-01,-8.301050441218070786e-01,5.262563283294016125e-01
2.003238369160622597e+03,2.634026556838363831e+03,2.162748211679318956e+03,7.012093975675709467e-01,-6.930701631010898200e-01,-1.672098375752848753e-01
1.100472641052948802e+03,1.815481962632253726e+03,2.534568743275168345e+03,-3.934646864681239364e-01,7.764045630092070160e-01,-4.923225518306300619e-01
7.025377559081225627e+02,1.423182857606625930e+03,2.054911401278104222e+03,-3.290162685195473502e-01,-8.591600665028884531e-01,3.919085035773344772e-01
5.342197745852917024e+01,2.277651116969124359e+03,2.584488689687716487e+03,2.142232167018897904e-01,5.298298079209463607e-01,8.206026980606073717e-01
1.920365849339545093e+03,2.437235697937371697e+03,8.677961584359009066e+02,-6.767051511489491356e-01,1.842837191424055165e-01,7.128181039139795949e-01
1.950089332623074597e+03,7.243105524435371763e+02,6.910368995569448316e+02,1.964792900556137367e-01,3.708612247552562913e-01,-9.076661503836491729e-01
2.958514081615671330e+03,2.765297249603973796e+03,1.803677593713344095e+03,-9.568800976327409558e-01,-2.491849425019079523e-01,-1.492894610636561481e-01
8.542745321833796197e+02,1.125297670189997461e+03,1.868534579307930471e+03,-2.846173193929446565e-01,-9.280277401305579987e-01,-2.403278907029815781e-01
2.462424447520490958e+03,5.388955510491298355e+02,1.121418757107178124e+02,2.147536233816636081e-02,-7.373162730792650610e-01,6.752062812688779392e-01
6.802017177154266392e+02,2.896033021275927695e+03,2.325535396123477767e+03,1.440032193028463470e-01,-8.231126275656099889e-01,5.493165527930627956e-01
3.803424349327454479e+02,2.921538734831198326e+03,7.302333711072130882e+02,-5.995821383760524537e-01,-5.427652458310432415e-01,5.881387142999239259e-01
1.403058201642140375e+03,1.520271666623154033e+03,2.639723543276845248e+03,-5.934419760181141035e-01,-2.548958826320042031e-02,8.044730585854871219e-01
2.582673095794692472e+03,1.150427974142473659e+03,2.520067788332011787e+03,-5.429489947533351346e-01,7.451301528873898183e-01,3.872821250127072568e-01
2.205266522366527170e+03,1.684201665908012274e+03,2.703460075537680041e+03,6.706663145842317597e-01,7.385590070462502155e-01,6.882795647744677225e-02
1.398010773096089679e+03,1.856446144836686472e+02,1.490918341291777097e+03,-7.273492857055985361e-01,-5.651835717466298370e-02,6.839361753013455392e-01
2.156346543308616674e+03,1.168582486113836467e+03,1.748402645217485087e+03,-7.775285487422124719e-02,-6.023526352481286539e-01,7.944342618294751857e-01
2.620275356715207238e+01,1.470123409807962162e+03,3.536107624190663046e+02,-9.944919927994898545e-01,-1.013650563534969629e-01,2.666086285460101193e-02
1.060892520667181998e+03,4.298328799737583239e+01,1.454178892515417601e+03,1.223083255892460849e-02,-9.927152357430010232e-01,-1.198618682427135124e-01
4.612545647474644852e+02,2.177166733903321983e+03,1.913990106998668807e+03,-8.247979016859083301e-02,8.795653959310836267e-01,4.685742187683199500e-01
2.186199955834890716e+03,1.120630591280116278e+03,1.727949499164267991e+03,-2.944609298153283254e-03,7.734630068189510821e-01,6.338346048920557863e-01
1.510323115422645969e+03,2.135313004214013745e+03,2.078274939968906438e+03,4.083109240789510319e-01,9.120392237505534627e-01,3.829678339339936954e-02
2.107785220733388542e+03,2.965234309314503662e+03,2.739434621896197314e+03,-9.965485232743358512e-01,3.252117003411863355e-02,-7.637679136591481177e-02
2.515500709288283815e+03,2.230070413496822312e+03,1.776889013920180957e+02,-1.299655368834068923e-02,-8.650117113430159099e-01,5.015833219233400975e-01
1.480662173552267404e+02,6.940436046006897186e+02,1.719781985452274967e+03,6.737067594991951180e-01,3.632715857309318230e-01,-6.435471678172688392e-01
2.405046043497691244e+03,2.319246138528838401e+03,1.882135087804811292e+03,-8.680955397362742909e-01,2.362527822678909262e-01,-4.365715940835674935e-01
2.979038202309848657e+03,1.468306899798201357e+03,6.375607085225570927e+02,5.060985104983179994e-01,7.696250066996107586e-01,-3.892835043178791143e-01
9.970752075630440459e+01,8.765563243947750038e+01,9.964658213868451639e+02,6.151559913860615847e-01,7.425841784164867176e-01,-2.648619342739595983e-01
2.626064782910480062e+03,2.130754538360848073e+03,2.570620462359992871e+03,8.786832508121865670e-01,-2.753580357857686456e-02,-4.766104533719440761e-01
2.131932867641023222e+03,2.039571140327740977e+03,2.401869540290146233e+03,-1.839979953755812095e-02,9.879276061508985851e-01,1.538196748856683616e-01
1.816275514790995658e+02,7.146503422348537242e+02,1.681270467663345926e+03,4.760186077445092284e-02,-8.429925347934670299e-01,-5.358149392591580185e-01
1.882682821721764185e+03,1.197303622580354386e+03,2.487813742246028596e+03,3.749232451406268041e-01,-9.096969683989978295e-01,1.785608746027365079e-01
1.891598927773036849e+03,5.418037258004741261e+02,8.397183415796638428e+01,6.884970728028707576e-01,-2.264975752893320371e-01,6.889634454235811223e-01
2.889438964872781980e+03,3.323651076591989977e+02,7.987296011443529551e+02,9.420876857283774775e-02,6.281562013333368000e-02,-9.935687725523856262e-01
1.177275147098062234e+03,2.624979035916847806e+03,1.030691071033387971e+03,6.215102223391518743e-01,4.250100890391771413e-01,6.580968528589457023e-01
2.843463500847869000e+03,1.219283838382921203e+03,7.917388348096247910e+02,-9.624223909971560964e-01,1.883393285309353238e-01,-1.956308734219467660e-01
1.684247287603334371e+03,2.819223883287815170e+03,2.666254140142502820e+03,-6.537004203042959816e-01,-7.474780227863504489e-01,1.181201335310577694e-01
6.612357401156584729e+02,2.657417056646322635e+03,2.476602263632046572e+02,5.737730017061851706e-01,-7.766381788821764554e-01,-2.600340008838273875e-01
2.151644866062704295e+03,1.348515452218456403e+03,3.001226825104354816e+02,-9.544952790511719298e-01,2.911415649800229710e-01,6.461695915167010862e-02
2.801190265645233467e+03,2.561186531697195278e+03,1.176290553335587674e+03,5.443347079164418956e-01,4.879021120007107637e-01,-6.823864410015543225e-01
1.708797600882694496e+03,7.687694580209017658e+02,7.568344311791850032e+02,-7.840179158799360781e-01,7.694945298627961505e-02,-6.159502327821573253e-01
1.891107957369885298e+03,1.988358120511858033e+03,8.470190137625763782e+02,-8.984986067562042988e-01,-3.612188747316401605e-01,-2.494417330655951393e-01
2.903576298877175759e+03,1.150892033977006804e+03,2.360657053773817552e+03,-9.595223655912369365e-01,2.816150577153931911e-01,-3.128769431028466386e-03
2.439545144118646931e+03,2.067671550480370115e+03,2.761597372215600444e+03,-2.178857887257346637e-01,5.261346545206762627e-03,-9.759600920651907430e-01
1.658154261621859405e+03,1.983242595436305237e+03,2.256702783402643036e+03,3.826002488104618959e-01,8.011697422376535815e-01,-4.601565969678413914e-01
4.314509889849583715e+02,2.885579945481053528e+03,1.163107310374855160e+03,1.396563973446887374e-01,6.514475664292268542e-01,-7.457292798825458924e-01
2.936143998939654921e+03,2.136091521492687207e+03,2.437375277471441223e+03,-9.150328330282603284e-01,-3.044205478201689186e-01,-2.646564651489629605e-01
1.909646195453251948e+03,1.552842888644767754e+03,1.295981083402241893e+03,5.233383133941553744e-01,-4.438595590091935494e-01,7.273965229569943070e-01
2.772375233060078699e+03,2.986742300364344374e+03,2.001071444898252594e+03,-7.332737384046501827e-03,6.748501048010919767e-01,-7.379184013238940798e-01
1.783519190795996963e+02,2.016447483559934653e+03,2.819572956081364282e+03,-3.567876943817537005e-02,-7.580552502096140621e-01,-6.512136846235779819e-01
2.059273579109705224e+03,2.889038398759992674e+02,8.729645862918616785e+02,3.643457792227382253e-02,-7.837773198327013802e-01,6.199722852253098937e-01
2.792758159407538642e+03,2.764490269667912798e+03,1.323814362549881253e+03,3.015805374639512690e-02,8.822494828429765235e-02,9.956439375070099684e-01
1.491634935282487731e+03,9.461005835003334141e+02,1.047045934816076169e+03,1.312017099421302901e-01,7.760920408372750101e-01,6.168202780853550005e-01
1.637958466763256638e+03,1.657677520812404282e+03,2.922555361292669659e+03,-2.094390292316761770e-01,-4.989987771270707438e-03,9.778089757496275514e-01
1.036518923647821111e+03,6.737294503705859583e+00,6.489004607135703964e+02,-5.636976094476419119e-01,3.688029421293253507e-01,7.390733353191463184e-01
1.733926675632775869e+03,9.915182201246680052e+02,1.745990234246874593e+02,-6.399569653681268511e-01,7.487676351289779264e-01,1.726328794296612124e-01
2.999667528638156909e+03,2.336842132667698024e+03,3.308469452221075358e+02,3.209238902140023608e-01,5.397351010218914835e-01,7.782633727825045700e-01
5.130527298723166041e+02,5.956859650683011296e+02,1.901507532320227256e+03,7.673188052606342291e-01,-4.505656244382601483e-01,-4.563030453196139646e-01
2.000690105222340378e+02,1.021920204494569816e+03,1.673510310409049680e+03,8.143320976989157356e-02,-9.736191550400375982e-01,2.131534031764352743e-01
1.862181378448945907e+03,2.365593177534429287e+03,2.543014433017052852e+03,-2.141897389869936164e-01,-2.104364341984124864e-01,-9.538549485506382375e-01
1.769218880396655322e+03,7.185320475630830970e+02,2.454314758517344671e+03,3.606519073656614949e-01,-4.055102750599491879e-01,-8.399354847452956685e-01
9.190107498853242305e+02,6.527159311601631089e+02,1.065064178896220142e+02,3.984712017275133245e-01,-7.436802128065751472e-01,-5.368057772358625357e-01
2.173688981378014887e+03,9.790367127747450695e+02,1.906365998902693264e+03,2.796567883276475097e-01,2.626886109004770153e-01,9.234645496419682242e-01
1.248137866044531620e+03,1.748633619851927051e+03,2.514735259004008185e+03,-6.528791179658829380e-01,1.724976624220092292e-01,7.375590917228485033e-01
2.828264720962895808e+03,6.266832077008281203e+02,1.835005485884264999e+03,-1.387398854941055970e-01,-5.086482781868011394e-01,-8.497224095377766684e-01
1.442901423767366396e+03,7.983863627920734416e+02,2.665327602434444998e+03,7.707683108892435797e-01,3.786710362065572322e-01,5.123714055909001086e-01
7.685681053237684637e+02,1.359770966896907566e+03,9.070129399415633316e+02,8.863747615733734708e-01,5.388887004391784002e-02,4.598214563622875506e-01
7.261508021387867302e+02,3.406857270952816634e+02,1.007987440916472451e+03,1.149055273288362988e-01,-9.787821768354794116e-01,-1.696530875005890782e-01
1.470696190529002251e+03,1.935884505790828825e+03,8.574655229774116378e+02,5.506465805981650696e-01,5.889468501252769217e-01,5.915487731396822380e-01
8.571054356096799438e+02,7.393130650740721421e+02,3.447865448846521303e+02,-8.251471815239297403e-01,-5.064434511840056885e-01,2.502941461080316898e-01
1.694845877853232651e+03,2.370926905947439536e+03,2.239115750801721333e+03,-4.490133986283073031e-01,-6.290497545228719289e-01,-6.345733796709183139e-01
1.563546975972354630e+03,1.268416294286368384e+03,2.079997720251892133e+03,-5.902071825720054885e-03,3.344729186398727738e-01,-9.423868803441021180e-01
4.628939890773433490e+02,2.038659468725398028e+03,1.126737866259995826e+03,-4.371692637852724328e-01,-8.095954742195586862e-01,-3.917118876478615785e-01
1.305116256554784741e+03,2.625346303070643444e+03,9.035642781538566481e+00,-4.901069855910366591e-01,4.291977555996506211e-01,-7.586728077788804647e-01
1.698548218021304592e+03,2.144906723727951430e+03,1.087682614213221086e+03,1.259504996785497377e-01,-5.878614966821882337e-01,7.990965726051521001e-01
1.585164650113397101e+03,9.088679250405473908e+01,2.242143145097136312e+03,1.187578117730703209e-01,1.279540818083990394e-01,9.846442682976637162e-01
1.588091062302459477e+03,5.971426279938966672e+02,2.139405705385657711e+03,6.936030536951592884e-01,-5.206023116337659719e-03,7.203386017895072602e-01
6.833531860596965544e+02,2.895978725849914213e+02,1.076558510711872032e+03,-1.456518593590090671e-01,-2.097049976573929497e-02,9.891136304817756963e-01
2.617252879101077724e+03,1.531222538483623339e+03,1.202314941259029411e+03,5.804146778981093824e-02,6.601234992201374663e-01,-7.489113123689383755e-01
8.737436237308159548e+00,1.085523349756108928e+03,2.790522795845107566e+02,9.155972571535311300e-01,4.018104372060549712e-01,-1.516691284374083182e-02
1.437204161217625142e+03,2.234011897039576979e+03,1.663250600393236937e+03,-4.917628071063644968e-01,-3.356249951016083283e-02,-8.700821226605561787e-01
3.772779068420772930e+00,1.515547628689640533e+03,1.085783445338028287e+03,7.817238365311464099e-01,6.907171041568314906e-02,-6.197878203218238902e-01
2.005235073931653460e+03,2.693989491719420926e+02,8.592650970316590247e+02,8.652989395512203918e-01,4.577832210659499856e-01,2.041868451247950134e-01
2.498660600361803517e+03,1.510649420944657777e+03,1.787521565988985685e+03,-7.420227896092519426e-01,-6.129042081229182370e-01,-2.715706378932052356e-01
1.532727419420022443e+03,1.228308764011511812e+03,1.095940712082630398e+03,-3.513662488528954825e-02,9.963989604090859320e-01,7.716559652697199678e-02
1.937146944691324052e+03,1.240384702530528784e+03,1.835140478395553600e+03,5.031768754756443807e-02,-4.055416225245784267e-01,9.126905952840743685e-01
2.106681632571034243e+03,1.910926819550131768e+03,1.729030227092328460e+03,-6.313037381580860474e-02,-5.773711273711021885e-01,8.140375526842106302e-01
5.136388911277368834e+02,6.187712444881115061e+02,1.507321538492171385e+03,-1.827290189806974816e-02,-9.071623763850258371e-01,-4.203837817134438715e-01
4.121963121733734852e+02,2.043451484390795713e+03,6.832796199722546149e+00,8.663619225529393120e-01,3.539038084820022023e-01,3.523763804404449473e-01
1.437970553992002806e+03,6.512412838871188114e+02,1.579438175610453754e+03,-2.192642531202195766e-01,9.575774191648919187e-01,-1.869991272951216921e-01
2.109717682523496023e+03,2.494343951525605974e+02,2.003825789718395981e+03,5.461469557909326422e-01,4.221796941048835961e-01,7.235245735742525941e-01
1.208407532907753875e+03,1.382376654916843336e+03,0.000000000000000000e+00,-5.419204163566855303e-01,-3.593423281799012492e-01,-7.597337385650612118e-01
2.570068222431996219e+03,2.672325159389192322e+03,1.738579322703682237e+03,1.090554222749584162e-01,7.876844433066299001e-01,-6.063498434444881680e-01
2.508165310946935278e+03,6.702893560902964509e+02,2.646150188648693529e+03,3.303087150955090756e-01,9.430987362798743945e-01,-3.822206639178316739e-02
1.508847439603601117e+02,2.802218659020776613e+03,6.262989012655394845e+02,-4.604421314291794881e-02,-9.850156233512759041e-01,1.662051509128012194e-01
7.967557590592963379e+02,3.760307136578315976e+02,1.148622032483761586e+03,-2.700211983402014404e-01,2.393274736112845635e-01,9.326365384337895748e-01
6.246731015720714595e+02,2.756045295145262571e+03,6.469784547320106185e+02,3.706428433654051502e-01,-7.288845109388922827e-01,-5.756311773830353751e-01
4.972623475975389624e+02,1.752734774081303613e+03,8.612735431523664147e+02,-6.640640715871712896e-01,-3.388795747737642916e-01,-6.664679606914505339e-01
1.202977190094698472e+03,2.143939776641920162e+03,1.983096790883694666e+03,-9.667119603820434337e-01,-1.813132136081542223e-01,1.805367115724396676e-01
1.405822389523334323e+03,1.678716863486962211e+03,8.761620707483542674e+02,-8.292561311627690834e-01,-2.938208175129314870e-01,4.753983551980265898e-01
1.182760189479528066e+02,1.576156300736299727e+03,6.955188496420918227e+02,-3.568887134756682511e-01,-9.197081843484183894e-01,1.636071570446053780e-01
1.920980474916405001e+02,1.951498751770154058e+03,1.818349577532605281e+03,8.235341756890048881e-01,4.719794653970763587e-01,-3.146853122020812354e-01
1.450842689171373650e+03,2.760635058810719784e+03,2.792310918649068867e+02,-6.111699395579515970e-02,-3.468159536574964563e-01,9.359398524149127319e-01
1.600084095817241177e+03,1.892094205540178109e+03,2.516411248823339974e+03,-9.995210135154789510e-01,-2.911185463911473287e-02,1.049968858876249196e-02
9.848501850034487006e+02,1.239097478099077989e+03,4.199392431251898188e+02,-7.626444409823290860e-01,3.688097292698197527e-01,-5.313688363412678584e-01
9.756483317502301134e+02,1.881015223580127895e+03,2.569854634291177263e+03,-8.308579419120087906e-01,3.921057447740119439e-01,-3.948774053766035408e-01
1.998093362295400084e+03,1.310712326755192407e+03,8.348094211486918539e+02,-1.494128419209980589e-04,9.842911546136654533e-01,1.765528267264504791e-01
3.706757387688371068e+02,2.145866736990441041e+03,4.758262951043870999e+02,6.107555842226684018e-01,-6.289452125487605683e-01,-4.810462929415647015e-01
2.149720699209558461e+03,2.073232523181870420e+03,1.879152299539035766e+03,-4.401366539472107431e-01,-5.122894708709857525e-01,7.374545571673407629e-01
4.988198400671744821e+02,2.688014983953374212e+03,1.684817400167959022e+03,4.649464103947894555e-01,8.738195882143935389e-01,1.423522487136319459e-01
3.006070109329200477e+02,8.605565707080472748e+01,7.823515285621590465e+01,-1.971230821263169064e-01,1.894877552424814940e-02,-9.801956102733541121e-01
2.670544037622667929e+03,7.072051042538463150e+01,9.115878037879361955e+02,7.390808043444663245e-01,-6.679403329677673362e-01,8.726555015838033391e-02
1.498632183667879644e+03,8.155640435491593507e+02,1.532292990692439162e+03,7.690919628348317216e-01,1.048570034772240527e-02,6.390521127350128339e-01
1.696236391261463723e+03,2.146757173415950092e+03,1.167856887290586883e+03,8.405304301980168757e-01,-1.177350016118435677e-01,-5.288166651180690181e-01
4.130787349943274762e+02,2.075345554867814371e+03,2.385435623639880760e+03,1.572010827524573107e-01,-1.544849760063332633e-01,-9.754087408721421326e-01
2.814557721079172552e+02,1.065540237763169671e+03,6.000906168966401992e+02,4.310378940373934542e-01,-6.076561189392672840e-02,-9.002854404659477172e-01
2.293237989952405655e+02,7.700781835849462595e+02,1.004383725497626870e+03,-3.400014255019185860e-01,7.343427413502131573e-01,5.874859733499322445e-01
1.032430346507357172e+03,1.692404015002473670e+03,2.490513565447890585e+02,-3.303034800275539418e-01,-9.058193497164687136e-01,-2.653128658036039145e-01
2.765377905350712808e+03,1.912875775450281935e+03,7.999727116265200948e+02,-3.205979383844245190e-01,7.422946849198843733e-01,-5.884008520076652315e-01
8.848082816473533967e+02,1.170397774248994210e+03,1.451720370832993012e+03,6.943243407018349078e-01,9.664254364357437177e-02,-7.131436942629880704e-01
8.906945509097324702e+02,2.405135507745852919e+03,2.943403432346122486e+02,-5.523578570078817584e-01,-4.512364358616720583e-01,7.009183096142628244e-01
6.594659910643804324e+02,5.107206823494084915e+02,4.026749947411653352e+02,-1.693596214506697117e-01,7.850277622306709446e-01,5.958596572593172214e-01
2.509881244673811580e+03,6.792472718594299295e+02,9.798835859377115867e+02,-1.042127358175940627e-01,7.475727478200732135e-01,6.559532699896827301e-01
5.861448992048506170e+02,1.305842235523007275e+03,2.828014704948720009e+03,-1.159886781386300636e-01,-6.907485912718991372e-01,7.137317494686222785e-01
5.352018638001322870e+02,1.352386674371842901e+03,1.227482035397657228e+03,7.362730753355916091e-01,8.941653750995791350e-02,-6.707508042153960126e-01
3.000000000000000000e+03,3.982824270234968935e+02,2.474922435167222829e+03,-3.228759103324845090e-03,5.623288615383654765e-01,-8.269073869518995812e-01
2.418779244413473407e+03,8.268283960789341336e+02,2.202910084051182821e+03,-2.093567585008150045e-01,-1.974309109188075173e-01,9.577007795150849212e-01
1.299469329686896799e+03,1.399685017401622190e+03,5.976407557114937674e+01,4.296548022009669815e-02,-6.781861540202638317e-01,-7.336330881337478349e-01
4.530457023312328602e+02,1.197771163982192775e+03,7.576214236849508552e+02,-9.441702100389250465e-03,2.387070834062707259e-01,9.710457160160479440e-01
1.129117576596374192e+03,2.663165429156681512e+03,4.952443927904084262e+02,-5.008140850531034999e-02,9.258497650786907673e-01,-3.745584934637813945e-01
1.119121828165896432e+03,2.716267118702845437e+03,2.023848002714527638e+03,9.834341035307545553e-01,1.638069116617526244e-01,-7.761868141433536650e-02
5.478215146717950574e+02,2.099751909705670641e+03,2.732516869689178748e+03,-7.609152266278573773e-01,7.332793237102300243e-02,6.446945262836245583e-01
2.637248996679742959e+03,1.002769571928101641e+03,4.225656000061219970e+02,5.475222208021839343e-01,-4.551037076956374605e-01,-7.022108180379509346e-01
2.856709804887315386e+03,1.978265905455303084e+02,1.200835887105629809e+03,-3.809231452252674899e-01,-8.618061041962488122e-01,-3.349444673401460459e-01
1.240204878908636061e+02,2.050679346309943867e+03,5.808219072381939441e+02,-8.241960545303205210e-01,1.394810123353460440e-01,5.488587349168818630e-01
7.374000375157875169e+02,2.221096517390151348e+03,8.830312238974479442e+02,2.564056375550002875e-01,7.222227797976672470e-01,-6.423787086846388661e-01
2.984940350134570963e+03,9.264474550019431263e+02,1.780653147382216275e+03,-5.736385430934336270e-04,-4.495709625416873245e-01,8.932444349550477947e-01
2.840604462327486999e+03,6.808562225571233739e+02,8.713731707347188831e+02,-8.931787772614946386e-02,-9.934703656670229588e-01,-7.098555669943258650e-02
2.338926667709245521e+03,2.804939870613845869e+03,2.846248093891576900e+03,-5.940274705716706016e-01,7.668063441802643434e-04,-8.044443897587039149e-01
1.135995327760961118e+03,2.634952407916873199e+03,1.999657287884299194e+03,5.873825913794393783e-01,-2.983877217161159390e-01,7.522941305589458949e-01
1.872630484500593866e+03,2.955972039273646715e+03,2.883562055535468517e+03,6.161638899201687947e-01,-7.852070041510775811e-01,6.157939095619324732e-02
2.039146637355206622e+03,2.723745792411094953e+03,1.396505272020961911e+03,-2.614837510727949232e-01,-9.648197152403809040e-01,2.737087883811973113e-02
1.148617514135869897e+03,1.518954073636667317e+03,6.319200598978012522e+02,6.504071782795737278e-01,-5.930202104850109540e-02,7.572673060036105852e-01
4.054742652650206196e+02,1.620520434435279867e+03,2.164735838249789595e+03,3.975175099887655605e-01,5.903307818860352718e-01,-7.024880050293769163e-01
2.151320586470567378e+03,2.267468232135548078e+03,1.724897024534759794e+03,-8.969822910942738536e-01,-3.450458699140501739e-01,2.763442004430776699e-01
2.699403988634975121e+03,2.692693129299685552e+03,9.653999290542263907e+02,-3.811823481513570422e-01,6.438070976560440473e-01,6.634850702657284494e-01
2.040175087979924228e+03,1.541639153607397361e+02,7.702532792829106256e+02,2.233155183894713815e-03,5.632786578997929228e-01,8.262639811661479650e-01
2.449321903778304659e+03,1.073174106058720099e+03,1.856684640065240274e+03,-4.308817958475426035e-01,8.604679649963786758e-01,-2.719113076394350514e-01
1.170085184327108209e+03,8.493428092797041700e+02,3.911691831784942224e+02,2.227149683681001746e-01,3.780581039420853329e-01,-8.985934080041493299e-01
8.166501994709281007e+02,2.880033432207807891e+03,2.940442173807886320e+03,2.754134573645866581e-03,4.028911944688955971e-01,9.152437381168891939e-01
1.662235864163778842e+03,2.881203936144752333e+03,1.959603037059054486e+03,-4.369485219616412452e-01,8.098909094305674072e-01,3.913472933051480585e-01
3.855413104202547174e+02,2.218753637882021849e+03,1.969460659797400467e+03,-4.886063330974949603e-01,7.448450111588182931e-01,-4.543894371668864562e-01
8.267819069147268465e+02,1.249169685286460890e+03,7.310751778343704643e+01,-7.377751534049526994e-01,4.949382500360522408e-01,4.590467859266076367e-01
2.182242175841308381e+03,2.504308294462598951e+03,2.231029484623815733e+03,-1.589590410797624975e-01,6.749825253078987064e-01,7.205071920445862421e-01
5.625918168890848392e+02,1.125352545755378742e+03,1.006000856267025142e+03,1.113263364104403880e-01,8.614643356742415214e-01,-4.954650796804626611e-01
9.694658634187907182e+02,4.543835829906196295e+02,2.741540256954927827e+03,8.860747008297789051e-01,3.108125569438547342e-01,3.438999549221268826e-01
3.955794406701688217e+02,4.891749959899163400e+02,9.455556881125791051e+02,2.444766396945091680e-01,-9.692933345766154840e-01,2.648781208455353031e-02
1.432804046097224273e+03,1.321165082502026053e+03,6.392152775981194281e+02,3.045105504920088690e-01,1.497248347234781118e-01,-9.406677407597652252e-01
9.332397122478886331e+02,1.195526955572426914e+03,1.482387510715947428e+03,-1.266334402352585660e-02,-9.589084233555411618e-01,-2.834330173708282108e-01
2.057681662589523967e+03,1.459304489530924229e+03,2.910522107706017778e+03,-1.321619901556293775e-01,-3.035714869672264671e-01,9.435981987364168155e-01
1.318880837919796704e+03,1.883753157669051916e+03,1.774832328074305678e+03,-6.196015582909549652e-02,-2.021427402413726940e-02,-9.978739009590897879e-01
1.059025705048050668e+03,1.483072864096113364e+01,2.983567637044344337e+03,2.359279466635734457e-02,-4.065473945746698736e-01,-9.133250221057007678e-01
2.426086798833749071e+03,8.328680119782125075e+02,1.936653256457867201e+03,1.962775865257512797e-01,4.286877518606700965e-01,8.818740955670887338e-01
2.080768843099361220e+03,2.129682501266021973e+03,2.283797936518073129e+03,3.616350398103654329e-01,1.731998722278537683e-01,-9.160905535161960600e-01
5.336067691418885488e+02,2.650336197264576185e+03,1.315145675021710304e+03,5.993460410268189320e-02,-8.372228192314891126e-01,5.435676537369861228e-01
2.179489396445998409e+03,2.666840493634638278e+03,2.609970701195885340e+03,5.202399280636041956e-01,4.387620438424170710e-01,7.326924908388243729e-01
2.239940595914656114e+03,3.058343591462041786e+02,1.088501214353056184e+03,6.336359783677191215e-01,-4.759816053585351758e-01,6.098745430646330679e-01
2.939875843725651066e+03,1.732860156689413088e+03,2.679984968998155637e+03,-7.080552032212429348e-01,7.037064774375821896e-01,-5.877944201601504465e-02
1.024393777998840051e+03,2.690388199506215642e+03,1.921904149438415288e+03,-7.815571496942880225e-02,3.859836083097737958e-01,-9.191889568167062041e-01
9.645916200010935881e+02,1.445388231327119456e+03,2.762956905862238727e+03,-3.332115825526701380e-01,1.533843122946216553e-01,9.302920476896763269e-01
1.747940644524310528e+03,1.346685625027774222e+03,3.772035157205730798e+02,-1.186281058993759463e-01,-9.505472288132461589e-01,2.870319464557645195e-01
2.906376071465342193e+03,2.414500700882292676e+02,1.141488661852544965e+03,-2.991545116213140121e-01,7.326039698476954909e-01,-6.113902203503176480e-01
2.715550741192108489e+03,4.503293352489157542e+01,1.204111702178531232e+03,6.260574487704604341e-01,-7.797448242657797346e-01,7.076713202509576917e-03
1.668383143497667788e+03,1.805688062421043014e+03,5.863375030654934790e+02,1.659347364815209058e-01,8.124421063551598987e-01,-5.589306639020616974e-01
6.684563790519287068e+02,1.250633531426303989e+03,2.666346834094093083e+03,-9.353955662377243241e-02,-7.248226954888358220e-01,-6.825557936542084869e-01
3.501114406283081166e+02,7.019080971381196150e+02,2.284505315270876054e+03,7.252802804163570594e-01,1.478838981765508154e-01,-6.723829768065802126e-01
2.222737014710054154e+03,2.685625498967469412e+03,2.634690932119996887e+03,6.306641882579986369e-01,3.987070451937494986e-01,6.658043059050828827e-01
2.815095141294314544e+03,1.550789430847024505e+03,8.364369433841472983e+02,-5.933329031394970476e-01,2.019811144096316652e-02,-8.047037357601085628e-01
1.532149933597110021e+03,8.886757104233097380e+02,1.614057289249766882e+03,3.133786466629574496e-01,-9.291034997308130761e-01,-1.963683034597190069e-01
2.210663501609504692e+03,7.206688677786789867e+02,1.169882903882755954e+03,3.578440545449054766e-02,-4.019801463956929055e-01,9.149488719212488519e-01
1.557463031403686045e+03,2.136502145941851268e+03,2.097818555056470359e+03,-1.385332079973330688e-01,-9.894858505368541168e-01,-4.154878902358220827e-02
2.157818569563381061e+03,2.938315981249714923e+02,2.254505033633447056e+03,-5.958924929449446184e-01,7.821663774469747032e-01,1.820106998045327718e-01
1.842206759420307435e+03,2.012928602677976997e+01,5.182709251580172349e+02,4.231221082160632752e-01,-8.583368090542146944e-02,-9.019979272487383959e-01
1.425908280484041597e+03,2.638346226532673882e+03,1.756056447294969757e+03,-1.884637585246052294e-01,9.305121600205071841e-01,3.140517979199441978e-01
9.425548968846079561e+02,3.405497136800503881e+02,1.042425779322729340e+03,7.882726089911492595e-01,-5.151296082086496142e-01,-3.365527903035275270e-01
1.448644006128535239e+03,2.621726562970544819e+03,1.553113928001535896e+03,1.932672320347137707e-01,-4.252604432027717873e-01,8.841953022203987711e-01
2.431758772339509505e+03,2.670734144791839753e+03,2.622886133460520455e+02,8.322413646402901932e-01,5.405440663140004265e-01,-1.232332071902424442e-01
1.737149315392609196e+03,6.931149797157221428e+02,7.697614418814957844e+02,-9.687828579992772138e-01,1.436803065608362739e-01,2.020290661101427077e-01
2.182871268068518020e+03,1.391102028356528081e+03,2.347076765439752307e+03,-1.591705058999039746e-01,-9.806054386886730034e-01,-1.143578753989593633e-01
5.990446804318916207e+01,4.968818942164198234e+02,9.182945355582912725e+02,2.005855905269761028e-02,8.812324891084998280e-01,-4.722572967656162302e-01
2.009832031572931328e+03,1.665632503572739324e+03,2.860252942817472558e+03,-6.328063531063048419e-01,-7.653084191466928976e-01,-1.177248616541488602e-01
1.447168668551382325e+03,7.978643093466481560e+02,1.538303161696123425e+03,-1.673541902232173195e-01,9.736250481862837036e-01,-1.550704374114805217e-01
1.628482715973480595e+02,1.000999278731226013e+03,1.008636728528963999e+03,-2.052409965937222400e-02,-9.565543532212187339e-01,-2.908307594920249706e-01
1.318655241343078842e+03,7.654973892912298084e+01,2.167052868321438382e+03,-5.952613922166307692e-01,-4.611731996492204194e-02,8.022076213397449918e-01
2.110398460150946903e+03,1.311984432229828144e+03,2.109297992735761909e+03,4.389967708693924830e-01,8.960502035365836004e-01,6.615034322128156286e-02
3.210335432116480092e-01,1.751659959095336944e+03,8.131356876534932780e+02,-2.541988803767404256e-02,-7.556713700488426610e-01,-6.544574927225276229e-01
1.549275748056249995e+03,2.487228847156752181e+03,7.088012583173339181e+02,-2.848998378607263682e-01,-8.334266078140162293e-01,4.735315953287107527e-01
4.928456790546671300e+02,2.029380388331569804e+02,4.140942680955196238e+02,-6.890626377771129629e-01,-3.716372921109145633e-01,-6.221562539524247981e-01
1.360724886393641555e+03,2.488431775525074499e+03,7.483883177647762750e+02,-3.522758623832562136e-02,-9.490956581186547059e-01,3.130118989881041092e-01
1.399723602291034240e+03,2.548587473382886401e+03,2.052733026557642461e+03,2.285823514914620824e-01,5.308644947855932772e-01,8.160471780250639906e-01
1.244511087536426203e+03,1.026572789534976437e+03,2.765706984978418859e+03,7.172197326281575247e-01,-6.543083396205155999e-01,-2.397424698125849574e-01
2.631435418669655519e+03,8.784361315657741898e+02,2.945706790492088658e+03,-2.015085394767932025e-01,7.938059616748117664e-01,5.738173958041503653e-01
2.551225485094804299e+03,2.317299800997335524e+02,7.503845092180852134e+02,6.416276679470277189e-02,-3.511780528072663902e-05,-9.979394461208497269e-01
1.712403263344820289e+03,2.881110536116705134e+03,2.297554594570214590e+02,-5.256529652353547633e-01,-6.004464079188425174e-01,6.026218311317952381e-01
1.300327554636957075e+03,6.360507315688557384e+01,1.011154969456737945e+03,-7.174623366453122264e-01,-6.418922741779423125e-02,-6.936335765942673870e-01
1.909482603234505632e+03,9.725879105359142613e+02,1.714336795150230728e+03,7.189717095754269982e-01,3.883673281902436103e-01,5.764117445234433479e-01
1.835874834548524859e+03,6.787681126714188622e+02,1.682579533036798239e+03,-1.016087109300276153e-01,9.892294745773687614e-01,-1.053599377871919929e-01
4.551915796296411827e+02,1.478844135841270599e+02,2.909629002233028586e+03,-8.171285479551884667e-02,-7.236772565772531252e-01,-6.852840561942084019e-01
3.808000680002969034e+02,2.068279962887624606e+03,0.000000000000000000e+00,-2.149753014925844252e-01,5.956930720958976133e-01,-7.739091572045935230e-01
1.666645960151971053e+02,9.993259633383651135e+02,1.179320951307486212e+03,-2.941639354795640982e-01,-9.530167018319720684e-01,-7.229623152339947900e-02
2.197897967428999436e+03,1.090204762858409140e+03,2.968409887343805622e+03,8.730740345461291962e-01,3.068245780207379259e-01,-3.789464454560045326e-01
1.491698904038458068e+03,2.879418780138670627e+03,1.449980762591119628e+03,7.285486038896171745e-01,4.623955687746469922e-01,5.053783431727764119e-01
2.666506664011332305e+03,5.395241452088567939e+02,2.020097264078399803e+03,-6.782830643220234546e-01,-2.193383521181773155e-01,-7.013007713841533652e-01
2.314409550530554043e+03,2.147292154785228377e+03,1.885873674675734264e+03,-5.516603969615541114e-01,-7.939853525508029364e-01,2.554565840979595159e-01
