x,y,z,nx,ny,nz
1.060222479562084345e+03,1.679173909985737964e+03,2.710882653578389636e+03,3.258986804725568232e-01,-9.413033607542252712e-01,-8.796609062046202576e-02
2.771419108795585998e+03,2.416144370965388134e+03,1.319771068276056894e+03,-2.954212734553071651e-01,9.373368528851963033e-01,1.847319555824616100e-01
4.260551087118669500e+01,2.259640636778500266e+03,1.452979848828450031e+03,-9.696970512782691065e-01,-2.327297186530138673e-01,7.432702602633289857e-02
1.540338917112335594e+03,9.723395996887961701e+01,1.309307277728495819e+03,8.822153770099880887e-01,-1.648601270760439441e-01,-4.410410038393202115e-01
2.829347399430041037e+02,6.637853759571278260e+02,1.697042235928557545e+02,3.711389828293918391e-01,6.136632091820116708e-01,6.969026625869634284e-01
1.889651269750485881e+03,2.613095801166783986e+03,1.666769627375356322e+03,-1.678038125777960854e-01,-5.122880868789440045e-01,8.422605277028405446e-01
1.881758938901524516e+03,1.553079362741186060e+03,1.637733911138031544e+03,-2.412886331562479059e-01,-7.459513946728127953e-01,6.207546313119822745e-01
2.976606721309104273e+02,2.683150179401730838e+03,3.929400636262339503e+02,3.832883298327146027e-01,8.560669990744905755e-01,3.467554603890823928e-01
2.808439641288762687e+03,2.956359514124771977e+03,8.172057217444748289e+01,-4.533634614443949329e-01,-3.288339048419440247e-01,-8.284502609412082164e-01
2.400845683188372732e+03,9.477687137458271991e+02,1.477403956641357127e+03,-5.955094981484452266e-01,-5.077010543454608671e-01,6.225817834080067392e-01
5.307126670812823477e+02,1.192956269541300344e+03,1.455637961190354645e+03,-4.118056385307254652e-02,1.887092772377333971e-01,9.811691851282098309e-01
6.617265405463324441e+02,6.344020330705586730e+02,2.281430717242847095e+02,-2.084596148500377222e-01,9.399706746465975593e-01,-2.701846031530927839e-01
2.483006347018799261e+03,1.657060283689390872e+03,1.526698699718703836e+02,7.061515686285125930e-03,1.007927018720979201e-01,9.948823881472296238e-01
1.568934511905100862e+03,2.707030131403334508e+03,1.472267140254415608e+03,3.683725848235884226e-01,-5.505464035454961103e-01,7.491330297707531338e-01
1.119833633594484809e+03,2.436560927246954179e+03,1.585154090168638731e+03,2.296673704933838156e-01,-8.315537393842710179e-01,-5.057383487997431093e-01
1.195140164255370507e+00,6.939567568671975550e+02,2.980110866887442626e+03,1.740841488169348195e-01,9.338628949337279828e-01,3.124016686842124302e-01
2.060810694665456595e+03,1.922228309810573819e+03,2.116455501656293450e+02,5.904492817944647642e-01,-6.221735007279189933e-01,-5.140717660214058071e-01
5.034480179522502681e+02,8.957683838296378553e+02,1.688166086206940690e+03,2.317271875783905311e-01,7.211346323122215241e-01,6.528915320456580851e-01
3.249130581392407748e+02,1.678288958273477363e+02,1.055011667610170434e+03,-3.299533326741900252e-01,-1.896719043251376136e-01,-9.247461094629547684e-01
1.381450769954214365e+03,2.223350561173585902e+03,1.503074893242245480e+03,1.109563256210194526e-01,9.076906748268531722e-01,4.047052416723240231e-01
1.504911606016198903e+03,2.116106489727083044e+03,1.340093370949167593e+03,9.660711223233091616e-01,2.580027582109797879e-01,1.188121915076267854e-02
4.268625065919733288e+02,4.274875409536369375e+02,1.300051207678634910e+03,-5.454517091092216940e-01,8.241648234892096081e-01,1.524295796518146950e-01
2.224231250939854363e+03,2.889274718348808165e+03,2.200926857851517070e+03,2.883679770368448025e-01,-4.487151130775827168e-01,-8.458715370051470561e-01
1.308936145797746576e+03,2.786588397963837906e+03,7.895403109096336038e+02,5.132335438543087630e-02,-6.661010014075191554e-01,-7.440936562144093713e-01
2.035404877184141469e+03,9.152934484551377636e+02,1.314728595287797816e+03,7.737981557308855340e-02,-7.896020225976518869e-01,-6.087207981099150844e-01
6.213302877221165090e+02,1.556950992987135578e+03,1.613962906853206732e+03,-3.219255493224925102e-01,8.526984170465392587e-01,-4.114235655133742786e-01
1.261206041791141615e+03,9.710682409762916905e+02,1.858470375783498866e+03,-6.937230188339287285e-01,3.210165910704177589e-02,7.195261333839904072e-01
9.921867330754340628e+02,2.813802236233898839e+03,1.124683021683348443e+03,9.583314777409681628e-01,-8.849750526941817241e-02,2.716044372463408685e-01
9.438929344463348343e+02,6.937071658244190075e+02,2.767096257453790713e+03,9.386401747368130488e-01,3.293854300422126569e-01,1.022734611028291024e-01
3.000000000000000000e+03,2.258124543015223935e+02,2.209117076926039772e+03,6.506868238488892550e-03,-5.669410092040448879e-01,8.237326949614335314e-01
1.906341147889681224e+03,1.936329965416562345e+03,1.912756753741902230e+03,-5.296452919501841716e-01,-3.333951494929848769e-02,8.475637683725925076e-01
9.983494735470993646e+02,1.167580112093554590e+03,5.214313275108836478e+02,5.261972351525890934e-01,8.441197256888192113e-01,-1.028511469104920334e-01
2.387680405619983958e+03,1.834356409193585705e+03,1.987042046109641660e+03,6.509496946423789510e-01,6.236753697663648399e-01,4.327742231138331785e-01
8.127014351632996068e+02,7.915402261611581558e+00,1.018202427319990420e+03,6.531674851363126200e-01,-7.570412791593444934e-01,-1.614738398280923803e-02
7.722230366762062204e+01,1.052446893923359767e+03,2.836530516627666657e+03,3.688810889120574532e-01,9.220761401841056637e-01,1.170569688068010539e-01
2.954233014144482240e+03,3.530827265550553307e+02,1.871911288374164087e+03,-6.760744175203561301e-01,-5.530819045470760642e-01,-4.868508897363650334e-01
2.778786863878115582e+03,8.453067458180582889e+02,5.933398698768232862e+02,-8.239074596621956958e-01,2.136223413532653270e-01,-5.249209399402319232e-01
1.283115407842576815e+03,1.849493451182249146e+03,1.280659039664709837e+02,4.673822127193445475e-01,7.153037582204387901e-01,-5.195136193684295467e-01
2.389987659642334165e+03,2.170061123731835323e+03,1.809761530768377270e+03,7.813913794235359811e-01,5.492133799694901564e-01,2.962974441757337818e-01
1.198524290397170716e+03,7.834675560055038659e+02,7.381727114374862140e+02,4.301177775326728986e-02,9.540695171687421094e-01,-2.964816071595448022e-01
1.805404299855385034e+03,8.522727985813830855e+02,4.812986872595046179e+02,3.705997812880955627e-03,-7.041204904181925794e-01,7.100708419259693649e-01
2.607701040828258954e+01,2.841448011740361835e+03,2.070005748647058226e+03,1.685239896728034648e-01,3.598751310108452839e-02,-9.850403868905883709e-01
1.698665113456298513e+03,1.412162159226494396e+03,2.222284230058994126e+03,1.715101971543222248e-01,-9.730134409417154906e-01,1.543667581406318323e-01
9.067461929210833205e+02,1.537428035865548736e+03,5.233399557537136388e+02,-9.068268781604098550e-01,-1.587395570366307573e-01,3.904699297995422036e-01
1.583450042709211402e+03,2.982177829324963341e+02,1.554172997550747823e+03,2.173000234259531704e-01,-4.763767491762271322e-01,-8.519658987678850881e-01
3.759948457982221726e+02,1.822194857042667536e+03,1.436393080670255586e+03,4.169109182808394820e-01,-7.375371634005346566e-01,5.312477941801926340e-01
1.362561745520050408e+03,2.329927748195545973e+03,2.709593958076098261e+03,3.204566723253602367e-01,8.566084211571493023e-01,-4.043878509114890996e-01
9.131703794747930942e+02,8.333331810194168838e+02,8.675321672283813541e+02,-4.234202915559435176e-01,6.205727707564462348e-01,6.600035552134146943e-01
1.629051316634923751e+03,2.624667333617656482e+02,1.750216051319179542e+03,2.099678643063513650e-01,9.772337194634247437e-01,3.045904631320861533e-02
1.401780949912702908e+03,5.980672257708407642e+02,2.674550896788082923e+02,-9.951885478703893506e-01,-8.963783578784569051e-02,-3.955771205336566787e-02
2.936409116741723210e+03,1.666297397331601815e+03,2.574115795514317597e+03,1.805892527323963992e-01,-6.877997873288067554e-01,7.030782135353100815e-01
4.081419334992433505e+02,2.333394624062766809e+02,1.383151327870015166e+03,-8.919952497762870802e-01,-1.360698494989228402e-01,-4.310794247396640966e-01
2.654201988601678863e+02,2.750012902717980978e+02,2.195804973843370590e+03,-4.753043270142919274e-01,-7.903838183226600256e-01,3.864960756012712495e-01
2.139245348212714362e+03,2.650954301931048121e+03,7.094444810680827231e+02,-5.727989944241340670e-01,7.585260987355544327e-01,3.107080132917734439e-01
1.631998850805015536e+03,2.440924683703009123e+03,7.782560162938882513e+02,-7.612374998347336552e-01,-1.922038866471023344e-01,6.193344288856480473e-01
2.547115902581938826e+03,1.942123148639321016e+03,1.029278089097346367e+02,-3.727864748706692932e-01,9.248394274963396278e-01,-7.551342597010601843e-02
2.173172629032241730e+03,1.161642538946355671e+03,1.028964665484815441e+03,1.058677905254655632e-01,9.546163788942150230e-01,-2.783874639349850910e-01
2.514572539826300272e+03,2.215498619425657125e+03,2.123444395351752974e+03,-2.841085908804333870e-01,9.587918908385961725e-01,6.470317488684874637e-04
2.421768102655869825e+03,1.839717400419418482e+03,1.941716718886027365e+03,8.372693295300741578e-01,4.492300313127101652e-01,3.117249569653376406e-01
2.070045087794775100e+03,2.798365051332406892e+03,2.899491602040658563e+03,-2.277629513743505418e-01,8.174235570980301624e-01,5.290961786692933710e-01
6.932883826104769014e+02,2.252071114955015219e+03,4.976010884385837585e+02,5.820608818227351877e-01,-6.309492017969535738e-01,5.129407710482053462e-01
1.969045147755127516e+02,1.346676062237387214e+03,2.513485834139452436e+03,7.455342429403477578e-01,1.842423422099222496e-01,-6.404946931398920462e-01
1.689122170720185295e+03,1.261818793476980858e+02,2.954655792174904491e+03,-8.519300471279831477e-01,-5.049626471173266351e-01,1.386647749674543295e-01
1.768739723615542971e+03,2.275499798061190631e+03,1.652553726856451249e+03,-9.522971774701788350e-01,2.119371065187683478e-01,-2.195740163652861177e-01
1.782614255699573732e+03,6.916161487950602123e+02,1.229369318420390300e+03,2.659871119312129384e-02,-3.077853434298930546e-01,9.510839557749923845e-01
5.056970467651829040e+02,3.154202485359058983e+01,4.473809963017862970e+02,-2.752697303103265325e-01,-8.852080476990908942e-01,3.750110503220460689e-01
2.193572472601093978e+03,2.541912616273915773e+03,3.910725433246502689e+02,-3.916175700470896359e-01,4.070685296150915455e-01,-8.251853676765119605e-01
8.292126595811109837e+02,2.262504557833340186e+03,9.653586016571764503e+02,6.787795591881997659e-01,-4.229797608899935057e-01,6.002886238349991466e-01
1.288266089041956320e+03,2.747844065146357480e+02,8.210319114148993549e+02,1.615529106716454694e-02,6.338397877998770413e-01,7.732956290917090136e-01
1.485022187528402128e+03,2.831176078026430787e+02,2.698105594178628053e+03,-2.120318491978539222e-01,-4.558007040691475775e-01,-8.644583350837724556e-01
1.483928912428360036e+03,8.011110341946058497e+02,5.435198118031058812e+02,-1.036553050673382492e-01,1.831132626328667995e-02,9.944447058845838905e-01
2.560270560995365031e+03,2.011224352866540585e+03,1.698618994192822356e+03,-7.049950779003882895e-02,-5.315461569121400220e-01,8.440903402321915383e-01
2.213159962889329563e+03,1.737182942295922658e+03,1.515914340204760947e+03,-5.945118755505026664e-01,7.242532583574051719e-01,3.493033747161704561e-01
1.713084800508688886e+03,2.291478851751728030e+02,1.794269281440398345e+02,-8.931565710603820429e-01,-2.316034503217232199e-01,-3.855271473848940200e-01
4.789022256997177429e+00,1.348826871534810380e+03,1.517486663428214797e+03,-7.577854386834891320e-01,-6.272335468341809772e-01,1.798313283193038181e-01
2.400514087605194618e+03,7.762420097884094048e+02,2.401582693016642224e+03,1.105680877026460895e-01,-9.914804896502189546e-01,6.885591205366603518e-02
6.933221936526615536e+02,2.250837747671575016e+03,1.640381078301210778e+02,-3.443544800581822551e-01,-8.197643000472059072e-01,-4.576095327153638093e-01
1.066090181000568691e+03,1.969932428802020695e+03,1.680668975553827750e+03,2.770467199059468977e-02,5.674901082909996619e-01,-8.229139858707974486e-01
1.888188106275947575e+01,2.824009497383276994e+03,9.105264634152011922e+02,8.524115629235285985e-01,8.709103957910038774e-02,-5.155673362610346810e-01
1.967062615780290713e+01,9.480703899137519102e+02,8.143763559986441578e+02,8.859668941016899391e-01,-4.611998411447489898e-01,-4.855274537926113076e-02
8.636516126382350649e+02,2.535739599739668847e+03,9.208496021115453232e+02,3.635233560683079346e-01,-4.207260994162296264e-01,8.311680448999703152e-01
2.243025580721237475e+03,4.719683865903951983e+02,1.808622810334368978e+03,-9.358889249298764090e-01,6.668969563686598379e-02,-3.459254322675083260e-01
2.705873033004669196e+03,1.234601331553880073e+03,1.430202159590543488e+03,6.450722203828437307e-01,6.227400055102156884e-01,4.428055058685296252e-01
2.439442989859285717e+03,2.032025579761666449e+03,9.649521780739038377e+02,8.310447472373158062e-01,-3.631046552705720631e-01,4.213307933323944265e-01
2.680156955226674654e+03,1.782718706759875431e+03,1.415121940450779675e+03,-8.987250805373264706e-01,1.850093258253940331e-01,-3.975736145304532010e-01
2.442762115140050128e+02,5.169815688891974332e+02,2.495260382779241809e+03,5.411373646224626466e-01,4.239304259539549147e-01,7.262598340538697350e-01
1.452656249608491521e+02,8.522526941495734718e+02,2.876408216373695723e+03,2.749218916852431693e-01,-8.921510186523804453e-01,-3.584473648804347157e-01
1.774658471554637117e+03,1.152695881111195149e+03,2.927732839487667661e+03,-8.811002780885730523e-01,-2.959404568595976337e-01,-3.688923229696869921e-01
1.195338395033109919e+03,1.710223080006179543e+03,2.221730246784006340e+03,4.334982531525143068e-02,7.023740091612048486e-01,7.104868358386049465e-01
1.638390559741021434e+03,4.196937438169640586e+02,8.753384180602852211e+02,-1.656617365935554934e-02,9.943664807220632396e-01,1.046941445674330895e-01
9.947293720394210368e+02,2.677432370572027139e+03,2.040996669212622407e+02,-5.248035818866462199e-01,8.379423584261821434e-01,1.497791854501617781e-01
9.152936827428251263e+02,1.810758898531602654e+03,7.032237886015451522e+02,-2.015922268073926105e-01,8.888874035262542828e-01,-4.113876006191614643e-01
1.114855528361736788e+03,1.466920535173842381e+02,2.623128637561218511e+03,-7.402582654788323335e-01,-5.051698537910862541e-01,4.436452628068547899e-01
2.703282251374540465e+03,2.082271690111364023e+03,1.772268951385583250e+03,-5.446955275163768428e-01,3.722664614224377444e-01,-7.514815127490979130e-01
1.808533097457397844e+03,2.882333510351570112e+03,6.165009632265755499e+02,-3.817406544757228487e-02,9.444942127853015457e-01,3.263026551260010955e-01
2.915851386328599347e+03,9.932322917731622738e+02,1.086069496126620379e+03,9.604383810142856914e-01,2.508988373646260372e-01,-1.208631030701135117e-01
1.856955298712306330e+03,1.734239960550700062e+03,2.620238183366330304e+03,-8.985297146988773243e-01,-3.360204984407367812e-01,2.823731156303537770e-01
1.428503502319170479e+02,2.988364045675516081e+03,4.551162528584002871e+02,-2.767516335453948373e-01,9.469978311471352050e-01,-1.631062265291476632e-01
1.678683070342845440e+03,1.056342972779318188e+03,2.920888391943180068e+03,6.655991826051674831e-01,-5.517499267717259626e-01,5.025432781589342923e-01
1.798218265903364909e+03,1.240359827267334822e+03,9.127654963200038765e+02,3.619962040828420546e-01,9.307866287888260093e-01,5.094114150218520543e-02
1.532362254938722572e+03,4.155622348955645151e+01,1.336461326024943901e+03,5.057495783999242656e-02,-1.029366113056425502e-01,9.934013427071628488e-01
1.967670951048501138e+03,6.761787900923312691e+02,3.538675567873169712e+02,-4.210983185085764302e-01,-8.550332876359293399e-01,-3.026454744147744069e-01
1.318879905947265456e+02,2.570262808041243716e+03,1.432785070830016593e+03,2.674822274994916316e-01,6.475308173720585314e-01,7.135524497367968788e-01
1.547908986124499506e+03,1.363633988989865884e+03,4.168319696954236520e+01,3.234961248425456959e-01,2.158088993901945141e-01,-9.212908206184673432e-01
2.939309198584827300e+03,2.122114020490245423e+02,2.602246896302277491e+03,7.047774524016379161e-01,-6.918289657400287229e-01,1.570395642802766556e-01
2.974605642648111825e+02,2.589284153240862906e+03,1.711152079342144134e+03,9.898157443064270478e-01,8.110914411677336289e-02,1.169876021797109367e-01
2.542993444312752217e+03,2.988378573297101866e+03,1.298864372152085025e+03,-7.652397138198121507e-01,5.216723001641098145e-01,-3.771819078832638894e-01
6.782957542006424774e+02,1.300930825995596706e+03,2.053618524650577001e+03,1.333640301111340687e-01,-9.374796700175643815e-01,3.214745771850009981e-01
2.186119136198465185e+03,2.385761482257270472e+03,1.685438592251711270e+03,5.440552303184166272e-01,8.362355530887781718e-01,-6.865862009595002924e-02
1.391496443318731508e+03,1.962906240675655226e+03,6.376389496444647875e+02,-9.796674107659970598e-01,1.454090866947060044e-02,-2.001007902485978374e-01
0.000000000000000000e+00,1.307100342005909170e+03,1.515444377542269422e+03,9.303550357776897428e-01,3.524598717767070677e-01,-1.010521953756614577e-01
2.490363866208042054e+03,2.871151714502528193e+03,1.737865908583022474e+03,8.477146697171460410e-01,3.252600885508210027e-01,4.190294900627664632e-01
2.812225870428698272e+03,3.036304542035480836e+02,4.364717457082550141e+02,2.240157275035314643e-01,-9.128655951573536598e-01,-3.413112348122664397e-01
7.074545858348465117e+02,2.261424624885290996e+03,2.809851504557257158e+03,-9.436179707167030584e-02,-7.706813485896727434e-01,6.301952952771134875e-01
7.643077471753048258e+01,1.519638496453231937e+03,2.007084279807226039e+03,-7.993073290386806806e-02,-9.925610584958208804e-01,-9.183475973239287049e-02
5.167654288050189280e+02,1.700526603557895214e+03,1.341015003063320137e+03,-7.594546081591327935e-01,-3.581438397450591449e-01,5.431037545428346602e-01
2.061360963888238075e+03,1.511153261210482469e+03,2.201241883562179282e+03,-9.168692518919916434e-01,1.647544665091214278e-01,3.636024486995574900e-01
2.000025602646354628e+03,3.568714100625408605e+02,2.099530376662649360e+03,-9.775750545688652871e-01,-1.960080408644766792e-01,7.699260095067474163e-02
2.310682870412104876e+03,2.183109647457914889e+03,7.815583898919206831e+02,-3.368215375359994573e-02,9.026011950280951046e-01,-4.291580073264082973e-01
7.776123260174940697e+02,1.472674680859868431e+03,1.432814188564328788e+02,8.844188807425454879e-01,2.139437193889476008e-01,-4.147665949906362282e-01
2.355510499732317271e+02,1.118609013333582197e+03,1.749656643000417489e+03,3.003082335263940542e-02,6.811785178997109558e-01,-7.315011800405490927e-01
2.236015535505125911e+02,2.423072385905986721e+03,7.901924184783607643e+02,-8.151847105372702629e-01,5.509130325912031667e-01,-1.787979816089402263e-01
3.832141409382341521e+02,2.680678122215545500e+03,2.044184543629048903e+03,7.396247211369709751e-01,4.853832607228647511e-01,-4.662170761491877258e-01
8.293092040961374778e+02,1.471304365965275736e+02,4.354405918710584160e+02,9.190329633608739224e-01,-3.910042432991787109e-01,-4.994090485931601542e-02
2.127421363455418941e+03,1.710915222358911478e+03,2.928732556763473440e+03,-5.235306940250445545e-02,-7.635882707600234465e-01,-6.435775857515966258e-01
2.973636310741707803e+03,1.058435205319800843e+03,2.936349547576717669e+03,-5.665500855242300293e-01,-3.994379568461327579e-01,7.207428939802837942e-01
5.565961483473215594e+02,1.695353264632319963e+02,2.377385284752212101e+03,1.188512819664579029e-01,-5.097093851768710326e-01,-8.520978320812380158e-01
7.656187591692515753e+02,8.927501599216059276e+02,1.693819471105060984e+03,7.541245279585060413e-01,-6.448951886242545450e-01,1.241224879731614994e-01
4.843860910854584745e+02,8.098437877315933520e+01,2.285947493862966894e+03,-8.781930725427163908e-01,-4.729866486756731381e-01,7.113759563366395255e-02
1.769445264293407035e+03,1.216894134170028110e+03,1.337077216425565211e+03,-9.815116231838800775e-01,4.724799685460086274e-02,1.854792720175835186e-01
2.930369123746685091e+03,2.565412920036138985e+03,1.137256883484386208e+03,9.084102799807696194e-01,-4.075935711771820902e-01,9.304968543897020050e-02
2.834318098102987733e+03,9.145882855678988221e+01,2.237398566705500343e+03,2.780320381637629290e-01,7.548817640486943370e-01,5.940132221266083423e-01
1.773234856954123416e+03,1.439075135573511943e+03,1.759627807271943084e+03,-1.174882095813067490e-01,6.673067779167588531e-01,-7.354578062375384251e-01
3.239901679778325274e+02,2.149133032683296278e+03,7.920586657304895084e+01,-3.000686811637504059e-01,9.506156922827817546e-01,7.930064419899141015e-02
2.445992684834823194e+03,1.644823497815704059e+02,2.965256046984354725e+03,1.902563856257334929e-01,-5.328658401816724899e-01,8.245341133610619710e-01
2.814172090684086015e+03,2.124410981499803711e+03,2.444960499698305739e+03,3.392272399031556196e-01,-9.378149012794055883e-01,-7.367557699798332749e-02
2.186882261833174653e+03,2.335082300323840172e+03,5.640845558977007386e+02,7.815472247213298695e-01,2.433936085560324258e-01,5.744070741594848872e-01
1.374195183231106512e+03,6.398659297216295272e+02,1.146857832268811080e+03,1.134138165913561869e-02,-2.057172438452290197e-01,-9.785457519435586393e-01
2.240012762315841428e+03,2.210224117806641516e+03,1.907365056410719262e+03,-9.681960472268157369e-01,-1.493340685715261740e-01,2.007380135854799352e-01
5.187972717469269810e+02,2.008476327903369167e+02,2.877092681638252088e+03,9.716497521796066961e-01,2.317717965677363601e-01,4.667540471246933720e-02
2.422765550858146526e+03,1.832085750996165814e+02,2.924574062070789296e+03,1.794666126034022702e-01,-5.339674807280745394e-01,8.262387454516846308e-01
8.130783679867710134e+02,1.509239095342784367e+03,1.372437858803954441e+03,4.508910541046225462e-01,7.127685843735094284e-01,5.372692085524777283e-01
4.245810931696422017e+02,5.681087715979663244e+02,1.229695811127212437e+03,-6.524929326330127788e-01,-2.694433764813825571e-01,-7.082748334751721719e-01
2.826289973242652195e+03,2.009984714491225077e+03,3.094267085577776584e+02,-8.569364669805858981e-01,4.687988669479341008e-01,2.142137108290793623e-01
1.967416624356428656e+03,5.571542969252778903e+02,1.078603485959423324e+03,-7.504337546317284557e-01,-6.597797893233197097e-01,-3.924040659578764689e-02
1.508320366519539675e+03,8.356383387307513431e+02,1.717169562625689650e+03,5.042427943684755220e-01,-8.038959360182895697e-01,-3.154211920286105197e-01
2.448383456324995677e+03,4.627382022588643053e+02,5.555809549249660222e+02,9.231384078285977957e-01,3.749109474199130432e-01,8.518956213283779277e-02
1.007991003556663941e+03,9.733629821389719154e+02,6.895595674050598518e+02,-5.261203024006914919e-02,-1.260597897309718163e-01,-9.906265207872244627e-01
2.756116317072702714e+03,2.645408814822877048e+03,8.387556067467747880e+02,-2.491086620591736467e-01,9.683927489160548685e-01,1.266326710983847574e-02
7.939737630716307422e+02,1.003998996158855903e+03,4.139997745141344581e+02,8.301765002161888563e-02,-3.759494720182660066e-01,-9.229138986243923259e-01
1.667263689442121120e+02,1.311408333729059905e+03,2.713748662571178102e+03,-9.582155749615695051e-01,-2.813700837994060344e-01,5.151492835852634206e-02
1.392024892234773290e+02,3.774240683936295113e+02,6.453770784349318319e+02,6.632759886479274725e-01,-4.872773541689032206e-02,7.467868308187122217e-01
1.329929865720257339e+03,1.107591872356423437e+03,1.609390690536205511e+03,-7.721276206777172302e-01,5.911925814251918210e-01,2.330456372781633256e-01
1.755822737461397082e+03,9.989030890938633434e+01,2.681932995049059173e+03,7.933704976944040421e-01,5.358594403087698632e-01,2.888215947953090001e-01
3.869229634320938658e+02,3.564625204265655611e+02,7.966467047764015206e+02,-2.718753498997187323e-01,-8.059780977023602855e-01,5.258166031431397158e-01
7.656798563755245368e+02,1.553606301069284200e+03,2.789252980825525356e+03,-7.698468414679220106e-02,-7.732899473101142451e-01,-6.293615938361186712e-01
4.630548349230484177e+02,1.864358941811292425e+03,1.684021345150799107e+03,-3.210521104019303795e-01,2.144506215215886413e-01,9.224621798943689610e-01
1.948325054286485283e+03,2.130347314449624719e+03,1.814550825521068646e+03,1.015240276322484231e-01,5.104259111894851042e-01,-8.539076419611844049e-01
7.840168232963829098e+01,9.777923872610513172e+02,1.506929085325243250e+03,2.159930944632557082e-01,4.945320328584034142e-01,-8.418937294107387004e-01
1.371535459493597500e+03,6.941040559053301422e+02,1.573372583222661433e+03,-7.874904262409355982e-02,-7.800015104582154191e-01,-6.208028930092797104e-01
8.007480838850774489e+02,7.587346843528601994e+02,1.344845190807942799e+03,3.271353621662125011e-02,-9.586740518083962659e-01,-2.826196860402270250e-01
2.144457797946892697e+03,6.239748406634661251e+02,2.973025425112953144e+03,6.558376058851027313e-02,-5.249338753486028075e-01,-8.486125127869412754e-01
2.420779732106971096e+03,1.302539043360188316e+03,2.733064701525379860e+03,5.187206529289105639e-01,3.531124928751764869e-01,-7.786144434830909455e-01
8.678343800315226417e+02,8.248623912322373144e+02,2.557571195217076820e+03,2.254594810939165861e-01,8.809511941243806099e-01,-4.160444879525384554e-01
1.786667787963154751e+03,2.117593062526626454e+03,1.410938970885627668e+03,2.994803280971662374e-01,6.571781643834924136e-01,-6.916851836929551745e-01
4.805018516225686085e+02,2.973707577446518826e+02,1.281060085566096802e+02,-9.972260399276511311e-02,9.949723489037970436e-01,9.242681957254885589e-03
1.515917566544045712e+03,1.087555662971434913e+03,2.425860131529505907e+03,9.202263191959202393e-01,-3.565900989198104165e-01,-1.613289273859095374e-01
1.448362434473059466e+03,2.682742114762433175e+03,1.972081241037919597e+02,2.623546849200422137e-01,8.580299443053869268e-01,-4.415366734211327859e-01
2.738150806813820054e+03,5.103027128393945304e+02,2.058729695416116556e+03,-4.863798471233174436e-01,-8.609165663416429304e-01,-1.491888404365880050e-01
2.514907900811374020e+03,2.579986191121845422e+03,2.672946770465242025e+03,8.334313993120380237e-01,-5.246882068837782631e-01,-1.734773420302022640e-01
7.381505088993726531e+02,2.787357785405800314e+03,1.370511031255290163e+03,7.821339505431040839e-01,1.390046482798188987e-01,-6.074077635035965983e-01
2.830097711136498674e+03,2.043542458183990220e+03,1.490761464650751350e+03,2.389516716891776082e-01,-1.718315377485827959e-03,-9.710299408304622348e-01
2.751254591631235598e+03,1.329303716364598131e+03,2.960953946694481601e+03,-3.005517507390062515e-01,7.422243780477207897e-01,5.989754734205670061e-01
1.076808012112940787e+03,1.214007858082110488e+03,1.487694871315108912e+03,4.952100239600789044e-01,-7.696126525539290775e-01,4.030674846702018699e-01
1.359216036021492300e+03,1.282667669787908153e+03,1.272097243501681760e+03,9.217502053391333217e-01,-3.662751322580107272e-01,1.273541771856832039e-01
2.846904426430114199e+03,7.376527737289578681e+02,1.645215083160661834e+03,6.616524990277534712e-01,-6.164870665916367676e-01,4.268016720393300045e-01
2.055185768777645990e+03,7.807679267685576008e+01,2.949154607825130370e+03,3.486158126828607928e-01,-2.667655531060146856e-01,-8.985005035187851874e-01
1.528359452799621749e+03,2.478678222464751343e+03,1.553100568743399208e+03,-9.387889934381556112e-02,-7.503333149736675090e-01,-6.543597395153684104e-01
4.392130407584581349e+02,2.657658921468523204e+03,1.399475296910717589e+03,4.553848521405368110e-02,-4.774326734446803222e-01,-8.774874863448907103e-01
5.786802371671193441e+02,2.978863232942604100e+03,2.658944646662988362e+03,-4.456566741366818074e-01,-7.174983671965129428e-01,5.353374840862250572e-01
3.846086815544019828e+02,1.674873181442396799e+03,2.085717599732795975e+02,8.522273745420745339e-01,-3.503383057365734854e-01,3.885506062467925514e-01
2.715509789578306027e+03,1.371092988929279500e+03,8.045510780426527617e+02,-5.169003332098938142e-01,1.184902727462806837e-01,8.478054616431843771e-01
2.357990125905590503e+03,2.606062155948803138e+03,2.272155836282498058e+03,3.417869948663785351e-01,-9.095626954116813323e-01,-2.363839107376966286e-01
2.206042841132508272e+02,2.546324189979994571e+03,1.602521825569242310e+03,5.845976870463356345e-01,8.008570499250862174e-01,-1.298981519705453558e-01
2.953954117099802261e+03,1.810446168498291854e+03,1.683355303176704183e+03,-7.976433589698431192e-02,-2.751165813456584175e-01,9.580962985982102165e-01
1.213662519501330962e+03,2.724915222499872925e+03,1.888954760512580833e+03,5.959356512145659313e-01,2.278916980535773684e-01,-7.700169307032984634e-01
1.372322079544740745e+03,4.228162998806156452e+02,9.473235921096356833e+02,8.072450277901294102e-01,4.454180854153798053e-01,-3.872443599240804057e-01
1.838854562176655691e+03,1.956872945840322473e+03,3.606750117327555358e+02,-3.695254726024349567e-01,4.028584490663844608e-01,8.373505807687569025e-01
2.785015138091294375e+03,2.024616489514896330e+03,2.815432238182264882e+03,4.375694905996667661e-01,8.061994198433241055e-01,3.982153140458510876e-01
1.217160441871491003e+03,9.557198801393966505e+02,2.341938813303038387e+03,7.725064000994397162e-01,-2.563164269975858889e-01,5.809782707267074908e-01
1.597992993383909152e+03,2.316367375893548797e+03,1.549046606279484649e+03,8.397350746233606111e-01,-2.485667312112646576e-02,-5.424270921042277926e-01
1.821843114891507014e+02,1.369338970054771607e+03,2.558821413371841572e+03,7.594524711453234933e-02,-9.372619726163818887e-01,-3.402533087685719604e-01
2.194147360897183262e+03,1.734084235247089794e+02,1.388298116217932375e+03,2.420356388821041649e-01,8.676921390671683554e-01,4.341993796770944325e-01
1.991754528768191221e+03,1.926264874262589046e+03,2.852853057662870469e+03,3.946328181251216316e-01,9.160998688177780513e-01,7.089407034918027151e-02
1.228033827256959512e+03,1.293977529704841118e+03,1.506029156619383230e+03,8.984539716194610559e-01,-4.387727069942611302e-01,-1.609262185428850245e-02
2.307509266501241200e+03,9.843757183075414332e+02,2.502530153323010381e+03,-1.023077858365160735e-02,-9.958175407735285756e-01,-9.078962857801567421e-02
2.514036807611365134e+02,1.539001842089365709e+03,2.933424476862955821e+00,-6.245591200881399352e-02,-9.071136147792352444e-01,4.162260791172227581e-01
2.564664493826830949e+03,2.333593984371407714e+03,6.517450761305902915e+02,-1.327609810416380785e-02,-9.454333006570934117e-01,-3.255451108951918360e-01
6.387427129518690663e+02,2.121165536024441280e+03,9.990254307479743829e+02,1.737318968089904825e-01,-9.249002142838913532e-01,3.381964246540198893e-01
1.531969387712238813e+03,3.110230861917170273e+02,1.948384517250545741e+03,-5.765434276530780888e-01,-7.289948906494462255e-01,-3.690042349852393766e-01
2.600989191060086796e+03,1.434477765036198434e+03,2.380659565882656807e+03,-4.261073472047764987e-01,7.207795514838709616e-01,-5.467260436642999988e-01
1.808161828115721846e+03,2.338590005043651274e+02,2.574770044731418238e+03,3.767839462171203024e-01,-4.360834929529702753e-01,8.172301053234585222e-01
2.625634233712990863e+03,2.759289586159621649e+03,1.062255691868152553e+03,-9.264471676169011224e-03,7.661095509434906470e-01,-6.426432334645130195e-01
1.817994305372100428e+02,5.366541521301935518e+02,2.207756531540628202e+03,4.401914025857363577e-01,-8.881095862130471419e-01,1.322606969817279321e-01
2.303587247026412115e+03,1.529754001431202369e+03,1.704207091733832613e+03,-7.459730499753661759e-01,-2.136841007989244701e-01,-6.307640714056287345e-01
1.668657516290937792e+03,4.243237129747736844e+02,5.580299678741737353e+02,7.655122996790149070e-01,3.654432058993928312e-01,5.295679203861578532e-01
2.633634056755643542e+03,3.130121994440121398e+02,1.077459645782251528e+03,4.537142269889271051e-01,-4.450134931529417526e-01,-7.720792648035932348e-01
7.636665235281699324e+02,1.265719057556926145e+03,1.995768053400578538e+03,2.160786782696209329e-01,9.256588147191034954e-01,-3.105893809035946695e-01
1.713073878494090195e+03,2.972254048179104302e+03,9.814955274341082259e+02,-2.610144545709245367e-01,-9.251593227584711254e-01,-2.755933272380337584e-01
1.049102163146608518e+03,2.984123206437985118e+03,1.812802136348326485e+03,7.384866553981144222e-01,1.489003158642143720e-01,6.576215900762716338e-01
2.183184882650858981e+03,1.619231836773044733e+03,2.985793519379940790e+03,-7.463471306781593873e-01,6.654994823607416343e-01,-8.740681098381665806e-03
1.770499333698256351e+03,2.299875559635471291e+03,2.773317561663083325e+03,6.881237427365779480e-01,3.500782067456736230e-02,-7.247483474791932556e-01
5.488427587707669772e+02,1.831015834519284908e+03,1.860807913729308666e+03,-4.343287115390107589e-01,-8.824351287952748590e-01,-1.807396298572323534e-01
2.425745941454349577e+03,1.510190526169135126e+02,5.155855759602219450e+02,2.235398327246940764e-01,-1.616031769651560257e-01,9.612046381391343708e-01
2.572659815952346435e+03,2.308437248741501207e+03,9.698086086672035435e+02,-8.573801985098366413e-03,-4.721689991114765284e-01,-8.814663500086584724e-01
1.291187537731150542e+03,1.022694895082591643e+03,2.105885542289081968e+03,-7.420338309560675638e-02,6.484119471372939980e-01,-7.576647046991100698e-01
2.628240447297824630e+03,2.201506299775928710e+03,2.376322890093024398e+02,-5.934975829118834811e-01,4.447713525036688931e-01,6.707749720061186860e-01
1.179009576487533018e+00,7.374155579585701616e+02,2.063839049602630439e+03,4.001104755353800807e-02,7.107110787534647312e-01,7.023452702273682569e-01
4.512700132957089068e+02,2.410500492321778438e+03,2.151071170213487676e+03,-3.960108992218600577e-01,-8.260807183547955734e-01,4.009563747590488281e-01
9.017974336450521378e+02,2.246808570339904236e+03,4.043404118826423996e+02,-1.655636652366979100e-01,-3.918300928864841270e-01,-9.050181495759959116e-01
2.877158289585355305e+03,1.710054881172339492e+03,6.062493535464953993e+02,3.668760683572263454e-02,-1.351338024514481817e-01,-9.901479055876856172e-01
5.841847607285255606e+01,2.831328687591542348e+02,2.421382023382363514e+03,-1.677973159867966191e-01,6.587363510344581563e-01,7.334238069311864727e-01
2.182772231928077872e+03,7.564104246610589826e+02,2.555225705737863336e+03,-5.058466844768498838e-01,-4.201753520041320161e-02,-8.615994768681445315e-01
2.313468123624565123e+03,1.444450918104919765e+03,1.824315745984603382e+03,6.606695529483982421e-01,2.858516938483934289e-01,-6.941214237660209285e-01
2.162536073850337743e+03,1.613438795576565553e+03,3.000000000000000000e+03,1.455768005638933549e-01,-1.426879106302809119e-01,-9.790033479501208946e-01
0.000000000000000000e+00,2.868832763586548481e+03,2.047968436447101112e+03,6.766422787036406594e-02,3.642601630122318385e-02,-9.970429768084876354e-01
2.206475091901948872e+03,2.193952503589187472e+03,2.153177950360292812e+02,-4.343727420187786237e-01,-3.784863392315881425e-01,-8.173545203925642877e-01
2.343601319969268843e+03,2.318793051853651377e+03,1.794446294787278930e+03,2.311328687711569907e-01,6.248874057587702063e-02,-9.709133608488740297e-01
2.916092012946219711e+03,7.638005667917919936e+02,2.253026477589685328e+03,-3.117319910733940685e-02,8.986635062817713848e-01,-4.375295808682733711e-01
8.911589865303752731e+02,2.683381481141167058e+01,2.961528546203774567e+03,-7.950407379756211368e-01,-5.918126059011883378e-01,1.329212716446261933e-01
1.315126441158295165e+02,1.414561466696271964e+03,1.619029503625766665e+03,-9.167280537174073984e-01,-1.998871014074977970e-01,3.459115815037174801e-01
1.860296969809129678e+03,1.743525608330090563e+03,1.636788977472401939e+03,-6.877032328273655626e-01,2.360002419053672529e-01,6.865625604265050974e-01
3.708386591965234516e+02,7.571377589789933609e+02,2.551062977262902223e+03,1.403772795910386006e-01,2.100922406185381230e-01,-9.675512750270662821e-01
1.345735781155313362e+03,7.175806766039434024e+02,1.537287531287572392e+03,8.661461305082973280e-03,-5.331676912994115503e-01,8.459652428099608823e-01
2.651356556952110623e+03,1.966144188721974388e+03,1.000726080003690981e+03,-1.977415535716152140e-01,2.132193682305259241e-01,-9.567840817041530777e-01
1.172522730420113930e+03,5.606673003326745857e+02,1.652713878297716292e+03,6.094399356223416386e-02,-8.043150202544077088e-01,-5.910695203119833430e-01
2.241776578118430280e+03,1.669827157256665373e+02,4.061835294302406965e+02,4.892221631584833461e-03,6.086946624094409231e-01,7.933894845041521426e-01
2.848364258991595648e+02,4.853052429570666959e+02,2.964993874883983608e+03,2.659322231500652403e-02,7.893788356185579280e-01,6.133301349227791022e-01
1.912912147162110159e+03,1.483488297148629272e+03,6.078532242868782021e+01,-5.385919824588020210e-02,1.541625691079505497e-03,-9.985473499812312914e-01
1.992471691895004597e+03,8.589422110564607920e+02,2.395438518782591018e+03,-1.836865211692629840e-01,-6.425997199862616416e-01,-7.438580925245836806e-01
9.345583939676649834e+02,2.193740304269253102e+03,2.840457868239945128e+03,-3.184428509320189060e-02,4.720966508516875049e-01,8.809714488912354646e-01
1.833662592533238012e+03,1.821715807111672802e+03,5.978870303857771660e+02,6.883168594042402555e-01,-7.713973932515706677e-02,7.212969996310327758e-01
9.259938670862289882e+02,2.644413210548930238e+03,2.385442083701736465e+03,5.721721929584525773e-02,9.384470942394866899e-01,-3.406512015676963490e-01
1.091683447966330732e+03,2.347906944818251304e+03,2.270595753622572374e+03,8.903632639476176669e-01,-2.173555588095683055e-01,4.000122738955957935e-01
2.531954905192390015e+03,2.899617899617571766e+03,1.768347185628404532e+03,-1.056117814469866995e-01,7.432705858027945922e-01,-6.606019890221074276e-01
6.329555407547362620e+02,5.343857822838673428e+02,2.036960510005058040e+02,4.029786321339011157e-01,-8.776395710549610429e-01,2.595322819264573866e-01
1.961527289369339087e+03,2.749396535692295402e+03,1.064460962798854951e+02,-1.364159677226250804e-02,5.404321501081162937e-01,-8.412770043018062971e-01
2.077438258404273256e+03,8.194893552298850636e+01,2.964700144657823330e+03,7.091015014570244412e-01,-3.798430113207921233e-01,-5.940491119277481191e-01
1.409362570160706355e+03,6.824796113660802348e+02,1.483383567762358325e+03,-8.128742691433129552e-01,-2.278158966467231372e-01,5.360366963182413569e-01
6.370754307532492930e+02,2.390582204491865070e+02,4.232275521191666598e+02,-3.829427998915292328e-03,9.960220336165946931e-01,8.902496296805846587e-02
1.456105101620439655e+02,2.587239758344010170e+03,7.895765314625895144e+02,3.093954022013157279e-01,9.508736817039818989e-01,1.066426459727632010e-02
2.560812327836884492e+02,2.680787642207226781e+03,1.272230427436926448e+03,-5.788169758458316938e-01,-4.513343886681449035e-01,-6.791672681145917156e-01
4.760753766417145698e+02,8.730232879344320054e+02,1.726028925767100418e+03,-8.176598193695804040e-02,-7.388303137437698398e-01,-6.689126188757151814e-01
2.266772204462638911e+03,2.155883657163914904e+03,1.941999376432213921e+03,6.098834515131584810e-01,-5.341003816115589276e-01,-5.854732768733206250e-01
9.078916902438647867e+02,1.907954966301083175e+02,2.738389246487610762e+03,-8.090468041741105676e-01,7.200086635345792976e-03,5.877001169032569639e-01
1.846687421967272030e+03,1.195545528309244901e+03,1.167541200764754592e+02,2.146840562091701515e-02,9.179721899946430286e-01,-3.960633357892835438e-01
2.593321549389738266e+03,2.322590326970198475e+03,7.362484968456973320e+02,6.737897656186697497e-04,8.921173671643102265e-01,4.518032195670710904e-01
1.750534559056678518e+03,5.895718950575407007e+02,1.555970479248939910e+03,-6.439341704422802959e-01,-4.347720366047696378e-02,7.638445633102834975e-01
3.663364836899867214e+02,1.087461887783087150e+03,2.543459853769290930e+03,4.863680635150944287e-01,-8.639700914683268174e-01,1.303909039802551018e-01
1.577551948976053382e+03,2.037745657521542171e+03,2.971129037261645863e+03,3.705608397470879778e-01,-9.822998848491422408e-02,9.235992277000812933e-01
2.952222160907194393e+03,2.921852039067739952e+03,1.772025943966672685e+03,7.099916005643531758e-01,5.974767166467304103e-01,-3.727378437898554164e-01
9.055305719008640608e+02,1.165142353483299075e+03,2.807809064178016342e+03,-5.298482792170976508e-01,-1.815969486683956940e-02,-8.478980047700452882e-01
8.547675520517415180e+02,2.229099129903898756e+03,6.255514129713992588e+02,-2.261809336061685050e-01,-7.939696484358867989e-01,-5.643176256645154876e-01
1.797667812686925117e+02,1.977019731292962888e+03,1.461696598898919547e+03,3.263828142530730836e-01,6.727625741921392510e-01,-6.639764885345040835e-01
1.539038113323184234e+03,1.361011179073022504e+03,2.177431000037316153e+03,8.649942386484503754e-01,-5.017709614497883885e-01,-3.296869840100136173e-03
1.573658564623701750e+03,3.905228625384460202e+02,3.433283404390127203e+02,1.848420668885484286e-01,-9.362740054624104635e-01,-2.987045312742069303e-01
2.359643618502717800e+03,2.064980843827730951e+03,2.370788736095417789e+03,-6.745671497344548628e-01,5.290510618055904724e-01,-5.148437962154257530e-01
1.186847295902609403e+03,1.035307648389088627e+03,2.846619745719341154e+03,-4.312163615663525684e-01,-2.957045022413804514e-01,-8.524149792628319400e-01
1.703249978606303898e+02,2.039429797797090259e+03,1.060522340823851437e+03,-9.899914504823044137e-01,1.355783815467511699e-01,3.918456876254584192e-02
1.658225763301331426e+03,9.906906895285416681e+01,2.004914762913412005e+03,9.821854881032128226e-01,1.831780621701542544e-01,4.192212421909169429e-02
2.974917854145394358e+03,1.640121226213705313e+03,8.798149081027030434e+02,8.087670645139686254e-01,8.495723242620896454e-02,5.819605691246936274e-01
1.563381144495964236e+03,1.502847425047259549e+03,1.063237643270646458e+03,-7.649881812450236573e-01,4.003890436970006239e-01,-5.044617886845665922e-01
1.014387373540595547e+02,8.468622714838811589e+02,2.916129851740526192e+03,2.006508052683810342e-02,-4.369322049861535939e-01,8.992706159935336396e-01
1.258341685407083105e+03,5.009840215458393118e+02,2.737183574189822139e+03,-3.710152315637999521e-01,-2.840859028791092866e-01,-8.841057050675678042e-01
9.404342128034483039e+02,4.288249797342987790e+02,1.498531462631776776e+03,4.596139499264964567e-01,-8.453783768513631891e-01,2.721955491647845005e-01
2.308347351500052355e+03,1.786013441036553331e+03,2.916792999138016512e+03,2.627757382093217076e-01,-5.937041401947165120e-01,-7.605684093651263744e-01
5.208222809969367972e+01,9.323098597751776424e+02,1.512898243142580895e+03,-4.766578175326299099e-03,-8.729506131152816595e-01,-4.877853080958388654e-01
1.444688704148277338e+03,7.105437940391395841e+02,1.527968966496864596e+03,-3.976195774232131283e-04,-4.866284438961833159e-01,8.736089511273626984e-01
2.854186808516372821e+03,7.132100834689964586e+02,2.404798064279215396e+03,-3.431631526409415489e-01,-1.341815747355515689e-02,-9.391799634359458970e-01
8.481651896179815822e+02,1.175921672176489437e+03,1.606372083041011138e+03,8.137364023323272466e-01,-1.999184364477482878e-01,5.457707268510545440e-01
1.184370424331971435e+03,4.882207805256451252e+02,2.509926464434577611e+03,3.450418076847112103e-01,-4.374814487983617606e-01,-8.303951667169993112e-01
2.575009525217388273e+03,2.669760629466359205e+03,4.523299381044483312e+02,-3.219329976197436993e-01,9.399499532282010739e-01,1.133720885838700593e-01
4.930312677832448998e+01,1.545542313534597042e+03,5.714819885270505750e+01,-6.439806234025372000e-02,6.012560925510297416e-01,7.964571556192387991e-01
1.909252571913218389e+03,4.499270525898713124e+00,3.397168381446248304e+02,-7.131147484255275781e-01,-6.978462953432855720e-01,-6.691714020823358311e-02
5.498206005293039311e+01,1.449034301893201928e+03,5.056127862778159283e+02,9.807847442519794789e-01,1.128269757275443888e-02,1.947664914148758974e-01
2.350863267811386777e+03,2.645072188582316812e+02,1.067099050207253640e+03,-8.314794165310058771e-01,-3.849210903888309332e-01,-4.005967224767714718e-01
2.346378750064858650e+03,5.611737249242123653e+02,1.729486519683714732e+03,-9.271266902582983027e-01,2.388655606130546394e-01,2.887548166935136607e-01
2.922978190015889140e+03,2.255017252656635264e+03,1.142959083002483794e+03,-2.293956464327468470e-01,-9.643454956934170985e-01,-1.319674290630836744e-01
1.913424667918811338e+03,3.430754876314229023e+02,3.055439636970415336e+02,4.691795757475982764e-01,8.177753957568062448e-01,3.333375583340447701e-01
1.940932178759279850e+03,4.696210126520653603e+02,4.622715385918345987e+02,-5.461397132593490134e-02,9.976359228722393446e-01,-4.171186319100957801e-02
2.034549164147837246e+03,3.684860313703696306e+02,2.166563209677962732e+03,1.012985073986078788e-01,3.578886867898811025e-02,-9.942121349478150183e-01
1.469280277040752935e+03,1.031484300569168909e+03,2.009750159554304901e+03,-8.158390544012205092e-01,-2.097974259423770194e-01,5.388800213235551695e-01
7.052425954202715275e+02,6.131925399149973543e+01,9.833348770768825489e+02,2.150600556066636360e-01,-9.745088587794931145e-01,-6.388784424871984946e-02
1.432279502036977419e+03,2.093849162035685367e+03,5.225155590664243022e+01,-3.494928926238926592e-01,8.519208439562627744e-01,3.899815298680609499e-01
1.820419936228601273e+03,5.464279714501099079e+02,7.508177707774941609e+02,-7.823690587538859043e-02,9.843931334290570989e-01,1.576361171076232914e-01
1.077094050770947661e+03,2.713232994755385334e+03,2.607630916546626395e+03,9.472324916188223920e-01,3.193158225095855118e-01,2.807155707517061671e-02
2.187071794099716016e+01,2.221797048281341176e+03,1.491294738928630295e+03,-3.258887379291502406e-01,-6.050245024759689366e-02,-9.434701818314041866e-01
2.478838910258023134e+03,1.885641077087368103e+03,1.064142036112985807e+03,-1.073483778914665482e-01,7.095287661754640096e-01,-6.964519048244426358e-01
1.146061725492579171e+03,1.941425106182040054e+03,9.517743951670462366e+02,-2.616261584419865907e-02,-4.479986046440450065e-01,-8.936513681347875160e-01
9.317886117128463184e+02,1.911512943335943419e+03,6.204655571254861570e+02,-8.741182816023417013e-02,-3.423013471994094115e-01,-9.355153446112762783e-01
1.957737423567748692e+03,2.843168266066705201e+03,7.056476882392623793e+02,4.543753509499167120e-01,-8.544976697106201891e-02,8.867025306007259022e-01
2.087211998880958163e+03,1.967338282662127995e+03,1.144461853506711577e+03,3.454992894480204794e-03,-4.226670172565583639e-01,9.062784646826511636e-01
2.188148280288443402e+03,1.742707871588630724e+03,1.329309325839642042e+03,-9.050458493136223082e-01,4.252655103418224725e-01,-6.423110920218411124e-03
6.804033484663195850e+02,1.372166028271107734e+03,1.300658137898435825e+03,-7.290050811235497807e-01,3.956689517490569186e-01,5.585675181371085873e-01
4.981160517837039947e+02,2.472176953178959138e+03,2.056220328420594797e+03,-5.180749347819287864e-01,6.303913113458152750e-01,5.781047971868107371e-01
6.512713916157016456e+02,6.630173627038528821e+02,7.273703172530065331e+02,-7.401355103995580498e-01,4.801299660709401063e-01,-4.708233659519285297e-01
2.946658951563985738e+03,2.058356936051890500e+02,2.664688252176338210e+03,2.804800100649771366e-01,-7.225093160713035034e-02,9.571367545110009978e-01
2.822800865809625975e+03,1.541287208959810414e+03,1.421418864288905070e+03,-6.552191475851659730e-01,2.082210126172659159e-01,-7.261762035087688805e-01
4.565160314806070687e+02,2.189779616292072205e+03,1.211180640511352749e+03,-6.227597342061359509e-01,-6.672038025285489393e-01,4.086678349747481231e-01
2.121057281631293790e+03,3.057382459595141313e+02,1.287999497091480634e+03,-8.203531129663185761e-02,6.805987644978568341e-01,-7.280491257219222634e-01
4.039760998981134321e+02,1.473066573744428297e+03,1.000186478400413648e+03,4.786191211772127668e-02,5.202717736788232683e-01,8.526585007384415160e-01
8.797873987967884659e+02,4.027488567638101813e+02,2.271356570673711758e+03,8.553648289801281113e-01,5.072404447957747919e-01,1.051576935234925791e-01
1.542418349154485213e+02,1.530817395785399185e+03,2.488211664654959066e+02,8.603260727053604895e-02,9.897767888425949012e-01,-1.137554339566906325e-01
1.316903374325712093e+03,2.512621388280078918e+03,1.009634263589708894e+03,7.830619159405739493e-01,-3.093770814265863756e-01,-5.395367061576485934e-01
8.447327769737367475e+01,2.383091514739493846e+02,1.666715302695903802e+03,4.867502110305103602e-01,6.545697100610333719e-01,-5.784571952464316880e-01
2.234246848677049002e+03,2.847041882613390044e+03,3.881339038580812257e+02,-1.541459731321296600e-01,-6.319073299752161477e-01,7.595604948196963413e-01
