x,y,z,nx,ny,nz
1.297397021526739309e+03,7.460957126975953315e+02,2.151368895254055133e+03,6.601935469857467265e-01,-7.193478492498485144e-01,-2.160628433997753284e-01
4.341779804925760686e+02,2.027039686218636234e+03,1.399675224054318960e+03,7.479602498056103776e-01,-2.152238515673135510e-01,-6.278806880508907007e-01
4.763794831827223675e+02,7.313534575503177848e+01,1.662442942286712650e+03,5.480227390391869680e-01,-1.014474707744237592e-01,8.302887980512922983e-01
1.379692018008375953e+03,1.876503690762995802e+03,2.134623756676197445e+03,8.519536415937372098e-01,5.140981094542624863e-01,9.938876410703235964e-02
1.382439571280437178e+02,2.388343932671607490e+03,1.350629166690599050e+03,-6.732852981134411774e-01,-4.126811103048799029e-02,7.382302150117332484e-01
1.370523306628795126e+03,2.369631911036540259e+03,2.024220801718228813e+03,-5.825722183725503545e-01,4.675882361118469110e-01,-6.648088836878589536e-01
2.936387789542195605e+03,1.507902766040922188e+03,1.235416612432803277e+03,-4.939081686501232693e-01,-8.598846608749035614e-01,1.290468555708879084e-01
6.524791265063041692e+02,7.073261178370157722e+02,2.096839076417382330e+03,-1.018457313797339614e-01,-4.474235888038680109e-01,-8.885041244595290877e-01
2.132190928846244333e+03,8.881148581760443221e+02,1.101106533585898291e+02,-7.330019663647966421e-01,-2.554906861325997869e-01,-6.304225778038370365e-01
2.227525451469840391e+03,1.152892506517199081e+03,1.848457695577225650e+03,-9.200615820321297322e-01,9.196837246733385873e-02,-3.808260806907065033e-01
1.072169670154945379e+03,1.402417174493968332e+03,1.558779517802778685e+02,6.451559332933692881e-01,-6.091711252569621537e-01,-4.611771480565014514e-01
1.125127344601243351e+02,3.897661933779732522e+02,1.698540150108760827e+03,-4.423051015549967491e-01,8.650062397454619800e-01,2.369185563433990893e-01
1.972347413979711973e+03,3.092886503570288141e+02,2.894256773536659693e+03,8.519790538336236008e-01,-5.104434990088192459e-01,1.165295076296013616e-01
2.429995100687111531e+01,1.306887856796449796e+02,1.301424818396795899e+03,-4.478057930358012029e-02,-2.669229666520963606e-01,-9.626769082048658444e-01
1.613799309932627466e+03,1.326603904410106225e+03,6.996597190830182171e+02,4.442017397752591745e-01,-8.265835121426012844e-01,-3.456074533840889917e-01
1.392997733484615082e+03,2.043621116365995931e+03,2.805152121908002755e+03,5.056838778778601773e-01,-6.826363262170355162e-01,-5.275333750421092871e-01
2.522863239011749556e+03,1.469665072120254194e+02,9.564613013354045279e+02,3.207452522110623011e-02,1.632738960606128775e-01,-9.860592577005850012e-01
2.820351050201759335e+03,7.551835560412714585e+02,1.635854055829254094e+03,-4.043108305546860848e-01,4.148749198054619280e-01,-8.151144417887536964e-01
1.544660231458046610e+03,2.536920333345327435e+03,5.100279179429205669e+02,2.804547473879736019e-01,8.706293302988735716e-01,4.041654412377224670e-01
3.400773303940627557e+02,2.441023033323919122e+01,1.393410694986020872e+03,-2.066007980903748764e-01,-5.251746720460956919e-01,8.255347806541502020e-01
5.747623983142094630e+02,1.411277207963956926e+03,1.436205619146228628e+03,2.420926864068729655e-03,2.344150297441877258e-03,-9.999943220201312766e-01
2.934164184657901387e+03,1.999280244488022618e+03,6.293542538984694374e+02,4.146695562139903202e-01,-5.263137842394016719e-01,-7.423226789401581316e-01
1.698237945936107565e+02,1.996080409995085120e+03,5.638095679046251263e+01,2.470963732395195858e-02,-5.251408166833950730e-01,-8.506565443681812777e-01
2.272801085133129618e+03,1.762639055300315476e+03,1.938218305996273330e+02,-2.453850467786833911e-01,4.613237038654799949e-01,8.526233746908762345e-01
1.921717697972247606e+03,1.156072097725283584e+03,2.621705810713907795e+03,-1.559275953081145916e-01,4.670048167821170826e-01,-8.703982342145060169e-01
1.299450414190142510e+03,1.709827904795024324e+03,1.948199715912187912e+03,1.354265781605609731e-01,9.451723523948728500e-01,-2.971680773502829997e-01
8.384839173455734453e+02,1.876802811032942827e+03,1.269065915374698307e+03,2.475590469082231343e-04,9.968249461520093391e-01,-7.962389995197316495e-02
2.070137623415790131e+03,9.530955838693797659e+02,1.094275611188777248e+03,-5.170156910917531913e-03,-3.154481293434916456e-01,-9.489287366136660573e-01
3.252124761769060797e+02,2.276098400997437693e+03,2.311051689570777796e+02,6.654998115101251610e-02,9.634537052361092924e-01,2.594765073674536460e-01
4.531800673842873834e+02,1.759568867812751250e+03,1.739421687898918663e+03,-2.357216097181231984e-01,4.123502619000095626e-01,8.800014683072354682e-01
6.825424106800646769e+02,1.531012638522522820e+03,1.123397420792637831e+03,-8.270421622728338917e-01,-3.332997865575496599e-01,4.526726345868141710e-01
9.151239529210970431e+02,1.912302510309843910e+03,9.195868779586504616e+02,-6.895156758408538256e-02,-9.947857089772472738e-01,-7.514701951729631235e-02
1.195878748392836087e+03,6.751494680347124131e+02,1.639506071737961975e+03,-1.360186338750132840e-01,8.450694836641037266e-01,5.170652753941809010e-01
6.696873654291442790e+02,1.385929724546980651e+03,1.785772912625081972e+02,-5.356322411669349748e-01,4.288508483895033807e-01,7.274510650607981521e-01
1.293452600807866247e+03,1.832858414410695559e+03,2.071797623631659917e+03,-8.546449300456780973e-01,3.282507594495926578e-02,-5.181742544129588346e-01
1.994308848928224052e+03,7.662958979641205133e+02,1.547004247936452657e+03,5.896407504127596511e-01,5.122984188886342549e-01,-6.243990034079835993e-01
1.858192977961502038e+03,4.487978887180822340e+01,2.860314324939573908e+03,1.818542660328378857e-02,6.766090159814261984e-01,7.361178776200879570e-01
2.325867497775176616e+03,1.293058543699615939e+03,2.430763345785447655e+03,-1.716084397793804506e-01,5.496192449193778584e-01,-8.175996752755836372e-01
2.662983341758996630e+03,3.025617750010368923e+02,2.994838418437633209e+03,1.107060960624842716e-01,3.065795732243921101e-01,-9.453851731311178064e-01
1.643599335635582065e+03,1.481378172744327230e+03,4.258843279717382302e+02,2.464981796379538473e-02,-9.210517327018642453e-01,3.886593523398676475e-01
2.729316337349411697e+03,1.161503730592880856e+03,1.152151108063292440e+03,3.209753045251485526e-01,-8.305499778633190777e-01,-4.551500721259180704e-01
2.784874545480003690e+03,2.842396272510980452e+03,1.582198638149410044e+03,-9.191125209011727915e-01,3.742450098757395538e-01,-1.231781088740968588e-01
2.194671998017167425e+03,2.672263036051115705e+03,2.673019022983586183e+03,-1.977104019953763309e-02,-8.418245386486864490e-01,5.393890544851225322e-01
1.254929719930027886e+03,2.687525277013357027e+03,1.397259985327078084e+03,-1.117794544876556107e-02,8.564026294903720471e-01,-5.161875528696144855e-01
2.581243629422757749e+03,2.593256031576075202e+03,1.808756774910772037e+03,1.586147605371221675e-03,6.255952508723463534e-01,7.801461825976847564e-01
1.994411198048692086e+03,2.754278391587968713e+02,2.415773694252543919e+03,-5.698757379107978194e-01,-4.590095641814360694e-01,6.815804158942596613e-01
8.845600371824173180e+02,1.080413865195563176e+03,2.434829524753521582e+03,1.859638373615821738e-01,9.671661721906120723e-01,1.732254212404007176e-01
5.356977948572083505e+02,5.370817966652555242e+02,2.803210309878058979e+03,7.773612325724196803e-02,-4.301266119124195209e-01,8.994154728854055758e-01
2.167544428459422306e+03,1.578342669831317608e+03,2.269676923354429903e+02,-2.018865728067484044e-01,-5.221223039280132872e-01,8.286314690266408656e-01
1.974746952042214616e+03,2.405502016182848820e+03,3.057612993921112547e+02,-8.684008964132823305e-01,3.875800173483708311e-01,3.092921163897395243e-01
2.025121075819607086e+03,2.626320591500131741e+03,1.318623741166771310e+02,-5.944629574911974856e-02,-7.504016525942817095e-01,6.583034996910461789e-01
1.169716965340546949e+03,2.194806283474497832e+03,1.656136376294117326e+03,-9.637976832316302173e-03,-9.952546915846507414e-01,9.682565920933020043e-02
1.609604820472204665e+03,2.347512684309429915e+03,1.118393769223492427e+03,-5.391148703036208190e-01,8.334352632012754780e-01,1.214117731940802525e-01
2.937664322389120116e+03,2.140532982907468806e+02,2.216234870646904085e+02,3.702636737674101786e-02,9.983015625208242483e-01,-4.497819902312053669e-02
2.070336030934551673e+03,7.221830180237348031e+02,2.440299128877010844e+03,8.673191338346533663e-02,9.883152294598859244e-01,-1.253418621949431433e-01
1.794842459257935843e+03,2.363889357966164425e+03,9.702666892461261341e+02,8.866574338646607267e-02,-9.688126337578696345e-01,2.313881298184188307e-01
3.408911512215704533e+02,1.351904425715887783e+03,9.178750784765529716e+02,3.297194444119875278e-01,-3.515431184311935131e-01,8.761863522449560016e-01
2.575574154342649763e+03,2.260881342164648231e+03,2.723617405543666905e+02,3.791498940115859972e-01,7.642425987503096430e-01,-5.217073970401189253e-01
1.856492134941714767e+03,1.433931531639624382e+03,1.279216538575293953e+03,3.524588596969189802e-01,-2.191529003916550811e-01,-9.098047914091642596e-01
1.562434386692213820e+03,5.543780482854355114e+02,1.686659065520686227e+03,9.904293564497692604e-01,-3.092054608541916147e-02,-1.345124890568734077e-01
5.992173701942009529e+02,3.509018125075197077e+02,8.490166575339709425e+02,4.824368488411252542e-01,-8.303939383585688949e-01,-2.787482628064084089e-01
7.127816236296193892e+02,8.949558167749320319e+02,2.964873048025152457e+03,2.252839436259150285e-01,2.849519526882621570e-02,9.738763620660206843e-01
1.619592122260938140e+03,2.484454655331012873e+03,1.778309482337783038e+03,-3.724178440825615666e-01,2.025269075447456435e-01,-9.056974114621609839e-01
9.943260243671541048e+02,1.277407417037945379e+03,2.664650654063835646e+03,-5.489630105518844561e-01,3.024071585958679198e-01,-7.792236671686668670e-01
1.669152407939997147e+03,2.734297526814437788e+03,2.397549651046837425e+03,2.766198045363405661e-02,5.918744599725253019e-01,8.055553602761353904e-01
1.478200395029061269e+02,9.358367491171418351e+02,1.682905780847784627e+03,4.525455734471749980e-01,8.911208881839363105e-01,3.325757952166692732e-02
2.887425146679231602e+03,1.119392426672064857e+03,2.559224609246803084e+03,1.460693338183927659e-01,9.414308632356426232e-01,3.039270956417736702e-01
1.786680309593650236e+03,1.038883258428454837e+03,2.626516599870691607e+03,-4.560864048475530841e-01,-2.025507533311927399e-01,8.665785501835365778e-01
3.923635611470610343e+02,1.007518236925359815e+03,2.426801888341633912e+03,-3.927534581180860962e-01,9.196327719256224276e-01,-4.503991194589440639e-03
1.663247739378232154e+03,2.834780309199705698e+03,2.624857414250478087e+03,9.583579393810435221e-01,2.742167360808338561e-01,7.971976968415273035e-02
1.317590571571659666e+03,2.268399467982594160e+03,6.872719601082702638e+02,-7.997391121454144880e-02,-9.948459972214610536e-01,6.233470411805448752e-02
1.867152813781839086e+03,1.297350897275378657e+03,1.929055794956503405e+03,1.314359322370998173e-01,-6.131034678059197329e-01,-7.789921267133065319e-01
2.193303091276259693e+03,2.442221858052022981e+03,1.715944005795652629e+03,-3.609300294178340862e-01,7.797330987265418401e-01,-5.116109934459448505e-01
1.580188271561392412e+03,1.361537221949317654e+03,7.733728481449931280e+01,-7.018886383595113188e-01,3.235647146868138035e-01,6.345535554635811648e-01
2.180499937007281460e+03,2.481638868151006591e+03,2.535273435622394118e+03,2.846176337317765648e-01,4.839489414091437958e-01,-8.275181113896501461e-01
1.646179252820546708e+03,2.729822927880181396e+03,1.378795232420075081e+03,9.997645241695225504e-01,1.381455274197138441e-02,1.673482430823614031e-02
3.069432391738336037e+02,1.195071829154386478e+03,2.153374592166270759e+03,6.191101484870201732e-01,-5.806821235494439293e-01,5.286878998336240754e-01
8.316684663983637620e+02,9.051738311388392049e+02,2.405461476882808824e+01,-5.301302775720055926e-01,-2.534379544324392164e-01,8.091545538736892862e-01
1.282324169085855374e+03,7.644113071260445622e+02,8.813002587878463601e+02,2.111741163324116766e-01,-2.538772721347506978e-02,-9.771187010277508911e-01
9.393389475757030027e+01,1.346452606958476736e+03,2.589123418825163753e+03,-4.072445452945583355e-01,7.980504345193167870e-01,-4.441479306395090809e-01
1.662166659426736715e+03,1.840427515624838577e+02,2.006967530511026609e+01,2.001912938086971017e-01,9.604147173612025412e-01,1.937189112069375163e-01
1.171189905398454584e+03,2.006410788558426475e+03,1.225646861829736508e+03,-7.839320478987786833e-01,3.915816186188681991e-01,4.817825030416258425e-01
1.151268415043452933e+03,1.452636729927230363e+03,1.248805121339979451e+03,5.347690670394211754e-01,6.716537023292403763e-01,-5.127410156065255187e-01
5.748144516544543876e+02,8.314464316413395295e+01,2.898897891713263107e+03,5.936495870065722213e-01,4.326319443140115295e-01,-6.785350164921516436e-01
1.219062265028253023e+03,2.187800532395013306e+03,1.690742025254975943e+03,-4.997468232940390220e-01,-8.549549590672688160e-01,1.389429040066507692e-01
2.301673018929941009e+03,1.206380176113066000e+03,2.166690791965761491e+03,7.938752499453384237e-01,6.042327008024573898e-01,6.830029871965792587e-02
1.196848946159082516e+03,1.073403961844077159e+00,1.618959709565353933e+03,-5.437671554247944794e-01,-6.637980422457977203e-02,-8.366068385283100817e-01
9.900097933143933915e+02,2.507536659940578829e+03,1.769494699830984018e+03,7.072188022983927347e-01,-2.384003284587453420e-01,6.655875968393560882e-01
2.056557377545680083e+03,2.300140269345406523e+03,4.374254367788089439e+02,-9.892926736764260515e-03,-1.579748322268782756e-01,-9.873935802826908636e-01
1.228470419788337040e+03,2.658721387468131979e+03,6.414653299923321583e+02,5.205838061927519078e-01,2.956324245306175547e-01,8.009956119080903214e-01
2.974393303587393802e+03,1.192417287987309919e+03,1.590493372516010140e+03,6.231682458903993194e-01,-2.520902293068733591e-01,-7.403457662483732271e-01
2.362774452420410853e+03,1.924573096177367461e+03,5.912811520330013764e+02,2.864024750772111230e-02,9.622774508081626266e-01,2.705583927525454513e-01
1.567581206966337959e+03,1.961553564745069878e+02,9.765498523583081578e+02,-2.437329549220973723e-01,6.555395403677448662e-01,-7.147462190871588517e-01
1.624630515353452438e+03,2.930167742953916331e+03,1.862489065873545997e+03,8.208985290137860158e-03,8.135425836323583182e-01,-5.814473984611967516e-01
2.340878303846237031e+03,2.686140207181323149e+03,6.204767423058576981e+01,-3.338731489987784573e-01,-7.234305603952029262e-01,6.042987213820016912e-01
8.484897790166387495e+02,2.314800001839017114e+03,2.355769151958560315e+02,-9.769160812842854480e-02,-7.314240496889595766e-01,-6.748890347589624472e-01
1.923108792198662741e+03,7.092644606284178508e+02,2.369840204591841484e+03,-8.255805393579843665e-01,-4.618296949857403355e-01,-3.242377304737340538e-01
8.445871108794466409e+02,6.655280893667106739e+02,1.621052866637341367e+03,6.474709951873136235e-03,9.389363914587898208e-01,-3.440298401670783823e-01
1.594555502143000695e+03,2.629508718555043288e+03,2.810275016646609743e+02,-8.114207867326692636e-01,-2.109144711578194165e-01,5.450792536084576589e-01
3.735715950265547463e+02,2.970086290750338776e+03,1.550892804350568667e+03,-4.658604839739413639e-02,1.700247770447880780e-01,-9.843380086563690012e-01
2.966329297773966118e+03,2.189686169787227755e+03,1.893366134719515003e+03,-1.030637069239049575e-01,6.008730995178593881e-01,-7.926723097162560183e-01
1.476659116045247856e+03,5.596206311211707316e+02,4.169736489634955205e+02,-5.567044430766729946e-01,4.538289300728328146e-01,-6.957869395782299016e-01
1.269724089210003740e+03,6.875524330833952718e+02,8.528602185065682306e+02,-4.657721254740040395e-01,7.375023571175880477e-01,4.890261755544689226e-01
1.519822797561530479e+03,1.943425967185818081e+03,1.835605220334206024e+03,5.699704543377921429e-01,5.556296757244388873e-01,-6.053175568545205998e-01
1.556449610165104787e+03,1.592354384819855341e+03,1.614702029711839259e+03,3.131248839540309303e-01,-5.713174430575707063e-01,-7.586495807070179342e-01
2.541864047000844039e+03,2.224908995762345057e+03,2.933533455558562309e+03,-9.131870004627017784e-03,-9.896834317682030591e-01,1.429801169174619857e-01
2.623641893654194064e+03,2.800479510665714315e+03,2.006088942595614526e+03,9.842864520510797854e-01,-3.778467514759743101e-02,1.724891261288317157e-01
7.506391087090754581e+02,1.358660506287094222e+03,1.338637740611300615e+03,-4.043256131251086183e-01,-5.805362108515984554e-01,7.067520827426498897e-01
1.776716936319332490e+03,2.493794713021181906e+03,1.489818391666777302e+02,-5.029095768785467602e-01,-1.596134943226475700e-01,-8.494736546320640347e-01
2.648817649893197540e+03,2.148130935181769985e+02,4.829738933373977261e+02,-3.382107912414265005e-01,2.085038705988407903e-01,-9.176816423102023279e-01
2.490633614195647624e+03,5.096637993120656773e+01,1.007821334963704317e+03,5.511777652529813443e-01,7.595399637540896087e-01,3.454013818026292482e-01
8.668349508526318914e+01,6.615164792288215949e+02,6.899419197723196930e+02,-9.214296499778312777e-01,-2.894603133269572082e-01,2.591912945111989330e-01
1.684927689033902709e+02,2.137054288509833441e+03,2.633035820534331833e+03,-1.253638444465519086e-01,-7.217825236844012116e-01,6.806716499233367301e-01
3.554871975651419120e+02,2.199425261309134839e+03,1.763814056823833198e+03,-8.679328115320005255e-01,-3.891551631627927083e-02,-4.951547407184893612e-01
1.816365352287287124e+03,1.722423669542709604e+03,5.378990327736886456e+02,-2.789358706924383383e-02,8.878590094508496122e-01,4.592693405153087660e-01
3.323737094531411458e+02,2.539497574968005210e+03,1.661634530682844343e+03,-7.444565542449967099e-02,-7.138261229972203692e-01,-6.963548739796211473e-01
6.261666144767719970e+02,1.652110140050377368e+03,2.697025079591760004e+03,-2.462215721336650787e-01,-7.017607958167635385e-01,6.685108247969131501e-01
1.499333501155873819e+03,1.824865480467424049e+03,2.884524574266160926e+03,-5.790467029787381703e-01,-3.386595185554149290e-01,-7.416297231511608246e-01
1.151837325807520756e+03,2.721704226013283915e+03,1.897013968128774422e+03,-1.464164027158165911e-02,7.463304881302222915e-01,-6.654144759903121153e-01
3.300942032437306466e+02,1.921112128887100198e+03,8.448402475678899464e+02,1.255508922073530764e-01,4.742792737857813856e-01,8.713760060520197026e-01
2.147554069437571798e+02,1.543870900787278515e+03,2.368613714525309888e+02,6.429493551604602564e-01,7.520750079274067801e-01,-1.449113837824325124e-01
1.042310515898993344e+03,2.137812446314014323e+03,8.474950326437472086e+02,3.074728826862946351e-01,5.162582790427876489e-01,7.993358591558115123e-01
1.421310097049187561e+03,1.099712564042277563e+03,2.562347326253175652e+03,-1.767573892476888633e-02,6.099396204516506215e-01,-7.922507353463043023e-01
2.046285854849053976e+03,1.286298869123116447e+03,2.092308044298089044e+03,2.589240208126791232e-01,9.263260913699379318e-01,-2.736390394177863339e-01
3.064469403387461739e+02,8.940837554854998643e+02,4.920859418999456807e+02,2.530751346182877892e-01,-3.324319248048894782e-01,-9.085383820227144192e-01
2.703148197289915970e+03,1.708366278465973664e+03,1.770078348734838073e+03,4.495510355909208555e-01,-8.906647831632656942e-01,6.797139421744759213e-02
2.512833591320843425e+03,1.957702908113818694e+03,1.881039613606988951e+03,3.495799890747490479e-02,-9.590390404016968517e-01,-2.811086218844550122e-01
2.622146559271593560e+03,2.125941167426165521e+03,8.185680134699128985e+02,5.039696048372380721e-01,-6.241449636198646012e-01,5.970407873739917992e-01
1.112979801813335598e+03,1.452569563308218449e+03,1.245109716887410059e+03,-4.827040914940091132e-01,-6.961236160354962177e-01,5.314213688332530827e-01
4.302396743120016254e+02,3.436596142831084535e+02,8.454304058374060560e+02,3.024753516109083828e-01,-9.449294051248036119e-01,1.249683199788735877e-01
3.283045258798580335e+02,1.734067889695234499e+03,5.078725457046735414e+02,-5.552483484966890676e-02,-7.557690457440517928e-01,-6.524799937239780245e-01
1.767826937479300966e+02,1.273315108542768940e+03,1.057454170500700229e+03,-3.767914355208458743e-01,8.924971902794347489e-01,2.479455171231268462e-01
1.815426685333792875e+03,2.727279900908573836e+03,1.724949507184158790e+02,-2.610529846291835820e-01,-9.347763118704196031e-03,-9.652792127363314378e-01
1.313127586297233165e+03,4.670621718256528965e+01,4.851259040536029943e+02,-5.470772548349226577e-02,-4.215134630414715255e-01,-9.051704067451658009e-01
8.393071742705187432e+01,9.482206702152849402e+02,1.662028916740715886e+03,7.408852454024469902e-02,9.390868055498219347e-02,9.928202507241036257e-01
2.193933513479766134e+03,1.747331855246660552e+03,2.117916060510161103e+01,8.038450490724150521e-01,5.945724235261924395e-01,1.779804101458482002e-02
1.152431537901732383e+01,6.488817277640474686e+02,1.903269441526508217e+03,7.063533240279628034e-01,1.372672633419870225e-01,6.944225515125854731e-01
1.724001392950640820e+03,1.671541791826089138e+03,2.399105393304363133e+03,6.304328628728347317e-01,-7.576652722562788878e-01,-1.688127383427580064e-01
1.631123958821157203e+03,1.344571539569300967e+03,1.599758535841692719e+03,6.345538856692711782e-02,-6.893125391644887578e-01,-7.216797329927073790e-01
1.345445034886619851e+03,1.910698613254488237e+03,6.624379926844251258e+02,-9.298745216562935567e-02,-2.124132565924415073e-01,9.727455690793653797e-01
2.965338557917068556e+03,1.028962043149486362e+03,2.548882356096924013e+03,-7.724157605145122174e-01,-5.451908898876361986e-01,-3.257925513149669272e-01
1.196846966770863901e+03,2.951544294048489064e+03,2.665560047240226140e+03,-3.750918326623884358e-01,-7.664720071617093788e-01,-5.213700982099676029e-01
2.678172195683391692e+03,4.639761157503431264e+02,2.250188803879392708e+03,-9.722587122337509324e-01,-6.858215546466098211e-02,-2.236280045910825631e-01
6.253716184848190096e+02,3.037403951884310800e+02,7.911688940045306708e+02,-2.917866321192703616e-01,9.393208491155824458e-01,-1.803798872748143545e-01
2.123099588901785410e+03,2.277198186011468806e+03,2.695702198980305184e+03,-1.511558583364606689e-01,-8.974483937028395752e-01,-4.144131840696685942e-01
6.215855583468913892e+02,4.140017088140446049e+02,7.023312303672942107e+02,4.014422712690686179e-01,8.193049842806954253e-01,4.093695708905842334e-01
1.435988920870908942e+03,2.193902249953561750e+03,1.541649566534056248e+03,9.349838589731642724e-01,-2.974782846178480877e-01,-1.931627646325051462e-01
2.442736892633151911e+03,1.496869564737527071e+03,1.607370320220141764e+02,-9.169569818994252053e-01,-3.750007697181617083e-01,1.362509304800645360e-01
2.101409785975522027e+03,1.510214709736663281e+03,1.229002497960889059e+03,1.046725269019783966e-01,9.523269493675947661e-01,2.865607154167598702e-01
1.044327218583549211e+03,9.052780046684193849e+01,9.232778998986000261e+02,8.987846196321455094e-01,-1.445748321669154957e-01,4.138651053382100820e-01
5.763854487899152446e+02,3.804672862787048757e+02,3.876247122189737411e+02,-7.870767400499683042e-01,1.058944317112232684e-02,-6.167641923503992540e-01
2.906114897368424863e+03,5.698079996257177271e+01,2.525118723775281978e+03,2.283056534305901580e-02,9.899575461793270748e-01,1.395092185080322178e-01
2.382555380520815106e+03,1.021043369587294592e+03,2.858507377750541309e+03,1.151160296973298414e-03,-5.679475988469271375e-01,-8.230639099085688137e-01
2.873046180709499367e+03,2.043922876493253682e+01,9.299536911219712465e+02,2.813698074654731943e-02,6.934465428514119401e-01,7.199584727759605896e-01
2.264563351597734254e+03,1.127242297696534024e+03,6.378367055748952907e+02,7.036079227272236114e-01,6.806016367099515518e-01,-2.042481411989260920e-01
2.860776940759032186e+03,2.653148978516468560e+03,1.791498446796674671e+03,-8.214056059665213461e-01,-4.932344034261431087e-01,2.863785148429061067e-01
6.560515049476802005e+02,8.513369760803560666e+02,3.638189155383498701e+02,6.189457398791549103e-01,7.832310514748515029e-01,-5.878172412445925588e-02
1.991717261098528297e+03,1.379452573827845754e+03,2.680823208953473113e+03,-5.529679717303317421e-01,4.006964076923650309e-01,-7.305263931596701621e-01
2.663584524328437965e+03,2.630976941059568162e+03,2.033972624589552424e+03,5.009992905324781587e-01,7.802439782775127952e-02,8.619233749177304116e-01
9.124554628292196412e+01,1.391648910730828561e+02,2.837723407253070945e+03,1.500486031467260098e-03,2.066325946035446615e-01,9.784174566048362554e-01
2.652478268687321815e+03,2.784111802601870750e+03,1.878455250737287543e+03,-4.828347241931923439e-01,1.686650701764544902e-01,8.593152641584203000e-01
1.087902660653021258e+03,1.985632865120248653e+03,2.701600872334161068e+03,-9.446650708506434402e-01,3.187216139783052848e-01,7.761724484812027036e-02
8.445200420444176643e+02,1.740259695205054641e+03,1.710340840520088932e+03,7.581507618066197773e-01,4.363209553672392493e-01,-4.845941046684965059e-01
1.431074835339634035e+02,3.960604513364542640e+02,1.812296740742252950e+03,2.100823764320464970e-01,-4.423002437586776581e-01,-8.719150701092843736e-01
2.452271895883171169e+02,9.156050444819918255e+01,9.111732822431496288e+02,-9.605668598991611296e-01,2.359426720500551744e-01,1.471134363997579630e-01
2.756301754861324298e+03,2.183187798930611734e+03,8.016785300179827800e+02,-1.877005834624917990e-01,-3.271702508382065555e-01,-9.261361227888182945e-01
1.596680211939199125e+03,1.086088386257750471e+03,1.880843018430815164e+03,-7.480166696459882303e-01,-1.411013936956733716e-01,6.485070999062871877e-01
2.364843882956307425e+03,9.820976100653125513e+02,1.898587380960363816e+03,-2.007439709341044820e-01,4.710786101669033887e-01,-8.589451677358841408e-01
2.877220932280456054e+03,5.038027481773154932e+02,2.240590522402551414e+03,-8.300361237901071609e-01,1.382749298562427342e-01,5.402962862881302009e-01
5.702157075675008855e+02,9.103639571369701571e+02,1.855526257452311256e+03,1.211791155999782273e-02,-5.451625237919233147e-02,-9.984393494078407372e-01
1.930314914711896108e+03,2.315860887483292117e+03,4.827213491377834202e+02,-6.327255172163163133e-01,-2.210441737003811524e-01,7.421575931946400306e-01
2.707862989552835415e+02,1.278267439074443018e+03,2.113382002207762980e+03,4.153632248248730757e-02,6.015233519123478478e-01,7.977746492705598547e-01
1.668450276116483337e+03,3.605128821203759912e+02,1.710667614168148930e+03,1.069538826877211163e-01,9.498990416325051589e-01,-2.936880618678078814e-01
1.695805529870862301e+03,1.168167832144405338e+03,1.633357072152803084e+03,-4.097606565883417651e-01,9.058034630714518753e-01,1.077788968214843518e-01
8.664378386878560150e+02,2.636031609142078196e+03,1.094163416365852072e+03,-1.356033217632639232e-02,9.286505896644180469e-01,-3.707077011706071956e-01
2.726429447470439754e+03,1.217678287052071710e+03,2.149565799316448647e+03,-8.219684102999946784e-01,-1.690307981018637079e-02,-5.692821957182836456e-01
2.479250873325412613e+03,1.289779769384738302e+02,9.657515529037688111e+02,2.754433731862052006e-03,-9.689010000892556151e-01,-2.474333549076541683e-01
2.446538113256056022e+03,1.066562002870479773e+03,1.702809370580735731e+03,6.808050013598333505e-01,6.329486797338967907e-01,3.686197484489329157e-01
4.864008435450122079e+02,2.672637401484274051e+03,1.495988697242832814e+03,-9.289447069869851692e-01,-2.949819115019456928e-01,2.237127695227134894e-01
2.370983374719472977e+03,6.739753233153450083e+02,2.640749788720177548e+03,8.613361689285750078e-01,3.243071224398129671e-01,3.910561269565451248e-01
1.213416849995354596e+03,2.577829048843214878e+03,1.054534683609313333e+03,7.246402324906902059e-01,3.587945429628852101e-01,5.883561926213514148e-01
3.544541355988836244e+02,2.656324694118811294e+03,8.620401878609933419e+02,5.443146900248679865e-02,-8.044855089649521895e-01,5.914729757542884769e-01
1.152292422964657817e+03,2.914336305315794561e+03,1.442171266065218560e+03,4.242955541343524373e-01,-4.435240451834533970e-01,-7.894679880058018684e-01
2.220418243211875961e+03,4.747004783310138123e+02,1.519523279368667545e+03,-1.557364309459654261e-01,-8.931649715480863838e-01,-4.219034222138031698e-01
2.845854145001841516e+03,6.878456858710770803e+02,1.902192063684477262e+03,9.272158743644220991e-01,-3.710701905239822684e-01,-5.077042476792859027e-02
1.356203299004813289e+03,1.265179425608703923e+03,9.055166028879353917e+02,-3.392562362436260526e-01,7.423283356010486056e-01,5.778008725621535113e-01
2.958906227150141149e+03,1.763113646104585541e+02,1.984049873768624366e+03,-7.619893969954839863e-02,-7.628219208474137369e-01,-6.421031370919524361e-01
1.867090774894242259e+03,1.752715315898981316e+03,2.104212716925240329e+03,3.064461813635567244e-01,3.071871946412024074e-02,-9.513921894792802814e-01
2.202201331884667525e+03,2.575265751743457713e+03,2.635748081118152186e+03,2.105638811807414648e-02,-1.469762214826968727e-01,9.889158805672453312e-01
2.553060152614628805e+03,1.114277417121257258e+03,1.112932600529118190e+03,5.791697843298275750e-01,6.362107748180372280e-01,-5.097040424842381734e-01
1.568663854626111060e+03,2.289715118852635896e+03,2.010981553806760758e+03,-5.898164590739253255e-01,5.334075588414191049e-01,6.062944175698261606e-01
9.447912306641100031e+02,1.793841540208806236e+03,6.611491412596986947e+02,5.248666369597061454e-01,-1.129047870392352743e-01,8.436631569946817510e-01
1.557106484618954028e+03,2.529661710266576392e+03,3.587077665786227954e+02,2.286894308295685518e-01,3.530690996285291705e-01,9.072173692750528096e-01
4.841467214037540430e+02,1.931033714983058644e+03,9.791087664413462335e+02,-3.296606769279959437e-01,-2.887951895796881385e-01,8.988443561390412340e-01
2.430425955945023361e+03,2.645146177333692322e+03,2.660727284543509086e+02,6.196489870492847274e-01,-2.582939593244560350e-01,-7.411608215666094512e-01
1.718399662666640779e+03,5.304076808125055322e+02,6.183282640859641788e+02,1.605965025066296292e-01,-1.710331669526521034e-02,-9.868719470836424534e-01
2.389277459636183266e+03,1.408948338996802647e+02,1.826345212036076646e+03,-6.974296907490004083e-01,-7.158198402902290480e-01,-3.455116074207542631e-02
5.082122764140921163e+02,2.660389541845779149e+03,2.540664631399553400e+03,9.147818387144952823e-02,1.087940502055004116e-01,-9.898462489273092135e-01
2.470353503201085459e+03,8.110634944855042932e+02,1.730541397567466220e+03,-8.942939962136756682e-01,-2.058524872492783486e-01,-3.973197727642812094e-01
1.582103727491736890e+03,1.121151280275400040e+03,1.417065756891845012e+03,1.284136225287296762e-01,-8.418363347938394581e-01,5.242342291093968765e-01
1.443863299213546270e+03,1.421738975167938634e+03,3.892404882591797559e+02,-8.961837138098093236e-01,-4.435209178374149297e-01,1.199777240636179521e-02
1.685735068139938448e+03,2.029746846063837438e+03,2.297247086276071514e+03,-3.438243601997478804e-01,6.935733897393512315e-01,-6.330408852346742776e-01
1.106179953439708754e+02,6.917581334866250700e+02,7.251104152439974087e+02,4.449302155112703355e-02,9.439187856820116518e-02,-9.945403683579752130e-01
2.174171356848339201e+03,2.581594214338366328e+03,2.718536657180844031e+03,-7.555331560966191962e-01,-6.464128563646779346e-01,-1.063958136636019014e-01
4.571430586009440731e+02,1.488267910169953439e+03,2.831193675281761898e+03,-9.823198849202420257e-01,-3.466904361348338570e-02,1.839720117442023295e-01
1.217695964346366509e+03,2.365755940480421941e+03,1.803349732124197999e+03,-9.038678099968850965e-01,1.467673578356945285e-01,-4.018486340966758164e-01
1.940572259093678156e+02,1.563009421410489495e+02,2.503361295405765759e+03,3.421722592885690362e-01,9.328943235349725915e-01,1.123669261374635742e-01
1.755155749801805882e+02,2.478303585866684898e+03,1.406045401348928635e+03,-2.701115165978222078e-04,1.921138610117932854e-01,9.813726058164197186e-01
1.473263142676862117e+03,1.798105210090364380e+03,2.732761229720380925e+03,-8.195763718739699222e-01,5.160170653957724118e-01,-2.490400748599217451e-01
1.765003793927508241e+03,3.281864322172575044e+02,2.404826306856291922e+03,4.104374435208929528e-01,5.543860920309227058e-01,7.240146171996220126e-01
2.412686013441217710e+03,2.484702698404398234e+03,1.030482235167873114e+03,-4.459794727305651518e-01,8.148349781603616560e-01,3.703326454275535085e-01
9.968019317129893579e+02,9.619871304864830108e+02,8.116821743469511148e+02,-1.475463765519772208e-01,9.876360213790352782e-01,-5.296372382085736547e-02
1.243981055041075251e+03,1.235772810022858039e+03,2.501875425705710768e+03,5.096923254825425076e-01,7.093516430305325804e-02,-8.574275105275646069e-01
1.500378690516214419e+03,2.536068821629846752e+03,5.323798070909008402e+02,9.323893757182026565e-02,4.195960208317648932e-01,-9.029095634794370717e-01
1.745169510907521271e+03,8.714403655561625328e+02,1.136106165747909927e+03,2.624270803030498422e-01,-8.326104608591263778e-01,4.877415791088244301e-01
2.005225758704057398e+03,1.598600066719795223e+03,2.166494307780212239e+03,2.530841084291838294e-01,-9.560652274338993228e-01,1.479449727174653173e-01
9.496921104790391155e+02,2.656342867429528269e+03,1.015784780869267649e+02,-9.977224742175259120e-01,-5.514271322906585948e-02,-3.884772347249421109e-02
2.263453320350567083e+03,2.968170669279115828e+03,9.935283372879349599e+02,-1.150377001821587114e-01,7.941709393894663682e-01,5.967066671037388748e-01
1.445640358186995627e+03,5.904883677724903634e+01,2.096943060678615893e+03,-3.238764935961798153e-01,4.504982514259431303e-01,8.319587383746933629e-01
1.675370456105243647e+03,2.309604367670707234e+03,2.253112234966462438e+03,3.926928024448241294e-01,-9.102781959739183471e-01,1.310952662856259832e-01
2.149181844845173600e+03,6.727937998507371731e+02,1.262610039272639597e+03,-1.214324446034025923e-01,3.916053424816320905e-01,9.120852027839752019e-01
1.497645351187345113e+03,1.044080756112852214e+03,1.781552448896096848e+03,-9.943167537482011653e-01,7.460322352279534497e-02,-7.595098587672866053e-02
2.247620820847157120e+03,2.760655164019428412e+03,7.991796018514615980e+02,-3.794868855939831920e-01,8.674638681517907735e-01,-3.217081614030201653e-01
4.217739169711354066e+02,2.090234694951837355e+03,1.981792882499800896e+02,-5.903016562204916884e-01,7.240817087572231081e-01,-3.567206662173703635e-01
1.647496034190842465e+03,5.171170452651098230e+02,2.302351378436503637e+03,-8.179311751930711250e-01,-4.200296127735083096e-01,3.931459233422346378e-01
8.718142910498074798e+02,1.013391503713486600e+03,1.993840264764740596e+03,1.553310691901867158e-01,-9.702164712240277655e-01,-1.858823765444930498e-01
1.804572427724508998e+03,1.480525683913105240e+03,2.599288153073893682e+03,-5.489428886986870149e-01,-8.335695352116345713e-01,-6.183473873317901770e-02
5.988378059533638407e+02,4.420756032365189299e+02,1.155469489396557947e+03,4.354889357706777375e-02,-5.426194433598678923e-01,-8.388489932973874907e-01
1.981894286243774104e+03,4.300103194747067050e+02,3.523259887611129670e+01,7.294911795355029094e-01,-2.040822993381188610e-01,-6.528346146435306530e-01
2.887896165117025703e+03,2.437965250316381571e+03,1.373454421905107893e+03,-3.584679041311909786e-02,-6.004361892086819141e-01,-7.988688192097834762e-01
1.666363033055209144e+03,2.841369128723942140e+03,1.769312555428340602e+03,-9.269072902120061297e-01,-3.236387462345456933e-01,-1.900022033755586204e-01
1.441727214688238803e+02,5.769649330545113344e+02,7.620173755465109480e+02,-6.258806917931318825e-01,2.577053155148786301e-01,7.361123080046465539e-01
1.120688846209558506e+03,1.100030495039681909e+03,8.465837958991492087e+02,7.618779424664516853e-01,-8.816511800084710082e-02,-6.416922258770032528e-01
2.301058000149737836e+03,1.825263804060189159e+03,3.611351102546472021e+02,5.099324585311942881e-01,-3.544200688555992351e-01,-7.838082051935435501e-01
2.165168722939927648e+03,2.830599511844405924e+02,2.167308822000554301e+03,2.250203725814756694e-01,8.657584761659501416e-01,-4.470213561678075820e-01
2.285294685423260944e+03,2.016863714958531318e+03,1.882367369892565705e+02,5.026779471583455727e-01,7.518500211952989787e-01,-4.266572712017222546e-01
1.355015901478009710e+03,3.000868355819516182e+02,2.572324341612902117e+03,-2.102532615804095506e-01,4.334410661434155987e-01,8.763118213143419322e-01
2.792991007741878093e+03,2.317683008982284264e+03,5.043776242084322803e+02,-2.290300168922515534e-02,2.101914604299859671e-02,9.995167072206679881e-01
6.803330544966631805e+02,2.945685135582004477e+03,8.799297381181206674e+02,-3.550268116191602208e-01,5.777674215128290047e-01,-7.349426982220793603e-01
1.503685114016116131e+03,1.273626720816163242e+03,2.784625545185465398e+03,-1.272218130823462023e-01,7.798739900100981615e-01,-6.128712507384972419e-01
2.810229439350343000e+03,2.205455377174499972e+03,7.932724368045476240e+02,-1.186671132774206328e-01,-3.307369178169096702e-01,-9.362324537311097483e-01
1.256967516648182709e+03,1.036709315889979507e+03,1.495128276882246155e+03,3.041140990240777109e-01,9.159957828138033387e-01,-2.616607357669492040e-01
1.125341677516608797e+03,2.608871926911644550e+03,8.161919206040340669e+02,3.977351174932520217e-01,-3.643705923175243333e-01,8.420456328292460491e-01
1.280483015627945178e+03,1.784901820944881365e+03,1.268286573514665633e+03,-3.907306435985241633e-01,8.138990423265524132e-01,-4.299975733105989573e-01
6.074474036520281288e+02,3.461263776426866343e+02,7.454392172692738541e+02,-1.942257481478739389e-01,-6.714368639357389812e-01,7.151565538429601743e-01
1.010165557587818057e+03,2.833288907382693651e+03,1.507897368247123723e+03,-2.050506481227271083e-01,-3.163938804041305924e-02,9.782398380912923352e-01
1.520203824918026157e+03,5.969741800585449027e+02,1.706178535226785698e+03,2.472839733502191495e-01,-3.546366901901124545e-03,9.689365612907406833e-01
7.897591083598076693e+02,1.042405550324653632e+03,1.297744037027955983e+03,5.281417160201916372e-02,6.819567036988400943e-01,-7.294831852470656797e-01
2.201113414012313569e+03,2.949625144479999108e+03,1.652316813380424492e+03,8.262788441634020264e-01,5.632538898966051866e-01,2.885689577062817979e-03
1.525941951801257801e+03,1.059736760532608059e+03,4.895685025581023524e+02,-8.230242592912216937e-01,3.289280427000988993e-01,-4.630738724476017865e-01
2.576573444537623345e+03,9.267847572537606311e+02,1.437351470008346723e+03,-3.599781326766780531e-01,2.913401974863252253e-01,8.863050452994392092e-01
2.488643933719867618e+03,1.836918166532478551e+02,8.725081957883171526e+02,-3.820613102143727291e-01,-2.069456149014018420e-01,9.006679008993034863e-01
4.723602663131575241e+02,4.933441224986183897e+02,2.782928504632060140e+03,3.013068417248387365e-01,-6.443188442438068098e-01,-7.028992915646792294e-01
2.931197941971472119e+03,2.077981167930655829e+03,1.089949326473752080e+03,7.313207857911179222e-01,-1.748516167023675960e-01,-6.592395773968899864e-01
9.896746455426566627e+02,5.755603349243768889e+02,6.560691929889062521e+02,9.000792477369787825e-01,2.458804299425712547e-01,-3.597223400964844053e-01
2.057611719472038658e+03,1.090880764688830595e+03,2.109443361910624844e+03,-3.518174898903940195e-01,3.958377942631915447e-01,-8.482552059610797279e-01
1.912922256236522287e+02,2.486972710974981055e+03,2.051090228076309813e+03,-1.555042950352616693e-01,8.504494724555983209e-01,-5.025476186647201970e-01
1.810336950366427970e+02,8.818863343993388071e+02,1.689452671563258264e+03,-1.956107825421498497e-02,-1.258055654515319874e-03,-9.998078723002248314e-01
2.893529823065548044e+03,2.250527769821464972e+03,2.682471840331047133e+03,-6.730277089164747872e-01,7.378200362919614674e-01,-5.152957477769004591e-02
2.607111832228063122e+03,2.904490454799898089e+03,2.177552317529085485e+03,5.289279572441522026e-01,-5.381903480554592889e-01,-6.561907994672524502e-01
1.824467833651035789e+03,2.610531605594694156e+03,1.375080279117614054e+03,-8.810659519582011989e-02,-6.848132095653827189e-01,7.233727226594592885e-01
1.227301785983107948e+03,1.834542332456568147e+03,1.452299337419568701e+03,4.368248525094028945e-01,6.237150031244536041e-01,-6.482003109437708410e-01
1.613179914162664772e+03,2.917761806683732175e+03,1.882028594498398661e+03,1.393724307712912169e-01,4.968516875644206077e-01,8.565709113116607432e-01
2.280268900581584148e+03,2.211506497222141661e+03,2.685031385001793296e+03,7.113217207345203796e-01,-5.931327430664002920e-01,3.771139863672634540e-01
1.749463139692719778e+03,2.038565759138140947e+03,2.123994718899071358e+03,-2.103809868942515746e-02,-9.855937628839929188e-01,-1.678163668052244095e-01
1.823431688849957027e+03,2.078111033668219534e+03,2.829243429327306785e+03,-3.814075267868182184e-01,-3.484579022023214789e-01,-8.562157373601118060e-01
2.071160460499570490e+03,1.386127924641996060e+03,1.968617371192007568e+03,7.506850150808895838e-01,5.022099430166271361e-01,4.292518855733085115e-01
1.090722239875142634e+02,2.576239864035403571e+03,8.658037525907500367e+02,-1.063898538723162535e-01,9.662939084343397100e-01,-2.344296941850907701e-01
2.229590366588346626e+02,1.695347120478213128e+03,1.535291480717469312e+03,8.983200373367240532e-01,-4.158429931940497287e-02,-4.373692451115656077e-01
1.407713423988093609e+03,1.030821537442538556e+03,8.208828803999739421e+02,-9.619157428437887791e-01,2.133971250496501937e-01,1.708208731093072696e-01
1.335632305478213993e+03,2.494263166890429602e+03,1.958015575963214815e+03,4.834256650606928440e-01,-4.248062639635007132e-02,-8.743540602877077905e-01
1.268222361097392650e+03,1.234095464114032438e+03,2.424900708287259022e+03,-8.139883894129417152e-01,-2.621066550206209156e-01,5.183849952446795140e-01
6.546943679474289866e+02,1.946739168956784169e+03,1.481520617592904728e+03,1.440291201762131101e-01,-4.510481576032689399e-01,-8.808014373648367368e-01
2.584249611648384416e+03,8.042930733146770308e+02,6.461752558448325772e+02,7.600680175102413338e-01,-6.378813481489359338e-01,-1.241128294808704347e-01
1.542591616448588411e+03,2.980175467295137878e+03,1.884986485811428565e+03,-1.298501330922390180e-02,9.573964763665122613e-01,-2.884846208558535796e-01
8.057448896920529933e+02,7.874522947219533080e+02,2.788310131542435556e+03,2.729023271494168679e-01,9.620202078504165311e-01,-6.437353794392919326e-03
1.445626244880567583e+03,2.696023406702122884e+03,1.578454401910559000e+03,1.032077307416190415e-01,9.093127381584289459e-01,-4.031110374797321483e-01
2.642879146884083639e+03,1.207057507511368840e+03,2.631342981285462770e+02,-8.941376383289123542e-01,1.886104655730638235e-01,-4.061329536000586882e-01
1.085839533844601192e+03,2.664481880350888332e+03,2.948122767751377978e+03,-2.772826420115208634e-01,-8.317283090438113424e-01,4.809806195411963081e-01
2.155201640581541596e+03,2.478924251381864906e+03,3.343309601459041573e+02,-9.735321336798196112e-01,-6.017515622328731273e-02,-2.204861339547701526e-01
1.305065022758500618e+03,2.122936887965064216e+03,1.158771741157761653e+03,2.529361429825938701e-01,9.491095094465301640e-01,-1.876551268984032739e-01
2.905383687956444646e+03,2.638443526023119375e+03,2.679218777495247650e+03,5.457091154273983058e-01,-3.995143006713622325e-01,-7.366070084505840221e-01
1.369854501061178098e+03,1.977913775553553251e+03,2.503506595392970667e+03,-1.005903742290490017e-02,-7.337693435069537751e-01,6.793241982260742606e-01
4.207850921647290079e+02,1.468574501618897102e+03,2.809794310446955933e+03,1.131540990545398251e-01,-7.749297620449722458e-03,-9.935472300064779327e-01
2.658038725174346837e+03,2.061840977882254720e+03,2.987690124075731092e+03,-3.868167236777974582e-01,5.059520488923654469e-01,-7.709639073943681531e-01
8.473532358799299118e+02,2.501122638821981582e+03,2.454012859363269399e+03,8.894294893463050578e-01,1.752161319717201737e-01,4.221545813775327560e-01
2.120989984195674879e+03,1.562079866693446320e+03,2.036803843019421947e+03,4.187325827619979290e-01,3.468215369545050719e-01,-8.392722118824031963e-01
1.462779342721317107e+03,6.327231243141437744e+02,2.694853025769771648e+03,-2.597129648112727063e-01,6.018601765242691526e-01,-7.551910379653046235e-01
5.345982904601090695e+02,2.852632417792357955e+03,8.463674094276788082e+02,3.549370348409197073e-01,6.798525580157781523e-01,-6.417321876435206907e-01
1.237512884925561821e+03,2.882420387507363102e+03,1.696033119917044587e+03,1.796680569554023194e-02,3.098039614201634762e-01,-9.506306850620132032e-01
1.067344332961623877e+03,1.256475014101759598e+03,1.993110950677237042e+03,-8.059248175331857889e-01,5.917828883291746944e-01,-1.667937543437171891e-02
1.128271228841158518e+03,7.899350485545575395e+01,8.122796140267396368e+02,5.606342345862423970e-01,-2.730882757052352505e-01,-7.817365596428502705e-01
9.509283246085147994e+02,1.148942726787473021e+03,2.378179032145726069e+03,1.633244592752892965e-01,9.744759950559960249e-01,1.540183627430856128e-01
2.521042216790235216e+03,2.265616979357679611e+03,1.286935435178062335e+03,3.954407005272985165e-01,-5.549360633982882707e-01,7.318965896262192850e-01
2.850692363392799507e+03,2.241778449630268369e+03,2.687419184092259911e+03,-1.227801635197092039e-01,6.609875389985717109e-02,-9.902302692702136255e-01
5.688133927377830332e+02,2.794649218411253059e+03,1.735385031941855004e+03,-2.726106387065536651e-01,3.986037014615825824e-02,-9.612983878878691435e-01
1.460532408169383189e+03,6.918820979221472953e+02,2.834822437068780800e+03,5.611155812889794259e-01,-4.736748308354081227e-01,-6.788088531153511074e-01
1.049886165969592327e+02,3.120119991280581075e+02,2.900518804313366218e+03,-9.579394417061050104e-01,-1.188000247353775546e-01,-2.612251522091040279e-01
2.426816098165284529e+03,6.655229631024801620e+02,1.268056483573319838e+03,-1.811843360362433708e-01,-5.479810101352481366e-01,8.166327503267662991e-01
2.108958732967418200e+03,2.513072013615168544e+03,1.155825538024198977e+03,-3.320871694309964761e-01,-9.400343559683437267e-01,-7.780437968707065721e-02
9.393524283555274224e+02,2.103828659376458290e+03,2.493713262469101210e+03,-5.370141809489121787e-01,8.365358497949071381e-01,1.087361093091050446e-01
8.641170210914370955e+02,1.668620370302301694e+02,1.855078655705142864e+03,-6.802911721545946977e-02,-9.025693609723499378e-02,-9.935923332520359974e-01
1.630466915250415241e+03,8.644556702296245021e+02,1.940161764036323120e+03,-5.360467199760341472e-01,4.823153198772425765e-01,6.928389756751914819e-01
2.968055380443854574e+03,1.619348127327526072e+03,5.740384624288682289e+02,-1.705376767756665024e-01,9.782650906820558045e-01,1.179589468958903709e-01
7.465702287214733133e+02,5.572204489816978423e+01,3.214364119576686107e+02,-6.882568785416092183e-01,6.830163521206512600e-01,-2.445222523124617187e-01
2.906210039595136550e+03,2.718640912935532015e+02,1.108693692569807581e+03,-3.493441601003730718e-02,-9.512893804966305877e-01,-3.063137299116290291e-01
1.520077868957376722e+03,8.738295944526165613e+02,7.492128567678611262e+02,1.751851723407506223e-02,4.594328686094614200e-01,8.880397180279724356e-01
1.025289869014436448e+02,2.070707303955157840e+03,2.623481863303827140e+03,-1.423219281725072180e-03,1.270127959780992417e-02,-9.999183226361313404e-01
2.373116316586947960e+03,2.016297485184237075e+03,1.279897184312204672e+03,9.620463261778451347e-01,-1.958067350007802465e-01,-1.900699576893871701e-01
1.000973223939527479e+01,6.811681690376702818e+02,9.456048788441614761e+02,9.185807848941881515e-01,-3.353086301627806742e-01,-2.092306482366692588e-01
1.632666191924191935e+03,1.651150574493518377e+02,1.455724875447283239e+03,1.078963913146163411e-01,-9.484786780810356976e-01,2.979036185865056030e-01
4.394000825509846209e+02,1.120649002241807011e+03,2.937622946648655216e+03,9.998550275187579883e-01,-7.127526473093413750e-03,-1.546358017533489004e-02
1.790689493851029738e+03,2.733481854318747992e+03,7.683108005218601875e+02,-4.153798937836751248e-01,1.801076387413334257e-01,8.916393790694105981e-01
2.454289715781411360e+03,2.702218059826752778e+03,2.792652707887029464e+03,7.311290580769184144e-01,-4.291266466614027664e-01,5.303778102076837087e-01
6.039322761484413604e+02,2.995967413100217982e+03,2.747738715926599866e+02,-3.219787617780631162e-01,9.132378710423547652e-01,2.496522939167447053e-01
1.946215474322271120e+03,2.080203154651434033e+03,1.291443697484414088e+03,-1.808226558672644813e-01,3.624389549504947738e-01,9.142981849809732608e-01
