x,y,z,nx,ny,nz
1.488551306090296748e+03,1.134932566671773202e+03,1.555687854920770974e+02,8.218238047109875932e-01,2.175706859851716524e-01,5.265630357424440078e-01
2.611758041557666729e+03,1.866231350766142668e+03,4.884063514863610180e+02,-8.014195069996306320e-02,3.336987581643002798e-01,9.392669516903107141e-01
2.385120832544961559e+03,1.756171387627759259e+03,5.338726706085159321e+02,7.162047696374913841e-02,8.635358378543857016e-01,-4.991756845246063112e-01
1.560222876475424073e+03,7.102082640902318644e+02,2.561837937231457545e+03,8.486063704004195296e-01,4.554147992645079523e-01,-2.691924752415897903e-01
2.100914926350813857e+03,3.060883799354600114e+02,5.701787029307606645e+02,-1.654210051359836231e-01,-6.800162842934617258e-01,-7.142924780196937551e-01
2.109275749679085493e+03,2.748844763608656649e+03,7.207142716143415555e+02,4.185292281625211386e-01,-8.871735108931918523e-01,1.943101817793702335e-01
2.024000528552746118e+03,7.628132990392124384e+02,2.028965767474145707e+02,6.718750621707961779e-01,-6.088127028719499956e-01,4.218186739047236067e-01
1.163535792352196040e+03,2.200823156474216830e+03,3.548453764647281332e+02,-7.744276368522904352e-01,6.220722015671008576e-01,-1.152736366947668262e-01
1.842932358158848558e+02,1.794520524169423197e+03,2.657760760567869966e+03,9.561115827473026796e-01,2.344541482023087819e-01,-1.757324492721186460e-01
2.457436269055457387e+02,2.428102001464604655e+03,2.402082008654993842e+03,1.659811125551313993e-01,-1.973467730001795262e-01,-9.661803772905845911e-01
1.301260840743368817e+03,2.585202033473118263e+03,3.634368298066680154e+02,6.122246164873212937e-01,7.673409114280977938e-01,-1.907064356954122353e-01
3.084530428637606292e+02,1.896504311496654964e+03,1.586958323207569265e+03,8.941704458956128976e-01,4.460829930217726225e-01,-3.832984507636517241e-02
9.105856349325114252e+02,2.091382455190860128e+03,6.788995495572090704e+02,3.733587023871473010e-01,-9.108391100407401408e-01,-1.759982811619995868e-01
5.239785230715285707e+02,1.138462438944342694e+03,8.359721072090279677e+02,3.851947931794116875e-01,-8.805905236050457496e-01,2.760168492039241639e-01
1.497610361913930774e+03,1.172271253753772953e+03,2.921299751956250020e+03,7.948010214916620964e-01,4.595870036600795405e-01,3.963219932107737709e-01
7.086092469733353028e+02,8.039880145562958660e+02,1.047406620955151084e+03,-9.699379737380088295e-01,1.974530531760726182e-01,-1.422414106104570308e-01
1.251866109399457173e+03,1.816390912051314217e+03,1.058932040137402737e+03,-4.291452786761018046e-01,4.147247533625645910e-01,8.023949829967600422e-01
1.171141994852139987e+03,6.470942125668506151e+02,2.231007160284489430e+02,-2.353518888962320699e-01,6.653681301448570728e-01,7.084452976627850784e-01
6.937129098172421209e+02,2.465040442868146044e+02,2.799943665323854930e+03,9.754262279672444302e-01,-1.775200988612056219e-01,-1.305001467198450005e-01
2.400452271463685179e+02,2.028085475995864726e+03,2.900195172902548620e+03,1.825052202559103443e-02,-9.878461806335382400e-01,1.543594566378242994e-01
1.982454063956004802e+03,1.014035666537981911e+03,2.762996198377834389e+03,-1.973054409693620337e-01,3.786524446077376149e-01,9.042637276571862115e-01
2.621725416648238479e+03,2.934133353536059531e+03,5.103665788222486412e+02,5.899041557175153071e-03,-9.986959665634285166e-01,-5.071062688082336734e-02
4.193408429615875548e+02,8.872911067204777282e+02,5.867814487522699665e+02,2.475459904251327559e-01,9.639311013395847061e-01,9.776407568578315832e-02
3.278785660495517504e+02,1.718396667237154361e+03,2.815425507781544184e+03,-5.678074848943296393e-01,-5.744316412191808885e-01,-5.895955814490250191e-01
2.488993695730429408e+03,5.899252900192631159e+02,2.883902007335147573e+03,1.689075363138824448e-01,9.810240179806685168e-01,9.519516963291586864e-02
1.883963887219320213e+03,1.899828387449856109e+03,9.098371118575854553e+02,-6.763609084319202047e-01,3.770698939271847072e-01,6.327355029069330339e-01
2.536393268986127168e+03,1.751277382782918721e+03,5.889082439942127394e+02,7.814257783170051042e-01,-5.863375973986659773e-01,2.134993556393620651e-01
1.478441993792591575e+03,1.557881978408116538e+03,1.434952207369812186e+03,-8.425484576030459888e-03,-1.765541304361399888e-01,-9.842548705673737075e-01
2.840794262385001275e+03,2.932171647706814838e+03,2.713437762806126557e+03,7.385442704553469850e-01,3.219652727066329989e-01,5.923602989300706945e-01
1.367731302839211367e+03,4.544511388515043677e+02,1.940160585367080103e+03,7.452985207943056516e-03,-3.368443257024629212e-01,-9.415308562408049031e-01
9.348444241706189359e+02,4.362324353871637186e+02,1.986765081257213069e+03,2.328728084911859536e-02,-4.506329075733308542e-01,-8.924055609209639028e-01
0.000000000000000000e+00,2.284820048856329322e+03,2.240522985666765180e+03,-5.924539257996722791e-02,-2.558262067705708853e-01,-9.649056613925667270e-01
9.101015933255395112e+02,9.453818584617305305e+02,8.106755321757792672e+02,5.863589311136861992e-01,-1.234507055252745261e-01,8.005892375048064835e-01
1.929639216554276970e+02,2.169691731505358803e+03,2.103063285924933552e+03,5.205841377380849427e-02,-8.499136108322800920e-02,9.950207988261227099e-01
2.150137532016593468e+03,2.662437396784551311e+03,2.230550405794683229e+03,9.753460353389658000e-01,2.186068345236653332e-01,3.018548074992066788e-02
9.429742740988629066e+02,2.088243166408366960e+03,7.285925155553035211e+02,-3.814710226435716889e-01,9.075928944508833141e-01,1.753710261860132458e-01
2.027849445033215034e+03,4.742609319635919292e+02,2.880819281869252336e+03,6.026142084645829122e-01,-5.190447506974226188e-01,6.061754387386993903e-01
2.244548035538971362e+02,2.216799859590877077e+03,2.091449941005979326e+03,-1.802035072526705639e-01,8.371350920976874943e-02,-9.800605819793094531e-01
1.804401308255143249e+03,1.550080198571280334e+03,2.776076684228157319e+03,7.171452760400450765e-01,-5.717796194932670550e-01,3.984604369138575741e-01
6.760186243261815662e+02,1.758507790341655436e+03,1.579936396586741239e+03,-1.779038182885906913e-02,3.017449479634971843e-02,-9.993863127830840964e-01
7.084924812788299278e+02,2.192958901182355476e+03,1.991996752778308519e+03,3.343726519821921817e-01,7.850379995440796010e-01,-5.214501595341836104e-01
1.098986899101797690e+03,1.769720370636705638e+03,2.277716819737181140e+03,-9.346774695417073842e-01,-1.187619525561417304e-02,-3.552984434491111010e-01
7.998026477195758162e+02,2.141539933636998285e+03,1.371813321145991040e+03,-9.536594547204870764e-01,-1.599323040065838211e-02,3.004627447847316724e-01
2.153299383263847176e+03,3.708252771349629029e+01,2.408831251659823067e+02,3.846184364907394571e-01,-9.103501256035435585e-01,1.527458906976923991e-01
1.810775088483808759e+03,6.617424756492363258e+02,2.758623127842339272e+03,-3.053214133797706453e-01,-7.482375857267816732e-01,-5.889985991813022626e-01
6.345870803346914499e+02,2.462974026636119561e+03,3.437233142568252333e+02,-8.329786527603680879e-01,8.899346861678213150e-02,5.461013885617540531e-01
8.260418810813973778e+02,2.133590920964266843e+03,1.408186783638219367e+03,-9.530921126879998706e-01,3.801244893439587741e-02,3.002839963400231738e-01
1.140408627629267926e+02,1.700546011284283850e+03,4.553915390869126441e+02,-1.589655745303789891e-01,-5.630974703459137309e-01,-8.109569563202843057e-01
1.305555310302768021e+03,2.635176588394409464e+03,3.722283398159642047e+02,-5.917029261151467434e-01,-7.823563334545542425e-01,1.944382028571533527e-01
1.455668290779027814e+02,1.833226802159967519e+03,2.634471408099462678e+03,8.701038775347137433e-01,4.662010909977404860e-01,-1.599243103832947432e-01
1.983952932435680168e+03,1.024937558032508605e+03,2.726261611397587785e+03,-6.646827089928118992e-01,-6.235425022131367845e-01,4.115721617162136914e-01
2.151750582193621995e+03,1.461028586069409812e+03,9.248936585622570874e+02,-1.814270705792851435e-01,-5.115237837752570904e-01,8.398973965272562570e-01
2.379461682538337755e+03,2.995917336197399436e+03,2.112901290676802091e+03,2.814283451597937580e-01,-9.582608177877869338e-01,-5.034174841324046135e-02
1.723898735077436868e+03,2.898689940670602482e+03,2.828062441287652291e+03,1.260276024826629260e-01,9.758298395674113168e-01,1.785305789558535861e-01
1.306964948593126337e+03,9.929115605285450101e+02,1.811250201069885861e+03,4.373887115216253951e-01,3.893258244034827897e-01,-8.106272370738605293e-01
7.221029177413493017e+02,1.734564423643525288e+03,1.591889690824786157e+03,6.067964066927241870e-03,9.940200855305229011e-01,1.090286630844132937e-01
2.198910860827320903e+03,2.768008362691417005e+03,3.405210767947939416e+02,4.451832849658164393e-01,-4.693385959521780698e-02,-8.942086197362117961e-01
8.112078355321683532e+00,1.544948838725662426e+03,2.061558106288082854e+03,-3.624903391472736325e-01,9.041221542008361922e-01,2.261943507431913858e-01
2.263432360261645044e+02,2.078394327877980686e+03,2.882957337767615627e+03,4.762357788631878530e-01,7.243970589732742216e-01,-4.984459688686864176e-01
1.423462868278410724e+03,1.675811389268187895e+03,1.904242800333222263e+01,4.770485602939267822e-01,5.482443910503486117e-01,6.869153942104690991e-01
1.987254040693666866e+03,1.227524202762547930e+03,1.026383338928810645e+03,-7.685998626111266718e-01,-3.874434899893234863e-01,5.090597148263161786e-01
1.043802633207573365e+02,1.837596598587624840e+03,2.672875965828061908e+03,2.510837441846395790e-01,-1.761428130711569506e-01,-9.518038993456593433e-01
1.369807993349327489e+03,2.392422195170606756e+03,7.092212168102674923e+02,8.928640296665971698e-01,-4.503226065653063714e-01,-1.836993128538910941e-03
1.223820056563819435e+03,2.530135334750068523e+03,1.858922861432260106e+03,-9.266667196375522053e-01,3.192628102238719012e-02,-3.745257044533230606e-01
2.507513466589816744e+03,2.150513998524240378e+03,2.389463985835333006e+03,9.696812073197275117e-01,-2.419719650461475968e-01,3.417490750040941272e-02
2.564690663525181208e+03,1.057025799110501794e+03,1.208710778654658952e+03,7.660965733537966615e-02,-5.520992353130830255e-01,8.302514045574778123e-01
2.247074429145649447e+03,1.158446931434181806e+03,9.655366703594298770e+02,8.771013750271572373e-01,-2.994499725509682797e-01,-3.755301477440853297e-01
2.563226455623313086e+03,2.940296637545517569e+03,4.843169560325130760e+02,1.301294172357760071e-02,9.986287807061063893e-01,5.070721539518968646e-02
2.699083439274842476e+03,8.400375587262881254e+02,2.838493161654217261e+02,4.384152951057980752e-01,8.987272579981724352e-01,9.019132351984373089e-03
2.093251412254594470e+03,2.655572356648000550e+03,2.689252539211501698e+03,1.820934444528855556e-01,-7.683042806650306478e-01,6.136371157280773314e-01
4.613229690525081423e+02,8.631891677327573689e+02,6.117846082311717737e+02,6.201091727167790980e-03,1.250196777465236442e-01,-9.921348832883292168e-01
3.644847808489349177e+02,1.729356359394957735e+03,2.814366655731644187e+03,2.152044376243215651e-01,-5.324765925061887284e-01,8.186303979573429368e-01
2.052353723114888453e+03,4.270728801101398631e+02,2.923071116555505796e+03,1.494067376210436726e-01,6.373934528394155086e-01,7.559148186342721232e-01
6.910108329013588673e+02,2.256067674689147680e+03,2.013645013215718336e+03,3.243868509367036079e-01,7.879397515351039827e-01,-5.233776064087644064e-01
2.510238537150680258e+03,3.395041175300135023e+02,3.359500964858729049e+02,-8.577174401251435043e-01,5.075116718432127749e-01,-8.217478839691728931e-02
2.005133392085543164e+03,9.700010448365131879e+02,2.770938528831136864e+03,8.848371202747705722e-01,3.888351557669482150e-01,-2.566524736361299186e-01
1.885304907581915131e+03,1.240602407305009223e+02,1.050043940853548975e+03,-8.796410332352393446e-01,1.987758781659506313e-01,-4.321108687688795524e-01
2.442218575207152753e+03,2.298443446109289653e+03,1.801010307143427553e+03,-5.592593970092385458e-01,2.097959934943566251e-01,8.020065884832734415e-01
1.442829033977663130e+03,2.920039757575105796e+03,1.348634597911161279e+02,-6.495611976533371967e-01,5.659337819997624086e-01,5.077294603374988835e-01
1.248050399886470103e+02,2.871275865106220408e+03,1.375348272905447402e+03,-1.422875220732910118e-01,-8.737375358721780616e-01,4.651203924472213647e-01
1.728445508189568272e+03,2.735067582672380126e+02,2.381730535670189965e+03,-7.949631586279441997e-01,-5.888607827911035431e-01,-1.458648515404952217e-01
2.536322926718289636e+02,5.446368668651446399e+01,1.953273572362882987e+03,7.557350300952179190e-01,6.426160416611018666e-01,-1.261316268300585186e-01
1.915227685950252862e+03,2.853881011016861976e+03,2.995292812038793272e+03,4.938536493324086063e-01,1.070771798516807899e-01,8.629270250699494493e-01
4.549484227757581039e+02,2.155502295459088600e+03,2.094205889770219073e+03,-5.604233557582231212e-02,7.491539174398464951e-01,6.600209577034191755e-01
1.950007737520063301e+03,2.475966326918137383e+03,1.302714036168444181e+03,-7.199509780946130588e-01,1.031108501837176145e-01,-6.863226221792495529e-01
7.216242227209791054e+02,1.823871930285813050e+03,6.419238540247509945e+02,-9.384038249226998030e-01,3.439960994407486594e-01,-3.263349414324978603e-02
1.089252191826811213e+03,6.421485227455084441e+02,1.104358607206334227e+03,-1.832009928067418192e-01,-6.986801376322206991e-01,-6.915804085663830314e-01
0.000000000000000000e+00,1.538554578005682288e+03,2.076674224436889745e+03,3.666928289542562558e-01,-9.025258936971531920e-01,-2.257949964008937604e-01
1.209411243441672468e+03,1.237185686872456472e+03,1.292455967683631570e+03,-3.242170836554048030e-02,6.469685245791179096e-01,-7.618271201726669606e-01
2.636390202968693757e+03,2.336868450462978672e+03,2.387890389208930628e+03,8.149049418532200439e-02,-1.046593343268993753e-01,-9.911638225317156436e-01
2.763935375103341812e+03,3.472166302305953423e+02,2.995417502626680744e+02,4.754296216202106851e-01,-8.631539942365711315e-01,-1.700936716033749629e-01
2.521686128378405556e+03,8.961875441731095862e+02,8.740618060308282793e+02,5.784728899279879544e-01,-5.923714385438546559e-01,-5.607719629366700875e-01
1.870038183926494185e+03,2.852363833500060537e+03,2.989864948067971909e+03,1.763509557738685007e-02,9.955798228163570407e-01,-9.224868457017408596e-02
1.526292478353322167e+03,1.119922080583769912e+03,1.343330852095508305e+02,8.730283762797373948e-01,1.862292394082490365e-01,4.507106883576094680e-01
2.808785570877105329e+03,2.838519194867329588e+03,1.802419762877157154e+03,-4.600579278085393242e-01,1.643669599809483017e-01,8.725423803616270124e-01
1.629516254446695598e+02,1.036702424105952332e+03,5.984462659116687746e+02,4.247755913501983782e-01,4.473265859662190480e-01,7.870607489138916613e-01
2.961071277408606420e+03,2.974838808968219837e+03,4.733240099200103259e+02,-3.828180054679984345e-01,-9.079505652164472362e-01,-1.705172888965738043e-01
1.970585138808981355e+03,5.145914825779809689e+02,1.454811871926251797e+03,5.452605743287155526e-01,-6.802278535345931409e-01,-4.898785291870213499e-01
2.089150362798066908e+03,2.282844545617288532e+03,3.953269814566506852e+02,2.987909192721271978e-01,-6.604654727164220862e-01,-6.888463877454759077e-01
6.863873152768760519e+02,1.748174183516510084e+03,1.641149074761724705e+03,2.888983110343927921e-03,9.976985893177716669e-01,6.774347680711742536e-02
2.629741081403310091e+03,9.027116693858894223e+02,2.473867278161920922e+02,-8.615804450041422147e-01,-4.876543094065999839e-01,1.409695403398774083e-01
6.414540658513678864e+02,2.540359994894746251e+03,8.597934480949556928e+02,-1.327685752885513215e-01,1.788902568055008302e-01,9.748696227885604859e-01
7.026572775779951598e+02,1.723248993963689372e+03,1.610089501569709455e+03,3.920507899046628969e-02,-9.969357043614470726e-01,-6.769167711540832744e-02
9.566015303710284456e+01,5.773941988916043329e+02,2.819424734564644041e+03,9.366353146074546387e-01,1.804920899864867201e-01,3.002280681124010475e-01
4.480332966748349577e+02,9.078578054603349301e+02,5.895069612757297364e+02,-4.713812695969616089e-04,-9.987867476253240451e-01,-4.924236557808771980e-02
2.065643135619269287e+03,1.190511723685843208e+03,1.058207006384243186e+03,9.718486690201709466e-02,-7.630388288543745734e-01,-6.390045753402566753e-01
3.882296676398140107e+02,2.062168110157606861e+03,6.453991833505884870e+02,6.273965200321138247e-02,7.564220008523415695e-01,6.510679631905229581e-01
1.331215230031940109e+03,1.658136675575979325e+03,3.288199732406399107e+02,1.410553667102031894e-01,2.000969753530796313e-01,-9.695692775541102648e-01
2.375810929123961159e+03,3.000000000000000000e+03,2.163813222567526282e+03,-7.344522286163589486e-01,3.792982191297809835e-02,-6.775996255091302212e-01
9.900351119946269591e+02,2.404592248276562259e+03,1.768903081806864066e+03,-4.328152080044429528e-01,8.787637761121606106e-01,2.011099736789983272e-01
2.651464188587165154e+03,2.193281604998742296e+03,1.774516017683828977e+03,-1.252331873826655617e-01,9.687858675027278821e-01,-2.139406265882317915e-01
2.110357700350948562e+03,2.628244330096098111e+03,2.240165114790966072e+03,-1.886342897587935385e-01,5.236981580149557836e-01,-8.307570908628694184e-01
2.437031682954368250e+02,1.955990236870927220e+03,8.006872315964483278e+02,-8.750734491029172890e-01,-9.658042855269816096e-02,4.742559219405713122e-01
2.682425665159987147e+03,1.665147662092751716e+03,2.702345160708946423e+03,-1.929185262359710551e-01,-9.572278945585793730e-01,2.156320943502852139e-01
2.115110437890338289e+03,8.749886712546334593e+02,1.438408281056459600e+03,-9.097168184921410050e-02,1.123701797759516507e-01,-9.894933530846206082e-01
6.623919375184982528e+02,1.317119736715051204e+03,4.216075881455990384e+02,-5.071565095823266089e-02,4.036969417642742308e-01,9.134860162903726266e-01
2.726348486360243442e+03,2.121983815369940203e+03,2.601221530305352189e+03,6.407328514399565633e-02,8.056136182247938260e-01,-5.889663082567730967e-01
1.352561220535300436e+03,5.156044729267184721e+02,1.944470840663436775e+03,-1.066486822571586319e-03,-8.836665443246505269e-01,4.681156919471807787e-01
5.479742475671395141e+02,1.498430845193929599e+03,2.453751249725594334e+03,-1.526465741550081696e-02,5.532561908982095433e-01,8.328712850535737733e-01
6.525809563383401155e+02,6.264328202435921185e+02,1.090695631564311043e+03,8.829343618315317332e-01,3.321516010120740270e-01,-3.318165557085147044e-01
2.797214132781704393e+03,1.163405881946584230e+02,2.932953394856371688e+03,6.202249494869888080e-01,5.867762546603009222e-01,-5.205906635742635347e-01
2.346360748759774651e+03,1.305062477810149858e+03,2.613156926067295444e+03,-8.805101968581301453e-01,1.467284366164330334e-01,-4.507466684479812802e-01
2.103270437765963834e+03,8.261307992560641651e+02,1.438023468074753964e+03,1.726301027681503147e-02,-9.968831077489154202e-01,7.698089348044104274e-02
1.582007598241454616e+03,2.965478012202380341e+03,2.081416986796245510e+03,6.523521182412226338e-01,6.234357976396489587e-01,4.310040835625628119e-01
2.735127748385126324e+03,3.802968693272890164e+02,2.767785737084920470e+02,-1.787457292849868595e-01,9.653305275042551870e-01,1.902286438229919274e-01
2.661206614676425488e+03,2.920678035558046759e+03,4.940354995734408590e+02,2.534890378848089210e-01,-1.230893078816895914e-01,9.594750283136297409e-01
6.766271876196507264e+02,2.425344094944422523e+03,3.852109164649348827e+02,4.260080386589939483e-01,8.907521257661031866e-01,-1.583597216500636506e-01
2.341773217486813792e+03,2.729459443568169718e+03,2.163279268659915942e+03,-7.547254572244247450e-01,-5.801660677691610202e-01,3.062626618225805508e-01
1.815091645762036933e+03,8.616282378273760969e+02,2.656452707395421385e+03,2.438069789088539996e-01,8.211264243958746878e-01,-5.160518890520445767e-01
6.730445510818058210e+02,1.419383087128055877e+03,2.234306135115067264e+03,-1.446624089883530584e-01,-9.510421446015182578e-01,-2.731146766789207536e-01
1.497643456214779917e+03,2.459471678539162895e+03,2.071191329928937193e+03,3.351066394889563593e-01,7.313006136925519207e-02,-9.393378169192101446e-01
2.023555011481203110e+03,1.025982075321532193e+03,2.754397258289002366e+03,-6.894101885427373899e-01,-6.045517877121886485e-01,3.990372512779529202e-01
6.695960445881145233e+02,1.738257886141956533e+03,2.547504453974881926e+03,5.101161312347174404e-01,8.519569945922726983e-01,1.181135556124990466e-01
2.582059543737459990e+03,5.752560630173114760e+02,1.823839873580946687e+03,-2.808886723298195665e-02,-2.031214689845630902e-02,-9.993990355338269183e-01
7.017182230894271697e+02,1.687447796335297653e+03,1.549791223079267411e+03,-9.176015960511355596e-01,-2.418576465257598895e-01,-3.154555273591339581e-01
1.339977371555952459e+03,6.072847650969808910e+02,1.900482323132783222e+03,-2.625550559094891323e-01,5.923428741903004058e-01,7.617051673793076016e-01
2.888651084487242770e+03,2.016863776976499594e+02,7.328692384943758498e+01,-3.392373128519909353e-01,6.683869273940633571e-01,-6.619493642701710368e-01
5.194054881593906430e+02,1.010196150192709069e+03,1.853716114858737001e+03,-3.423003861352751920e-01,9.395876041049120442e-01,-2.362173582222126811e-03
1.253975966610330062e+02,1.699860331724479693e+03,1.401106818868651999e+03,-1.831416166019338432e-01,8.656763916607267406e-01,-4.659007761205109510e-01
7.979225807606334229e+02,7.659675672806314424e+02,1.247769734023216301e+02,-2.898263565693990351e-01,-1.612766128923869002e-01,-9.433930979033431363e-01
3.285678930719302571e+02,2.785509838589049991e+02,1.862947027490338314e+03,-4.271347935776338700e-02,-9.981404749716066283e-01,-4.348736488463544880e-02
2.753654075489483603e+03,2.152282358901592829e+02,2.354220416643196131e+03,-3.252280584685994236e-01,-9.620618519330820587e-03,9.455866716933201133e-01
1.485466613345276983e+03,5.975327284956504172e+02,7.460736797650292829e+02,-8.039453152945836845e-01,-5.945250215106308023e-01,-1.455777502493571691e-02
1.463066351728019072e+03,1.930451228432913695e+03,2.274880543816473619e+03,5.339863212723821029e-01,-4.607425554314134031e-01,7.089251768053659308e-01
2.617203578478656709e+03,6.547289137114792084e+02,1.087427678044610957e+03,-4.056233028450438871e-01,9.138428570263674722e-01,1.899918027084512850e-02
1.525292089254950497e+03,1.538361424683628911e+03,1.430394259398358372e+03,5.151336604959314697e-04,-9.716538924145566858e-01,2.364073771965523596e-01
1.444971221969336284e+03,2.047071440902169797e+03,1.143394434572779119e+03,6.613247439561609209e-01,-6.988372102617388393e-01,2.725364867039063999e-01
1.156575684177404355e+02,7.523126910105798970e+02,2.610004595160065946e+03,-6.946226320472771443e-01,-6.616190693489127916e-01,2.824174323967829636e-01
2.393148549523710699e+03,8.914705981045957515e+02,1.377732527154469437e+02,1.154615773995684852e-01,2.919680974168494814e-01,9.494331225711416522e-01
1.681538308561040594e+03,1.019412174355518005e+03,2.177071614349184529e+03,9.287651629867611502e-01,-1.831082092320940602e-01,3.222835021126442268e-01
2.162486950149587756e+03,2.642817202971236838e+03,2.270339990711098835e+03,-6.283966453424544296e-01,7.766117123242201048e-01,-4.463075624714840650e-02
8.392150641475851671e+02,1.138959425506722482e+03,8.284982629988194276e+02,3.056302575436689595e-01,8.001258179563550677e-01,-5.161286865825852610e-01
1.315336574245260181e+03,2.625819693841165190e+03,4.269761580877717506e+02,1.395810261721223688e-01,4.189404675900253450e-01,8.972212780291092260e-01
2.655259705013882922e+03,1.526193172426235378e+03,2.053175134387011440e+03,5.216330649624850713e-01,-4.636665449434225206e-01,7.161789445648851782e-01
2.734447419601130491e+02,1.207205835453455620e+03,2.169497951410030510e+03,3.301137358605105154e-01,7.068659905519241171e-01,-6.255920338345624110e-01
4.542739991133466901e+02,1.488629730468790967e+03,2.451368857839647717e+03,-8.159163082709972592e-01,3.976349623936356256e-03,-5.781563512935710136e-01
9.210685498008612058e+02,2.538822135937588882e+03,8.762722976668790125e+02,-6.647266073015914989e-01,-6.575040593401013655e-01,-3.547209459513269714e-01
8.718128657524246137e+02,1.479112553157847742e+03,1.936627594727003043e+03,1.206271586504762267e-01,-9.923323643214195799e-01,2.693635677247918983e-02
1.524408665232784642e+03,2.647500491952176162e+03,1.473518202827886626e+03,-2.592556537137587491e-01,-3.284458682493933690e-01,9.082454611212509299e-01
7.122212433632676039e+02,1.821884537135144228e+03,1.546079233453219103e+03,8.073202143069441172e-02,8.518377493025169889e-01,5.175468960190335865e-01
2.610350044730551417e+03,5.087019976011819722e+02,1.374365773792814707e+03,4.696108626371784389e-01,-2.847360930019045000e-01,-8.356979089570440999e-01
1.944665217446826318e+03,2.717247435029814824e+03,1.679075158957933354e+03,7.428843371039532961e-01,6.524362189939437728e-01,-1.498327128183518930e-01
1.226354836777056335e+03,2.168695204704062689e+03,8.005672941386459343e+02,6.888978562492409363e-01,4.666418892829782283e-01,5.546756627269787687e-01
3.795537543018871816e+02,1.273940081736152706e+03,4.943307485582487857e+02,9.008202807398071332e-01,3.090282931355474716e-01,3.049989112268852165e-01
3.396371769730366452e+01,2.237067311052561763e+03,2.150665331746473043e+02,2.897983235789816092e-01,9.567319627770588530e-01,-2.609373586837215875e-02
8.709175101306741453e+02,1.261517055846960375e+03,1.957284025938702428e+02,-4.747088216872487609e-01,-7.611472526619050827e-01,-4.419348304643320180e-01
2.138731475719323953e+03,6.620189243018795651e+02,1.815453639333836463e+03,9.388627992339787509e-01,-9.060040853203064903e-02,-3.321569059772307431e-01
1.033129322123610564e+03,8.158479537679213536e+02,1.058308804744754070e+03,3.575608998166591168e-01,2.215432787944207893e-01,-9.072313809295391440e-01
1.306257820512031230e+03,2.600709591579445259e+03,1.933629898656613477e+03,-5.495941330790091728e-01,-4.049490844698587777e-01,-7.307273964154866741e-01
1.832942182539183250e+03,8.486915315087858289e+02,1.134470624856789300e+03,2.678974019184000577e-01,-8.417728386365204152e-01,-4.686677609769909769e-01
7.316075455922170931e+02,2.658574671949887147e+01,1.003024066635086228e+03,5.453510127722281942e-01,4.599033205815201697e-01,-7.007718662920171537e-01
7.054879788040760786e+02,1.387109134159270070e+03,2.261064017151152711e+03,-1.185499096434414756e-01,-9.543744841514881783e-01,-2.740716383066893469e-01
2.349993398080441693e+03,1.807945159749822096e+03,5.281400553681519341e+02,-7.495406710541313577e-02,7.486867064466643518e-01,-6.586729867046343667e-01
2.144417797814221558e+03,8.799142387173309032e+01,1.118316145778541113e+03,1.066682013947945068e-01,-8.732522914581337670e-01,-4.754496085541748407e-01
1.797353521540570000e+03,5.619466208427591027e+02,1.336574715967077964e+03,-9.282772978002407083e-01,-1.723168562381873214e-01,3.295575206923233025e-01
7.008840037292040961e+02,1.196048541450502626e+03,2.815027842650166349e+03,-1.859572683033378082e-01,-8.727326797976546480e-02,9.786742415437796883e-01
8.335139874399942528e+02,2.140181587311721159e+03,1.433796696175749275e+03,-1.061143903347180478e-01,3.160555922467425151e-03,-9.943489060939082469e-01
1.679155377781854668e+03,2.351398511659997439e+03,9.362016347861886061e+02,-3.541805540264356122e-01,-5.742103621357458332e-01,7.381318277689039586e-01
6.819617528572708807e+02,1.286977414559292129e+03,4.523324527472961449e+02,-3.001794077174290698e-01,3.855757382784440468e-01,8.724813311661437920e-01
8.202117912726981785e+02,1.511620445201947859e+03,2.384452381127692661e+03,-2.702800907301466937e-01,-6.834797959362066966e-02,-9.603526572256535498e-01
1.643295507669506833e+03,2.814250019379380774e+03,3.840491872194038478e+02,-6.601146626378517901e-01,2.681720549842610962e-02,-7.506859993764172234e-01
4.038192814115948437e+01,3.839625190741576830e+02,2.375996024786863472e+03,4.747123792144530285e-01,-5.785667541434973832e-02,8.782373039962216854e-01
5.007737432068224166e+02,2.040509903552622518e+03,2.847131030005879438e+03,1.086227915160473539e-01,9.888450990047786826e-01,-1.019139800885566771e-01
4.260250706376832568e+02,3.005735560964466231e+02,1.893666959566871583e+03,3.803181715493143544e-01,4.433713839089979958e-01,-8.116525761186286214e-01
2.979885650174656348e+03,1.713096026622238469e+03,2.354897592415913550e+03,-7.628756657758252180e-01,6.365313120667180913e-01,-1.133516974981571002e-01
6.331445918583665389e+02,1.367667301689040414e+03,2.234889902972209256e+03,-3.411208742356717782e-01,-9.385678058224256048e-01,5.222090610443964193e-02
2.417723577712906263e+03,1.797347459082298656e+03,2.999354230432064924e+03,-9.086190294169107506e-01,-4.164087198054184924e-01,-3.186279101842171002e-02
1.820583642503205965e+03,1.506579161384671352e+03,2.611850446163852212e+03,-7.092239695308663050e-01,6.984228443206820236e-01,-9.595254855338231081e-02
1.499812358109760225e+03,4.872417641729635989e+02,2.081571496074233437e+03,5.092890378613418312e-01,8.356904144853829486e-01,-2.055388212759758915e-01
1.427123640264549920e+02,1.746032446386534275e+03,1.414252449301690831e+03,-6.313098403865199937e-02,-1.464609857674024351e-01,-9.871999080745258448e-01
1.667094399500669226e+02,1.258186966961191501e+03,2.267732657272104007e+03,7.230944670860625090e-01,-4.374885378523505897e-01,-5.345448259195253460e-01
2.906964332341878617e+03,9.441712694658834835e+02,1.865916563510279957e+03,1.439242256687196797e-01,-6.929146086430377771e-01,-7.065091382244996776e-01
9.510061935754576723e+01,1.066572564968499137e+03,8.696237308816106406e+02,9.312379110232887891e-02,5.303721508613267188e-01,8.426347614010829545e-01
1.718970960378173345e+02,2.685294724697007496e+03,1.901186606326211404e+03,8.393276244526575169e-01,5.385019925714883415e-01,-7.446302993563769235e-02
2.406297157909269572e+03,2.270077730702945246e+03,1.803796029489981720e+03,5.012985818883213263e-01,-2.189779134073919498e-01,-8.371071647265376781e-01
1.863915752665871878e+03,1.518345612285623019e+03,2.581613102041444563e+03,8.628973170749343335e-01,-5.006763555837909774e-01,6.878522475222192956e-02
2.272638404193477982e+03,6.725757861470092394e+02,2.129325805312564626e+03,-7.818921855762055451e-01,1.020872080913506896e-01,-6.149982211998487047e-01
8.530303764635438029e+02,3.095717245517247420e+02,9.733303642040125396e+02,-7.181782279734234553e-01,-6.458450088971339209e-01,2.590448944635166395e-01
3.878352391678859590e+02,2.747982612239236914e+03,1.483267305406060359e+03,-5.976877861122786850e-01,-7.952656013449872496e-01,1.015969175201631991e-01
2.764543515639370526e+03,2.409272026392273176e+02,2.398641662888770043e+03,1.266703236677929265e-02,9.995642239150654973e-01,-2.666286856457186077e-02
8.446407621806844190e+02,2.429159671417201935e+03,2.230966990115848603e+03,-9.299942955445011927e-02,-6.458263146204529237e-01,7.577991009801415823e-01
2.494319425850727839e+03,1.866386870063830202e+03,2.418118857221849339e+03,5.781502404783942506e-01,-7.141489123880623291e-01,-3.946310053324784128e-01
1.009067653531912129e+03,7.545948546220927255e+02,2.459689589273844831e+03,5.260182687616565822e-01,5.848446958527144801e-01,-6.174637338839712442e-01
1.470037129740626142e+03,1.848352335639671992e+03,5.484951293461202795e+02,-6.700827006056973012e-01,7.201819925264657529e-01,1.797973080710197902e-01
2.889926348271643747e+03,4.917720310835219379e+02,2.361859294598936685e+03,1.575731521288219195e-01,1.094378875497615221e-02,-9.874466746188745869e-01
4.408559962566889112e+02,2.942172914480718646e+03,3.727391074301525009e+02,7.282678091313610214e-01,-5.842308286379781501e-01,3.581903642645749564e-01
3.267272856757175248e+01,1.972403033129891583e+03,1.841062777883442322e+03,5.761903206809785294e-01,-8.068279166601943775e-01,-1.305121728089826683e-01
2.901043617662874112e+03,1.221537817241252924e+03,1.567314371044941254e+03,4.271280448394281226e-01,-2.623855682628025709e-01,-8.652834488646212741e-01
4.533755756470486062e+02,9.371209594646434198e+02,5.996039812864989926e+02,5.985541507254255045e-02,3.309843528831205028e-01,-9.417359966747770317e-01
2.673059285262168032e+03,2.164780139847372084e+03,2.354781499720408192e+03,-6.493389911366174161e-01,2.504534422480800271e-01,7.180751686667403710e-01
5.345931514371169442e+02,1.551670566520415832e+03,2.461536891975661547e+03,6.783952243344181605e-04,8.075573947205023639e-01,-5.897886011209052537e-01
2.686506390321779691e+03,2.407625760571109367e+03,2.087441101784451803e+03,8.899198549528227753e-01,-3.771367558299629774e-01,2.565356099312490201e-01
1.207762968447958428e+03,2.594544081553193791e+03,2.012674369371744433e+03,-4.683148326186366006e-01,1.808750339395842066e-01,-8.648499520996302259e-01
2.464025055612258711e+03,1.372129005908771887e+03,7.156533012012864674e+02,-9.438740484768578520e-01,-2.342433829010099333e-01,2.328772599009980571e-01
2.073702631841027141e+03,1.558517880906744494e+03,2.172034370431304922e+02,-3.932639318563546649e-01,-5.588722240677909125e-01,-7.300721314133291617e-01
9.369996137375303533e+02,4.252751564684811569e+02,9.076042260513141855e+02,-6.154363828983879792e-01,3.391986942043214159e-01,-7.114649003675670436e-01
2.719914836383391957e+03,1.708301264885263208e+03,4.748664494187790979e+02,6.533331695820965290e-01,-7.430820155561016493e-01,-1.448616156229558527e-01
1.709000946029545958e+03,4.463727611953572136e+02,5.369374862710457137e+02,-8.168437264415975840e-02,-3.597712121736514335e-01,9.294580884347780625e-01
1.418922894336578111e+03,9.897215554789280532e+02,8.349113405223041582e+02,-9.141032192240160503e-01,2.819850015792819686e-01,2.913756398339140130e-01
1.973737338195006714e+03,3.886250644663192588e+02,2.531749389591584077e+03,5.572600494959495387e-01,7.895518759459171920e-02,-8.265756562999388990e-01
2.674534130009332785e+03,2.380512761374830916e+03,2.505076665793234270e+02,7.688906038530245457e-01,3.556937314836658426e-01,-5.313089578482157460e-01
1.743382681684196768e+03,2.870858892514871513e+03,1.720566776883005105e+03,3.578491431249314347e-01,9.313932065303059948e-01,6.671345886661252111e-02
1.450496269724729473e+03,2.055772452585226233e+02,3.578677976047511606e+02,-4.674744699941732473e-01,8.728732388749402826e-01,-1.398568152062611702e-01
2.680205621925231299e+02,2.789703777345426715e+03,1.124663020157224082e+03,7.992561893232682513e-01,2.874689201936339034e-01,-5.277794650714957569e-01
1.606572408026165931e+03,1.485562360780965264e+03,1.491639043965042674e+03,2.007796244181141165e-01,-5.844155430105245630e-01,7.862226246466295088e-01
2.842719578311534406e+03,2.716503652193993730e+03,4.354223493161870806e+02,9.180372686296031093e-01,-3.963162791452019551e-01,-1.187351218471310865e-02
1.137860959438626423e+03,2.767733112965277542e+03,1.635692099739407922e+03,-1.081518992786850708e-01,8.695143700939297338e-01,4.819210795167294670e-01
2.094217382920433920e+03,1.476923652759175411e+03,1.423135756116713310e+03,-3.963571732333664999e-01,7.781708898709932543e-01,4.871868813749418159e-01
1.773131671078640238e+03,1.116053512488914748e+03,1.595269801869143976e+03,4.859050957721134933e-01,-7.904174155571772609e-01,3.730101166008850111e-01
2.531521318007461559e+03,9.886609110301786814e+02,1.552665874778970192e+03,-8.338821901198377740e-01,3.587116054261127451e-01,4.194835838665962324e-01
2.783691488416644916e+03,5.492865739842689266e+01,9.772051566805484981e+02,1.110107321977334555e-01,7.036025913915120444e-01,7.018689412732779243e-01
2.725013856002203738e+03,2.312545031764639134e+02,1.664368028794960537e+03,6.360186461888209797e-01,3.445349578631188847e-01,-6.904896411318552918e-01
1.784354088144830030e+03,1.110419490408958382e+03,2.818068671003196641e+02,-9.448823785102907769e-01,1.972010407759574868e-01,2.613599822038845666e-01
2.793139966533412007e+03,4.135766263112322463e+02,6.515897804219550835e+02,-5.945569638143569091e-02,-3.784280097051341274e-01,9.237192547730124215e-01
2.541795795771856319e+03,1.037213724038386999e+03,2.112916509574495194e+03,2.581134639785341300e-01,-7.863846273344221594e-01,5.612278125726700706e-01
3.715027662996492950e+02,2.518848437458021635e+03,2.024869670150269485e+03,-4.609372654833843730e-01,1.113049685628943047e-01,-8.804249208546480743e-01
2.669545046927670683e+03,6.519123935192440058e+02,2.708314239894030834e+03,3.151607175674003836e-01,7.895293016726617763e-01,-5.266091566832846738e-01
9.407683944532661826e+02,1.063152902148653311e+03,2.297828928547354735e+03,-3.454546456265971677e-01,-8.192068741853207881e-01,4.577785328109196250e-01
1.513088330686558265e+03,1.807466068876743975e+03,1.426697654312836221e+02,-7.695920958490721775e-01,-5.880860911009636594e-01,2.487624478497947600e-01
2.353938175199327361e+03,1.957270435366121319e+03,1.280668057382835514e+03,1.646320003702642365e-01,3.432255112323303048e-01,9.247121459640241792e-01
2.116925840254117247e+03,1.254721730164383871e+03,7.752449151428165806e+02,-7.499086349570278642e-01,1.917514512376428115e-01,-6.331417062278753560e-01
2.864818914136953026e+03,2.450206947902758202e+03,1.870090678159064282e+03,2.682714492216018431e-01,6.533340716401160320e-01,7.079442212255773192e-01
1.374444848784334226e+03,8.172246259418732279e+02,2.675455778535671470e+03,9.199730738632836413e-01,-1.105023729070116340e-01,3.760834600836109320e-01
2.676357825768530347e+03,1.349008120803781821e+03,2.564602382679247057e+03,8.082121587054155176e-01,5.068386242712882295e-01,2.998461529977006212e-01
2.631765516366105658e+03,1.840713491938269954e+03,4.437326602223812415e+02,-1.532266748501743886e-03,9.485057677960483380e-01,-3.167561532413227243e-01
3.401675184069825377e+02,6.581573372690623955e+02,1.284290083567831971e+03,5.323011378178107433e-01,-3.752672529490070352e-01,7.588346246330421874e-01
2.317688624017484472e+03,2.474969622875939422e+03,1.694991593168860391e+03,-2.567549692518386606e-01,7.708952680124144807e-01,-5.829214111014924260e-01
7.149873603958704962e+02,1.793142533050175018e+02,2.466553280038623143e+03,-9.347691755701542649e-01,7.146602138083835154e-02,-3.479930979084036591e-01
2.065483650309451605e+03,1.444331657908841180e+03,4.774687490547877360e+02,-6.841646144773675386e-01,2.263883669146088684e-01,6.933015848984995788e-01
7.905785715589888696e+02,3.254265717206489512e+02,1.519893059188459574e+02,-5.827758140813020793e-01,-6.194595986272656285e-01,5.259678280944783957e-01
3.429592586745388871e+01,2.219363313798210129e+03,8.715951293768008554e+02,8.340372625072963730e-01,-3.645839891465736393e-01,4.140777216988451581e-01
1.662905394877474464e+03,5.692426726459607380e+02,1.700595925012009502e+03,6.259737496761508257e-02,-7.486219748917267713e-01,6.600353834124157437e-01
2.449249607658514833e+03,2.141106256907736224e+03,2.394340595447055875e+03,1.788732167421348551e-01,-5.320957543051919869e-02,9.824322436762878974e-01
1.693400048305151813e+03,2.374390268375753294e+03,5.988750889086139750e+02,-6.590141301220422410e-01,6.067952238436182810e-01,4.444096450574191448e-01
6.437765938314413461e+02,1.409607169984814846e+03,1.307917386008570702e+03,1.857026663725161730e-01,-9.172975673773732241e-01,3.522494749260691727e-01
2.191864269320295534e+03,2.410493217482349337e+03,9.982585130914158071e+02,-8.490379511023922188e-01,-1.857466796604498316e-01,4.946036075312938984e-01
1.033357837501772110e+03,3.020554713505716222e+02,4.965616563436581146e+02,1.053418539418656680e-01,7.051168943382397636e-01,-7.012226886851895546e-01
1.673534636709940742e+03,1.139316282583771027e+02,2.140045973359186519e+03,3.237214529920708073e-02,5.433196541186798845e-01,-8.389015422903245423e-01
2.002176684354128156e+03,8.075667562201249439e+02,2.151407502742665940e+02,-7.231287813679728935e-03,5.760333978430052237e-01,8.173941723831885664e-01
1.127949272197793107e+03,1.533400946400295197e+03,2.342409266994006430e+03,-1.059558600888790697e-01,9.919218581674236201e-01,-6.974512888016938528e-02
5.806277689260086561e+01,2.233015794123445630e+03,1.561165192039391741e+03,-9.041033117734181834e-02,8.118496186532659920e-01,-5.768242095378366407e-01
5.965820940787616564e+02,1.492766030053473969e+03,2.489127383748947068e+03,-7.660230213743908501e-02,5.516948520201072625e-01,8.305208471566241091e-01
1.723142820495021169e+03,2.571307227167228575e+03,2.903134386536475176e+03,4.479891104326774384e-03,9.981713048577527392e-01,-6.028247452008490131e-02
1.335810707549971539e+03,1.327250606645909784e+03,4.922059712720106290e+02,-2.071871055939847328e-01,-4.385468549064838184e-01,-8.744999481573560995e-01
7.028684763501627231e+02,2.406870872365088417e+03,1.638184809778984118e+03,-5.475717156465980118e-01,7.942941179410369923e-01,-2.631768804969600861e-01
1.042185372869053310e+02,6.157478145416891948e+02,1.449408433651281257e+03,-5.223747982537375600e-01,-4.851509160861895986e-01,7.012511381595741833e-01
1.451431495995344221e+03,8.484090046841181447e+02,2.277013418645656984e+01,5.880420570969522309e-01,1.222116712464734745e-01,-7.995441491852270932e-01
2.126066084656229123e+03,1.785236838134651634e+03,1.752073548757188064e+02,9.295518179634024714e-01,2.939868579667150872e-01,2.224975169834309263e-01
7.986006870692574466e+02,2.584524226423684468e+03,7.212310162274785625e+02,7.042805338362453371e-01,-4.107779301874259215e-01,5.790081361520472703e-01
2.148288880800455900e+03,2.267981170152621871e+03,1.111106565847545426e+03,5.828550798562573965e-01,-7.152991806550679232e-01,3.855217737559635260e-01
1.316059115858556652e+02,1.910475620476243648e+03,2.937815953190834989e+03,4.022431770237719362e-01,8.713562606651966691e-01,-2.809603059818031601e-01
2.489343475295595908e+03,5.241081100394968644e+02,3.756002775020106554e+01,-2.155346124187342005e-01,7.907678765867045545e-01,-5.729144754743595858e-01
2.580950370588805072e+02,1.854014739164687626e+03,9.713607768720956983e+02,-5.929286582613241263e-01,-7.758044522877375337e-01,-2.157847492825881730e-01
1.621768687722614686e+03,8.330220203742611602e+02,1.654512867923500608e+03,-6.589066734497949218e-01,-6.558014224970927231e-01,-3.684650457426255077e-01
1.069211832614937094e+02,1.804441528643411175e+03,2.622893305243831037e+03,-4.077787084116610977e-02,-9.416422105323942748e-01,3.341363682590195450e-01
7.659515657781669233e+02,1.816000170559177150e+03,1.565770984594803167e+03,-1.705275667464629594e-02,3.275953261696069041e-01,-9.446642291108646727e-01
1.007926041854745904e+03,8.853748037757201246e+02,8.215172212084037255e+02,-8.686067646045719792e-01,3.445130015910320698e-02,-4.943029399068197272e-01
1.148702339122526837e+03,1.692004708616969083e+03,2.334098795441535003e+03,2.963295182385779492e-01,7.587642086897076199e-01,-5.800566284699919528e-01
2.496644136905144933e+03,3.249976560247912403e+02,1.912863226420939554e+03,-3.547217099080515190e-01,7.612246979698078508e-01,-5.428715020340291186e-01
3.452740513621143918e+02,1.683452242709476195e+03,2.790053307822529405e+03,-5.098501561383766284e-02,9.405581221489519583e-01,3.357840780062302244e-01
3.553295230277032601e+02,2.204297632267126573e+03,4.726948828176433040e+02,-1.172680719830504342e-01,6.781685498922916944e-01,7.254899153195476513e-01
2.668661942015345176e+03,1.961710723469914910e+03,2.666839593554575458e+03,5.123943151185667011e-01,8.583989176410032895e-01,-2.456346935856857164e-02
2.258308421933321370e+03,1.179328674218940478e+03,9.171065406137139462e+02,-8.542717936426851288e-01,3.240898334089841737e-01,4.064301692387591314e-01
1.486363115931707853e+03,7.529728733418838971e+00,1.205920465313412933e+03,1.708539793882182800e-01,9.811236510123728660e-01,9.058310632431433584e-02
2.473236347159102024e+03,2.150573556210321385e+03,4.059809471833641936e+01,9.655776936719813186e-01,-1.060191905846278315e-01,2.375282061374559550e-01
2.141742040277430078e+03,2.538284216934184485e+02,1.082591297216457491e+02,9.982455876559913621e-01,5.536459994660058309e-02,2.098827763532340809e-02
1.307443737743485599e+03,9.785225582805203430e+02,2.384295070772211602e+03,-5.029193781836667210e-01,5.911802660812883747e-01,6.305378593259971520e-01
1.718695819735194846e+03,2.499416778066532515e+03,8.595296685171566651e+02,1.683870949785248594e-01,-8.086439470512057914e-01,-5.636849768639748959e-01
1.860631984073032186e+02,2.971899358531588405e+03,1.645671234607541010e+03,7.945152146499961932e-01,-3.203270963603300214e-01,-5.158838290032266016e-01
2.398842156513945156e+03,2.940236245432849501e+03,2.817966814411860014e+03,-2.745696476645892448e-01,5.880136204412609313e-01,-7.608229036752929275e-01
1.434197542554453094e+03,1.830040090498666132e+03,2.104447613423653365e+03,9.309236880327881325e-01,-1.327184240948582339e-01,-3.402453628856823009e-01
3.981483579841250844e+02,2.024320288031144173e+03,6.116907780375273660e+02,3.729653966785721475e-01,7.032279726291580380e-01,6.052827697797779072e-01
2.796311289174739613e+03,2.414992122002086944e+03,4.171540797853655818e+02,-3.814015881690250853e-01,-8.620423946464341736e-01,3.337899614643720092e-01
1.619212290233818294e+03,9.857860989686007258e+01,1.665309624092195691e+03,2.467541469536007614e-01,7.348289332607591540e-01,-6.317743503847363939e-01
2.526793086333962947e+03,1.431783720439179206e+03,1.906133261520364613e+03,7.544895846565360387e-01,3.308270452444468379e-01,5.668323674417655722e-01
2.200596758567855886e+03,1.979913565823437921e+03,2.264139831900486570e+03,-6.072052151841610401e-01,-7.816307464989651344e-01,-1.426716607481217647e-01
1.336713466174761379e+03,1.236437188206554310e+03,1.596268658862228676e+03,-7.635018326337617012e-01,-6.238110699449480601e-01,1.671068537763380490e-01
1.815243618016778328e+03,9.710917489722752407e+02,9.423716441080579216e+02,-4.354799552148663766e-01,4.345385386624406876e-01,-7.883739385743091521e-01
2.380109329537968733e+03,2.627723104677023912e+03,8.509355181087896369e+01,-8.535846184352909871e-01,3.625747053267838194e-01,-3.740760380295355958e-01
1.639006654588833726e+03,1.154841316583348089e+03,7.216660275614021884e+02,-9.534881990996747492e-01,2.720044641328330792e-01,-1.298992904887068534e-01
1.345366256590639068e+03,2.520761105143607438e+03,2.514154006492762619e+03,9.894699427132109815e-01,1.138803070152637348e-01,-8.933368984444967076e-02
2.795061534522685179e+03,2.881764647327363036e+03,1.453112120705193320e+02,-8.435240841567908099e-01,-1.456723990210224973e-01,5.169590618326633802e-01
2.311762680635501965e+02,1.944277668177867099e+03,9.101769238658561108e+02,-4.489426568733347889e-01,1.192537919665007662e-01,8.855670634915921990e-01
2.316162763191257454e+03,1.214484170161488237e+03,1.575314707787259749e+02,9.830577006515535121e-01,1.508567228313805741e-01,1.041143907740747082e-01
5.839433022722723621e+01,2.256878237696567339e+03,2.262668458438094603e+03,8.217282672620120076e-02,-3.998309923003515176e-01,-9.128980250520547512e-01
7.162117522895875936e+02,2.265335491524722329e+03,1.921388482408866366e+03,6.600584768378119360e-01,-5.656670344615101209e-01,4.943112514176353778e-01
1.778113111573992228e+03,5.879555026801207305e+02,8.239940393816879123e+02,8.647495007636398778e-01,-1.443174627356209327e-01,4.810205514098003232e-01
1.119682106043272825e+03,1.537000780701449003e+03,2.926145703507816961e+03,-8.502821835095976111e-01,2.872342383611896088e-01,-4.410404751485041963e-01
2.360243000403817405e+03,1.002594259188130991e+03,1.587712417255600030e+03,2.176165636355759936e-01,-8.953638227692615192e-01,3.885442781813390756e-01
2.879782762347848347e+03,4.526722581887718775e+02,6.358509310263276575e+02,7.811967040858397784e-03,-2.129419670008261267e-01,-9.770336185929180406e-01
2.531214641353177740e+03,4.875635295957073936e+02,1.633319742068557616e+03,-8.314967812579370232e-01,-5.238627281343152253e-01,1.848808936298260708e-01
2.653282873944715902e+03,5.000094022570226571e+02,1.404146319048075384e+03,1.491631064881733873e-02,-9.551323374211448947e-01,2.958035187232367913e-01
2.770534242341940626e+03,2.052031707092706711e+03,1.713794302503382028e+02,-9.968491434719400912e-01,-7.895145066500638964e-02,7.645495219441356127e-03
2.339747204609168421e+03,1.269334530307920204e+03,2.557539813795657210e+03,-7.707212545529309455e-01,-5.811862683190520684e-01,2.611728724384119182e-01
2.554372450090138500e+03,1.290347642141681945e+03,2.200159680235123687e+03,-9.328470175238691153e-01,-2.152831373624839451e-01,2.888764660961294362e-01
1.703580543920999389e+03,9.609971954819372968e+02,1.521534366446979902e+03,-4.470861694900553074e-01,-8.188829757040290147e-01,-3.599230878296417746e-01
