x,y,z,nx,ny,nz
2.446341517537652635e+03,2.730476314985586214e+03,9.369680686178355700e+02,2.752475098680761678e-01,1.207779841110376631e-02,9.612975268338954660e-01
2.608694626839180728e+03,1.425814602864855487e+03,2.426946922273760265e+03,-9.825353713829012570e-01,-4.067059819958527417e-02,-1.815768333889331565e-01
5.086990282438846975e+02,1.184917754492999620e+03,1.878684234252540136e+03,7.024508620498652878e-01,-3.403707032211815697e-01,6.250684528866574663e-01
1.566565574457381217e+03,1.557362419493224252e+03,1.442348674124149056e+03,-7.682474877361952226e-01,6.091690769653540505e-01,-1.967456054304725921e-01
1.554156890559183068e+02,2.193103477527232826e+03,1.760588822962839231e+03,9.300180310742761636e-01,-3.559052832366007002e-01,9.164000895352253373e-02
2.275398343788467173e+03,2.420263624965646159e+03,2.913548573990899968e+03,6.954490959533322636e-01,3.186973126115426325e-02,-7.178682853887854431e-01
5.654943914081823095e+02,1.891539664316619280e+02,2.456165881088076731e+03,-1.631144066833652706e-01,8.992369435806062405e-01,-4.059145348865242919e-01
2.053664980772839044e+03,1.054595218399184432e+03,1.784159899298336313e+03,-3.519642249982090076e-01,3.289849013124896415e-01,-8.762933978011140379e-01
1.777693566738974141e+03,3.051694577004781905e+01,2.373954347823733315e+03,-9.629448787985119829e-01,-1.124428834159085788e-01,-2.451402830316458115e-01
2.541505123224751514e+03,2.881757192782389666e+03,1.625631588090450123e+03,-9.059129161654568829e-01,9.551581497236294460e-02,4.125512300487824136e-01
1.332585329660240916e+02,1.288305100172955008e+03,2.638325716531422131e+03,6.413348438202283175e-01,7.443076659246546933e-01,-1.862678623592273208e-01
1.185307823149464866e+03,2.958421520077701643e+03,2.936699852547619230e+03,7.026868315198687709e-01,-6.064021359184710303e-01,3.721661811101109052e-01
1.257709889308629045e+03,2.085715882650768435e+03,2.210553355273374109e+03,-4.724037971102999500e-01,8.145852073058903464e-01,3.365792514612127029e-01
1.513418009190075963e+03,1.818990169697322244e+03,2.458510302015879915e+03,-2.047659861795572689e-01,9.749962975725124936e-01,8.633139998752503708e-02
6.397359606234125522e+02,2.748587312812162509e+03,1.615914732723082352e+03,7.173132481352553214e-01,6.811540188362092962e-01,1.465977717188458318e-01
1.835641934517547043e+03,1.019752848294813589e+03,6.741633640097205671e+02,8.733784684658374431e-01,-4.700211754901896244e-01,-1.276328539643638571e-01
2.636012408268722083e+03,2.688481203043250844e+03,1.539846096287556975e+03,-4.867312929730752691e-01,3.214813791755773420e-01,-8.122452654735065058e-01
1.495567253862741609e+03,2.724556760946076793e+03,1.829659535940713340e+03,7.938404311766737997e-01,2.112498859179045563e-01,5.702550793538843088e-01
2.145248511649499505e+03,2.438057574671382554e+03,1.683450603707997573e+02,8.750535360674187579e-01,-4.113983802818965141e-01,2.550150617460443248e-01
8.481885604617945091e+02,1.700313335767575836e+03,2.380853431015932983e+03,-4.839110878327931853e-01,-3.094303998949344270e-01,-8.185859067277811985e-01
3.460262956375029830e+02,7.607852961473846563e+02,1.074749582585454846e+03,9.302723693712021680e-01,-3.607254907995834370e-01,6.686134213347229294e-02
8.724618487818581798e+02,7.290314890161475887e+02,1.305801751014425236e+03,-5.300760337430799884e-01,4.739385208715884423e-01,7.031370256822322418e-01
7.142206923579217346e+02,1.340409175468572130e+03,2.661951211055085878e+03,1.836994582935400355e-01,-6.292397982822273139e-01,-7.551899001445940840e-01
1.943206776942398392e+03,1.553557809299348264e+03,2.905281598400960661e+02,-5.351567213239927234e-01,-6.442297246716328640e-01,5.464204841248785360e-01
1.767516414288321812e+03,2.814369769910411378e+03,3.142760651525526896e+02,4.311516649104020216e-01,-9.063043816782656928e-03,-9.022339514126940241e-01
1.568929516023906444e+03,2.306656818613208088e+03,2.505793091713791910e+03,9.482975814776656298e-01,-1.511447460176608693e-01,-2.790823583010346720e-01
1.809223276392453954e+03,7.876432461651611447e+02,1.615189443652936916e+02,-3.183942067848362367e-02,-4.054123442063543581e-01,-9.135792699355469448e-01
1.002122091457005922e+03,2.338927307147566808e+03,1.696204314921953028e+03,-8.568528439502699490e-01,-1.630249556191226412e-01,-4.891074193464229336e-01
5.603093904115323767e+02,2.025048909359961044e+03,1.229554592600867636e+03,-6.341605333988271642e-01,-7.629106843589804621e-01,-1.257286982761980088e-01
2.516053812565613043e+03,6.106930343803448977e+02,2.783881897758339164e+03,4.246125882846079613e-01,-1.718624813866527767e-01,-8.889136276162428185e-01
2.328991213067182002e+02,1.400316846207412937e+03,1.217116567199289193e+03,-6.127729830912815867e-01,7.362248557018484796e-01,-2.871972023544178132e-01
9.527920686716638556e+02,2.155090558331964985e+03,2.735977599516219470e+03,-7.270060817854720470e-02,4.153251844541926974e-01,-9.067632616777987487e-01
3.636221363949896386e+02,2.382808942937529537e+03,2.014496699302711704e+03,-9.692821477910975592e-01,-2.454276164830848928e-01,-1.604378511788362438e-02
1.362985690601805118e+03,4.944605085462233660e+02,1.938903186048929911e+03,1.999697009713219675e-01,2.077745875001163478e-01,-9.575185844058571316e-01
1.196184578853627954e+03,2.114786690171983082e+03,1.374482509067467163e+03,-9.899330842239474626e-02,9.820663049092374086e-01,-1.604559056236487535e-01
1.352892921358568856e+03,1.505805976682616802e+03,1.951670827314836288e+03,1.881869093846464946e-01,-3.947507171843799290e-01,-8.993094897857314418e-01
1.804863428384136341e+03,6.142729702664775004e+02,2.750145172767964596e+03,-4.728065554942847970e-01,-8.107329785112972198e-01,3.452042853671291045e-01
2.028984921925104345e+03,1.828316922064098890e+03,2.200806491374870802e+03,-5.202345952269469276e-01,-2.973477615419315434e-01,8.005874559565977489e-01
1.383902010060501198e+03,1.687518629459484146e+03,1.940186923691787342e+03,8.691114105053843186e-01,8.552247032940357707e-02,-4.871665661743400655e-01
7.961988691388219195e+02,1.123748143251931197e+03,1.393079804192768279e+03,-4.090578669710424886e-02,-9.020916394928855109e-01,4.296014322272783126e-01
1.766060956180276435e+03,5.719314795878367477e+02,2.387176519586880659e+03,7.419045910279414846e-02,-8.748360607250246224e-01,4.787041284898614912e-01
2.731173979242258156e+03,3.550290661071123850e+02,9.364453412217099526e+01,-6.747551189146523409e-01,3.292879767996107487e-01,-6.605111337696680796e-01
1.402223516002206225e+03,3.004734895312909657e+02,2.608525349013986670e+03,-8.889401474451508189e-01,-4.418390446025672325e-01,-1.206800436065724735e-01
7.656086730082079157e+02,2.011802498373110893e+03,1.065884439353426160e+03,6.721064533322846923e-01,5.899969654795391705e-01,-4.474108806388517046e-01
2.801028027400943301e+03,8.786163079188131633e+02,2.340257015998974566e+03,-4.238355116756948870e-01,5.631303735838594227e-01,-7.093994935083509645e-01
1.590525068989474903e+03,1.045041350363037736e+03,2.386242962107173298e+03,7.557782308647831293e-01,5.780845877372403629e-01,-3.075995370145465646e-01
2.333467798194202771e+02,1.117132838741423029e+03,3.426994844035508549e+02,-9.346612297356711105e-03,-2.090487276370592840e-01,9.778605577033412377e-01
1.931817481993553201e+03,2.133574244637652100e+03,9.406183360383103036e+02,-7.552633686338295904e-01,-5.164429947101802920e-01,4.035639691729935863e-01
2.713333069699300722e+03,4.775855778820177875e+02,8.010277764090409391e+01,-8.568474538025413687e-03,8.886421990199725451e-01,4.585211264108109419e-01
2.248575149303218495e+03,1.259458764423375214e+03,2.129035937371756972e+02,-5.805295976119762003e-02,-1.266263985087331678e-01,-9.902502759725302361e-01
1.472753261004897468e+03,2.648051019843433551e+03,1.742401095331420265e+03,2.228205794651104497e-03,9.695550275233839610e-01,-2.448633980468845617e-01
2.844044633125494670e+02,1.285761509642720284e+03,2.177278002609732539e+03,4.865473442421825445e-01,-5.188864621991358117e-01,-7.028716249482148681e-01
2.981333550695429949e+03,1.534135622392666164e+03,2.411231135406547310e+03,-6.458852257001894762e-03,4.500232002604788728e-01,8.929935063900740211e-01
1.047272915530586943e+03,2.328978164633685992e+03,1.457098496325928068e+02,-6.735142026075034982e-01,-7.381621234581022817e-01,-3.866908814291014629e-02
1.475124103762763752e+03,2.636199925993098987e+03,1.667456418147441354e+03,7.532183021511887344e-02,4.153424437874128627e-01,9.065413814502593093e-01
1.417516562616527381e+03,1.875354301812186350e+03,1.155408310025425408e+03,3.739166759415801233e-01,6.427603563455075442e-01,6.686145704091375208e-01
2.368933308440137807e+03,1.021858391575543465e+03,1.766520445231609756e+03,2.804952637273021021e-01,-9.588515596791653828e-02,9.550541575699043051e-01
2.672349740170824589e+03,2.232206569842667705e+03,1.538132758016797879e+03,-2.231048592234000094e-01,-7.407116587588798984e-01,-6.336958737198590264e-01
5.458741272131219375e+02,1.725691013016890167e+02,2.351391723699083741e+03,8.165749550035741322e-01,3.247307432536685745e-01,-4.772371394252872823e-01
1.854457803151982489e+03,2.617234315865262033e+03,1.770206406679596284e+03,-8.670816347522967149e-01,4.577649820906873335e-01,1.965213979361984109e-01
7.589574478850427113e+02,2.636621670370867605e+02,2.476112036263833943e+03,7.070768439716224041e-01,4.297525396456938762e-01,-5.615648594661230009e-01
8.052640451934033763e+02,2.117983831775912677e+03,2.254804571062203649e+03,-9.170832088600826271e-02,-2.880994122020996695e-01,9.531989889677147110e-01
6.245839014292589582e+02,2.381521979033956086e+03,2.125344145026032038e+03,-9.383075725170216819e-01,1.026235814295297227e-01,-3.302231062354521463e-01
2.898617110530779428e+03,8.319218394688975877e+02,2.555981111223333755e+03,2.645672963423067459e-01,7.050006122923546670e-02,-9.617868199724906031e-01
1.496741084550504411e+03,1.198515423824640720e+03,1.083798980493846102e+03,7.513888182831787166e-01,6.564476602128748173e-01,6.701726016519947426e-02
1.435796371711388019e+03,2.747117069770354192e+03,1.890006363053252301e+02,-1.269960054757569845e-01,5.119815909538356635e-01,8.495568639694348612e-01
9.949626836460690811e+02,3.134149094449242057e+02,2.174292742920316414e+03,2.769961515565834698e-01,8.703875153211341198e-01,4.070610583142839634e-01
1.090797748444901345e+03,2.142522034850518139e+03,2.692734103306076122e+03,-7.525434693754579074e-01,-3.321646010510584945e-01,5.686343328615854897e-01
2.350528451836568820e+03,5.307787540672111390e+02,2.067002017782271651e+03,5.490953520661153719e-01,3.620281872128817136e-01,7.532794209340538671e-01
1.587240808882933379e+03,1.339865485521352639e+03,2.197869155754797248e+03,-9.688087150188360308e-01,-5.838484310581223968e-02,2.408337264567850522e-01
2.045331214866114578e+03,1.989882336796388245e+03,2.212888522736851428e+03,8.091548302610312993e-01,1.949474783594009860e-03,5.875922567676584718e-01
3.437231347719423411e+02,1.178389293159493718e+03,1.547049322490672466e+03,-5.227804496310187732e-01,-8.524644975994045693e-01,2.209483239243698570e-03
2.888074539676138556e+03,6.096770400223656452e+02,2.097960920695937148e+03,-8.078281753394030984e-01,-8.157899304669895268e-02,5.837452415406032546e-01
1.000633942736650738e+03,8.436029179936844002e+01,1.533096318743991731e+02,1.589566221091577580e-01,-6.594830387270486094e-01,-7.347209769150357950e-01
2.989031381639841584e+03,1.356404925701253887e+03,2.212457238510214211e+03,6.167015014907791803e-01,7.813928020775474659e-01,-9.541774950404802169e-02
2.062088435541752006e+03,2.697268561197379768e+03,2.525398057589273776e+03,-9.946005896849592354e-01,-2.688905151347901340e-02,-1.002329581875986975e-01
2.123725697907379526e+03,1.343301040061639469e+03,1.542319367207539642e+02,-8.700411733325105201e-01,3.778201825421348969e-01,-3.166705959984543739e-01
3.151131836859112241e+02,2.041202387838329514e+03,1.276142574850683332e+03,3.914998938724445487e-01,3.596850259936752725e-02,9.194749044528751636e-01
2.687491469685870925e+03,3.116773499390001945e+01,2.417670306241901017e+03,7.844166977517275097e-01,2.680051562054567849e-01,-5.593421855497435757e-01
2.301668667127491062e+03,1.623426893626759011e+03,2.785481141693021527e+03,3.037548072406666064e-02,8.469475366827270424e-01,5.308080635011516168e-01
1.539587830242157452e+03,1.428292933621482462e+03,1.392498271706770083e+03,-2.347227367748017655e-04,-6.831701550954831503e-02,9.976636358498314205e-01
8.662805350231618604e+02,2.362777042890941175e+02,2.510197445700252956e+02,9.726132904130542212e-01,-2.012766810304755238e-01,-1.162371927794545456e-01
2.969331435271638838e+03,1.986250760362779147e+03,1.414954019258042536e+03,-6.349441843203122993e-01,6.094700735029904282e-01,4.747547917631509407e-01
4.965462403511386924e+02,2.284855014964356542e+03,7.769341574225853719e+02,4.150422424643753216e-01,-8.775635360432573195e-01,-2.400461980065446976e-01
7.198127655378162899e+02,1.354264691454056901e+03,2.716301696791638278e+03,2.281836476565332270e-02,-8.404753294933514640e-01,5.413691372275147851e-01
2.596085186084205816e+03,2.812204062838181471e+03,2.773386551039454844e+02,5.728086595015444704e-01,3.414270017823309855e-01,-7.451965123737307461e-01
3.349285384857986401e+02,8.663800789011183952e+02,4.999522401382727708e+02,9.066357977153512993e-01,-6.162306463791678013e-02,4.173896599170610067e-01
2.843719724638876869e+02,1.445443004462319323e+03,3.020194197702572865e+02,-6.447636989272740315e-01,-2.562800092293264775e-01,-7.201391042118433505e-01
1.612232907960570401e+03,5.933149321721519982e+02,2.286320487398797923e+03,-3.316262345891156649e-01,-4.909903584900465745e-01,-8.055758861845732088e-01
1.792571064376847517e+03,1.501742342716362600e+03,1.725057443691055141e+03,-7.437695340412564526e-01,-3.899529149871591716e-01,5.429029419012847413e-01
1.264790659692110694e+03,4.909844741011116867e+02,1.746260248845104115e+03,-9.000392572057660523e-01,2.285346160542493787e-01,-3.710812104559187419e-01
1.443145072518616644e+03,5.050663134485726573e+02,2.780302877568582971e+03,1.479229606364555472e-01,1.284908271831493587e-01,-9.806165943151969877e-01
1.793406664145251398e+03,1.891325765378902588e+03,2.732404924790645964e+03,-2.937196391832566089e-01,-9.421205174666201776e-01,-1.616715934432682023e-01
1.983423738503942786e+03,1.194532483504926176e+03,2.074633743702509946e+03,1.237925159937110567e-02,2.626301710052563743e-01,9.648171575006267986e-01
1.112731352923144414e+03,1.357400264842135357e+03,1.387830281322420888e+03,-6.739236230486691515e-01,-6.848975563037267289e-01,-2.770239839186112718e-01
1.316535825720793014e+02,1.954641877673276895e+03,2.571073249863416549e+03,1.129452505155379566e-02,7.018919509580606730e-01,-7.121938801226441740e-01
2.451126859601785327e+03,6.015334602028155331e+01,1.039473036918907525e+02,-6.555741323534168830e-01,6.960323515975368469e-01,2.928506829745623485e-01
4.045830871500938315e+02,1.242094786110342511e+03,2.922910953752960268e+03,-5.480123994571911572e-01,-1.730822021116023290e-01,-8.183672533486238132e-01
1.176608393707901314e+03,1.530433445943673405e+03,1.951841404032328683e+03,5.281890185599953831e-03,-1.620478629189044673e-01,-9.867687630643174890e-01
2.279866757932632936e+03,8.872010147205741077e+02,1.291327227835290387e+03,-6.082938440462251073e-01,-7.615618413108447005e-01,-2.236116301865864742e-01
1.166266692946214562e+03,2.912222799660000419e+03,1.965649097953583123e+03,-4.060702645772434893e-02,3.000829674094751542e-02,-9.987244722790009632e-01
1.509139210103418009e+03,1.610550196600672052e+03,1.062474606401829647e+02,-2.040654520069109801e-01,-5.007985530739224034e-01,-8.411647285379248995e-01
6.346201803739210163e+02,1.449642245603472929e+03,2.932468150578235054e+03,-3.636550899765278455e-01,-2.509854562478994744e-01,8.970848768573669307e-01
1.055502780215479788e+03,3.025469405994597309e+02,2.294509003499709650e+02,4.275361159427685798e-01,-8.994520741579327128e-01,-9.054742325193010366e-02
6.483614329511966901e+01,2.841404656967566098e+03,8.186963581586559258e+02,-4.331940664114009021e-01,-6.939475919730951903e-01,5.751344542110978786e-01
2.863748304986613221e+03,1.586901457049413921e+03,1.399684666724076124e+03,5.348855441685275158e-01,-7.542218581242610131e-01,3.808501586807144790e-01
2.424990890754187603e+03,2.962088354819124561e+03,1.569124446473028229e+03,8.714015976689330756e-02,7.463090329951230784e-01,-6.598707599414334046e-01
1.364344136389863479e+03,8.344479319103551234e+02,9.374299227345298959e+02,-6.339848192429347051e-01,8.143120092234053253e-02,-7.690462980119265879e-01
6.113036987784447973e+01,1.386982668753183816e+03,1.062474381989433283e+02,-3.945442805158346777e-01,-3.359008402876033084e-01,8.552809106991248189e-01
2.350609584143071061e+03,1.563922441344588833e+03,2.081900097148743953e+03,2.910380902328977420e-02,-3.037575449461141219e-01,9.523047422903265780e-01
1.302339724081106453e+02,1.515751448036345664e+03,1.603428353574340235e+03,-6.840212945939000422e-01,6.530985399391040502e-01,3.249264003916818577e-01
1.463699348677289208e+03,5.657373247176298037e+01,1.356527039586770343e+03,4.269850106457170336e-01,7.383847504049101396e-01,5.219882767393876355e-01
2.987592070248782875e+03,2.598883164506569301e+03,1.254019764049328955e+02,-2.408846976916363403e-01,-8.429445785880310682e-01,4.810602871232001476e-01
1.758133759204728221e+03,1.310995518578045278e+02,2.326424189961186926e+02,-1.308959326683671381e-03,9.092959673080420746e-01,-4.161479670295329392e-01
2.013256607593933722e+02,2.547748780535474452e+03,6.015485340938943182e+02,-4.743728975485562299e-02,-3.688623462681173137e-01,-9.282727363476175331e-01
2.703936339459025476e+03,8.818996724431094663e+02,2.030691348283594607e+03,-1.617654487028451216e-01,-6.413843655315518699e-01,7.499720229832949059e-01
4.486800568871727251e+02,1.312140615188581705e+03,1.083436524569673566e+03,9.008015390130107436e-01,-2.660422953780914312e-01,-3.431881180660945052e-01
3.376151332389299569e+02,9.192374781608821195e+02,5.067265233775028719e+02,-3.029321312039314762e-01,-7.615680023930278437e-03,9.529817025011640963e-01
1.207731607383946766e+03,2.471402662469373809e+03,2.861168534344974887e+03,4.136705971845517915e-01,-3.768415050978108360e-01,8.287744669453765978e-01
8.305193277721795084e+02,4.719462500514802628e+02,2.755223022780507563e+03,7.502827465313937072e-01,-8.736115920553902403e-02,6.553196381305637086e-01
1.734895908237519393e+02,2.672878988625675447e+03,7.189576879306251840e+02,-5.410516892253456334e-01,-7.452777723691794698e-01,-3.896461363838135128e-01
8.262337572476631067e+02,1.993187688179648376e+02,3.291617369693911144e+01,-9.493999945825097875e-01,7.553388971950697299e-03,3.139786562837814654e-01
2.421539530049003588e+03,1.886820369486015352e+02,1.803490216952518722e+03,4.262724145712177837e-01,-5.801270357064930439e-01,6.940781303412615344e-01
1.159167190939103193e+03,1.679561412823351532e+02,2.909809616891614041e+03,-6.673002771758525242e-02,-1.386779409134137643e-02,9.976746903113511422e-01
1.490431258624090333e+03,1.592102701148982760e+03,1.450517103493529930e+03,-1.080193136764934364e-01,8.980345210239475406e-01,4.264572978882510967e-01
8.290621476885543188e+02,1.662829984155976263e+03,2.421402066026166722e+03,-5.835870259275983685e-01,-2.871308574937051494e-01,-7.595933476827652076e-01
1.549455618002591109e+03,2.720483286152736127e+03,2.545281429803878268e+02,1.201645835944049369e-02,9.921886802997922361e-01,-1.241661282856671850e-01
1.171992182262654069e+03,1.111821016797540096e+03,1.889091374785870812e+03,3.418883376879027214e-01,8.872177659732135568e-01,3.097692694482501174e-01
2.061129627939853435e+03,2.149952102406077302e+03,1.382667301327367795e+03,7.234145844581245655e-01,1.797839256715737244e-01,-6.665951387937036898e-01
2.485612550904862928e+03,2.950210311667808128e+03,1.007649229192713619e+03,-6.013735510990014799e-01,-8.965594044769888138e-02,7.939216991498692089e-01
1.591039820948738281e+02,1.919904681888534697e+03,1.120445811413168940e+03,-5.122754072707022023e-03,-9.318407903309234852e-01,-3.628312264209772597e-01
2.922795307422402402e+03,6.211531229926946480e+02,4.570995469908347673e+02,-6.859034074298653305e-01,-7.202221412267495286e-03,-7.276569546722061466e-01
1.886597615543708571e+03,2.660687093981073303e+03,1.160111733498088370e+03,1.993087064309270184e-01,6.750895474800392426e-01,-7.103028526086787586e-01
2.226152690097543200e+03,9.446859812921949242e+02,1.553005874860528593e+03,4.504751540788819175e-02,-9.811955116782369313e-01,1.876861455144174240e-01
1.150530712536886853e+02,1.437212180519586809e+03,2.507455246552063272e+03,7.412616139396026316e-02,7.400650972882845124e-01,6.684377038832254314e-01
2.656331900118639169e+03,2.183268406655564604e+02,2.487059852160772607e+03,-9.532928332595312637e-02,9.912785805297071873e-01,9.098957920316440295e-02
3.000000000000000000e+03,2.096037502811295326e+03,1.607056286316761771e+03,1.133097405345346032e-01,-8.149211353508207800e-01,5.683875841875203339e-01
2.847881438341903959e+03,6.503989652887596549e+02,3.832021131662723405e+02,-8.466115376910345047e-02,-8.452398246691972261e-01,-5.276382547121359901e-01
2.363015728640660654e+03,2.872866433532037718e+03,2.271923154897957829e+03,-3.190380858939845243e-02,-9.759025785175536871e-01,2.158617711413510776e-01
2.610550742946386890e+03,7.007092319903989619e+02,6.382899376921966450e+02,-9.947134912587736189e-01,-7.630267195839961214e-02,6.872388638450767362e-02
2.689507202836925444e+03,2.000610944627847175e+03,2.705463302507584103e+03,7.605226427853024607e-01,-3.590838542542257872e-01,5.409843763222641488e-01
5.840052555082631898e+02,5.694349920709953494e+02,1.533297045804259596e+03,-4.257230665266213731e-04,-7.190225429729357742e-01,6.949866196241503147e-01
2.514623603197056127e+03,8.830529289941389379e+02,2.797580649130846723e+03,-9.588259581047123836e-01,5.250599378058376510e-02,-2.790983745593904608e-01
9.278715231146259157e+02,2.429823248986863746e+03,1.092040615823849521e+03,1.865204157664975826e-01,-4.701491991707876933e-02,-9.813254973796836644e-01
1.122547674457671292e+02,1.536148933010988230e+03,1.693398464727583530e+02,9.704007997721543488e-02,-3.847927204056839079e-02,9.945363585617388313e-01
2.673025385730247308e+03,4.082507044156366192e+02,2.378752017597093271e+01,-1.280036677661424913e-02,-1.795656333738891441e-01,9.836627134955447938e-01
1.732621482400171999e+03,6.882399919226037355e+02,5.947915001519421594e+02,-8.395504454249641535e-02,-9.700319784895474751e-01,-2.280120856523216999e-01
4.785131487359406606e+02,2.394242041588446227e+03,1.969298690626201960e+03,4.036326880248204962e-01,4.273090534409679231e-01,-8.090040951721084728e-01
5.514488094094327835e+02,2.445136677812590733e+03,2.877485570767056743e+03,-5.130354454730419178e-01,-3.426903352925008694e-01,-7.869929896672465119e-01
2.701983749592288859e+02,2.903142755799094630e+03,1.648655208439568241e+03,-2.666272948549576471e-02,-1.695477283078041797e-01,-9.851612389259162272e-01
2.318715510799617277e+03,2.645830490078143157e+03,6.063855234465588637e+02,-7.815495692221184898e-01,1.246228106860716549e-02,-6.237186564463885752e-01
8.332277209349947498e+02,5.397635521329702613e+01,2.063291945533560011e+03,7.859806277441913624e-02,6.261838042432781304e-01,-7.757036726943636884e-01
2.318803695095446074e+02,1.777230620673763269e+03,9.283611394802828727e+02,-5.198717954571983046e-01,1.721263616406374652e-01,8.367232708108849337e-01
2.320015638129697891e+03,1.050556296863971056e+03,1.770251709185936022e+02,5.312119864134478009e-01,-3.965158316499791669e-01,-7.487249299586626883e-01
2.975387739287080876e+03,6.425599930110715263e+01,2.951002708023817377e+03,-8.222133447137950357e-01,3.487007026043151825e-01,4.498589065227132644e-01
1.049959681394436984e+03,1.914864963273241756e+03,1.869559214136485025e+03,9.259006529116989848e-01,-2.734251016366625597e-01,-2.606658679855698435e-01
2.649711768584571473e+03,4.583957701827332016e+02,5.625615123624361757e+01,-5.337252449365365107e-05,9.829860396465045502e-01,1.836802738767949472e-01
1.463128502162177710e+03,2.573735531916291620e+03,1.735156338146714006e+03,-1.438020706101539314e-01,4.121965059022652533e-01,8.996749440826926625e-01
1.365624341305230473e+03,1.142846611918178496e+03,1.413486027391755215e+03,-4.770928845634972992e-01,-8.786275141873177708e-01,-1.990152787843802243e-02
1.946923672564390472e+03,1.758085970922643128e+03,8.165661456222787820e+02,-9.570637852979446691e-01,-2.870349651100111976e-01,4.049493394814419195e-02
1.195219913171722737e+03,1.417484199013862963e+03,2.572461754339285562e+03,8.082582308951460348e-01,-5.639230748178752917e-01,-1.694384781512210392e-01
2.164194102200047837e+03,7.020884649832308924e+02,1.912603676340764650e+03,-6.835028485247300889e-01,-6.434285496375041769e-01,3.447079308196401293e-01
1.422997648523557928e+03,6.263892114446491632e+02,2.720560759721960039e+03,5.746339062073407833e-01,-7.974017089976802586e-01,-1.842454567268130283e-01
2.961834414259723872e+03,2.532545083870574132e+01,1.906106930005514641e+03,6.520292527763352775e-01,6.644232588644009008e-01,3.652390814301547106e-01
3.442285368535526686e+02,2.895193851344585596e+02,2.302288120504330436e+03,-1.222319367253781042e-02,-9.997935893716832778e-01,1.622874572262254095e-02
1.745381018140270953e+03,2.202944831882666222e+03,5.954115277796305463e+02,-7.859629461939010575e-01,5.251558078154857645e-01,3.263029646323605260e-01
2.692641714741549094e+03,2.091405322128962894e+02,1.527539092249493478e+03,-6.976623369733234714e-01,3.619302710885844432e-01,-6.182828983876756945e-01
2.428112297938566371e+03,1.876175691506298563e+03,5.381023369944896331e+02,9.131965435258265762e-02,7.686213271883316489e-01,-6.331524114462272479e-01
2.145055353808305654e+02,1.071941907438145790e+03,3.629204228533050127e+02,3.771369004398265282e-03,9.791124906660819693e-01,-2.032843018963694237e-01
1.302520256277894717e+01,4.554520365402269135e+02,2.918275184015363266e+03,-8.627012890984450122e-01,4.639196860822886737e-01,2.013082478518750662e-01
7.896684693739798604e+02,8.046487649570393614e+02,1.439190761059702254e+03,3.392137049934483839e-01,9.112655774342026671e-01,2.335146884633321207e-01
2.320421500187240724e+02,2.510926115748383381e+03,3.419451862019516284e+02,2.362622799034016785e-01,-4.931412349644436199e-01,-8.372525649244617618e-01
2.451081222072834407e+03,2.627967592177881670e+03,1.519933192080423396e+03,3.967593257377736299e-02,-6.558606841997978165e-01,-7.538385658052884075e-01
7.385076175268259249e+02,8.898548055689063858e+02,2.839731256413332176e+03,8.306203055107256317e-01,-4.593972757903385662e-01,-3.146808717886813156e-01
2.369262475391932639e+03,3.806390643436351979e+02,2.242363450175926118e+03,-4.378901918941268678e-01,-6.790708172674472243e-01,5.891646671166271831e-01
1.835872920364386346e+03,8.554030054732619419e+02,6.456201873107431766e+02,1.192603497367621668e-01,-6.978176597371340550e-01,7.062771996459000778e-01
2.026757627626166425e+02,8.774102365636859702e+01,2.772432462925856385e+02,-2.057461678070074684e-01,-7.844315816962802446e-01,-5.850945291747331467e-01
1.702874940693490998e+03,1.965792148904735541e+03,2.674285911363155719e+03,-1.308738273105460818e-03,-9.984794577895645951e-01,-5.510952346363989091e-02
3.394314475802884203e+02,2.845641445864665457e+03,6.798531439643961676e+02,9.294689148216326302e-01,-3.604881065256136941e-01,7.833173963263129203e-02
2.872165067639395602e+03,4.720957967256417191e+02,2.043861591436885419e+03,6.073510371653778606e-01,-3.992274424878554662e-01,-6.868348905077157340e-01
2.129955492169956869e+03,2.857910442119245090e+03,2.298391028564044063e+03,-5.011560724036721037e-01,8.063018084222637327e-01,-3.141973660422899273e-01
1.098512091244980866e+03,9.670738004090107154e+01,1.552937684461253639e+03,-1.722054619576609269e-01,-7.911049968100372087e-01,-5.869396586482632516e-01
1.879757469210687987e+03,2.457397694106814924e+03,9.573432366363390429e+02,-3.580766229937438760e-01,3.465083433975873484e-01,-8.670138984014361672e-01
2.725937419449352092e+03,1.724396437574693437e+03,2.914756727116171987e+03,-1.032971743781730262e-01,-9.440676132662221276e-01,-3.131549701781919937e-01
4.295712941200399086e+02,2.974766862104365828e+03,1.405757823984469042e+03,3.821762004755553388e-01,1.522159189328938789e-01,-9.114667661596240755e-01
5.551462217907643435e+02,5.211179658177300666e+01,1.347922087184136444e+03,-1.602590784409043401e-01,-9.061872492916145383e-01,-3.913332301230874055e-01
1.987506988169122224e+03,7.478310507675097369e+02,2.915631882773893722e+03,9.685454987454107378e-01,-2.950634985968718024e-02,-2.470809425632851941e-01
1.142731098876086662e+03,1.075879448605034270e+02,1.519391394773194634e+03,-1.296159939263418631e-02,-6.536957548908954863e-01,7.566464544150108829e-01
1.622519858469172959e+03,2.134212243104489062e+03,1.660504780108789191e+02,-9.680347299676926864e-01,1.967894578101525571e-01,1.555077839568250742e-01
1.795103667118494968e+03,1.562730435763147625e+03,2.088822913222810712e+03,7.383934606569536596e-01,5.593986077085048025e-01,3.766275281399835695e-01
1.830415731864976124e+03,3.041269312447052471e+02,3.458178398537176008e+02,-1.492530735038113162e-04,5.149963972856287375e-01,-8.571923287724539930e-01
2.775116016805380696e+03,9.326271373216553684e+02,3.982310583774258248e+02,2.269938546753160274e-05,9.220931986420608517e-01,-3.869678701168751123e-01
2.129696197170983396e+03,1.723846512713979791e+03,1.414057554713280751e+03,9.795974341657275319e-01,1.217505348659819880e-01,1.598926960050724155e-01
1.090696342331026699e+03,2.982919189722530973e+03,8.552331440207680089e+02,3.237276175474199710e-03,9.555560414201114128e-01,2.947917430127413585e-01
2.665750989630860659e+03,8.369590248036531648e+02,2.852920440410802257e+03,-8.278177743508192687e-01,-3.013258975229993752e-01,4.732023203142763923e-01
1.764661449719327948e+03,2.403440264414919511e+03,7.010106504769034927e+02,-7.446472468581969428e-01,-5.692565744516916437e-01,3.484930848525304992e-01
6.485066879344065001e+02,3.106825810041843283e+02,2.280401892534806393e+03,5.032392427618272990e-01,5.948166250310391590e-01,6.268520137410318327e-01
2.295854279770366247e+03,1.750667180107824379e+02,1.852331694595245153e+03,-2.471581967639483457e-01,9.535646784620798178e-01,1.721256220378122315e-01
1.490512936946262244e+03,2.799503206247212347e+03,2.200765818804407274e+02,7.500000645257468568e-01,-6.074426755568670400e-01,2.617504520028386406e-01
9.919137462226411799e+02,7.249948439391674810e+02,1.608128802487635767e+03,4.067515804321425454e-01,-2.902968912982671901e-01,8.661875470811828404e-01
7.109523196416793098e+02,2.324625079843197909e+03,1.103935432092330757e+03,5.496890005777715915e-03,-6.173117762468110364e-02,-9.980776752885190950e-01
7.693218728473159445e+02,2.652758954265834745e+03,2.733109236424149003e+03,2.451498535014628166e-01,-3.634407045916683288e-01,-8.987838469699613864e-01
5.407535704988839598e+02,6.419375131003030219e+02,1.242465257523785112e+03,-1.297074528761532619e-01,-9.894674156996632330e-01,6.426670939927214832e-02
2.335638755197219325e+03,1.062286843122037226e+03,1.549491531056321264e+03,2.026709285943839589e-01,3.267706303346618046e-01,9.231172459949916753e-01
2.427201663103229293e+03,2.039255372164328264e+03,1.784591175977993544e+03,2.560409828890153894e-01,-9.632166306830018954e-01,8.158883169228904608e-02
8.830883357467766928e+02,2.434914246186564014e+03,2.672395665428673510e+03,-6.464977285814077490e-01,6.739246194649215482e-01,3.575839680664408271e-01
2.802830582803627749e+03,2.633059297039191733e+03,2.081551389162297255e+03,-2.801827662989286871e-01,3.998840625083370515e-02,9.591134160434824363e-01
2.567687937337798303e+03,2.442140493312018350e+02,2.515708248043517870e+03,1.371010008476932218e-01,9.352462143797665162e-01,3.263707003621446057e-01
2.569713018352130803e+03,1.079820552317636839e+03,1.046983171274815959e+03,-9.634374866388109027e-01,2.663066993284939898e-01,2.947797876134283790e-02
4.558528262385146377e+02,2.881484943707545426e+03,2.751588145633164913e+03,1.999073618595837432e-01,-9.788010340634052397e-01,-4.455987422278129273e-02
1.807020879965442191e+03,1.333131960641884007e+03,4.730253315582542086e+02,4.144774134010817401e-01,9.099915259478958962e-01,-1.113087972123949498e-02
1.827885240029571605e+03,2.647763638799335240e+03,1.158426875487813504e+03,2.606892274050133795e-01,6.650907007045128161e-01,-6.997824565901586968e-01
9.784958355580142779e+02,2.207689999914568943e+03,2.730149304592449425e+03,-1.775071820548772966e-02,-7.802460405724882531e-01,-6.252207835430172445e-01
7.706738515350002672e+01,1.608550223528310880e+03,8.828453106820967378e+02,2.035378737362496162e-03,9.003667979864301563e-01,4.351269772342992170e-01
2.948116647350699168e+03,2.832670826060334548e+03,5.597619923665770330e+02,8.980298664363614014e-01,-4.399264434455688599e-01,-2.661455546041135989e-03
2.690664896335347748e+03,2.298415033837962710e+03,1.386243535522343109e+03,6.020382596271013353e-01,6.895778855078900094e-01,-4.025323263585652289e-01
2.925602729855020698e+03,4.060995970332326266e+01,2.531791784766250203e+03,8.138981318990342606e-01,-7.533756901821275775e-02,-5.761024922578346086e-01
1.141670642408847243e+03,1.712586293456211706e+03,7.260729396421130559e+02,9.495542593445870094e-02,-8.312020730319882311e-01,5.478015889653213844e-01
2.151371222124078486e+03,9.853979457535671145e+02,1.043624463664248879e+03,-7.762147734311651837e-01,6.299109659104717984e-01,-2.651038537896788227e-02
1.876375092712560900e+03,1.179277806098654310e+03,1.281676185446683121e+03,6.475490281427299655e-01,7.110303197460166036e-01,-2.740732393964853131e-01
2.941146241920704597e+03,2.976043953967907214e+02,8.734704952302054153e+02,5.430603371155113823e-01,-8.290097237126211605e-01,1.335228379038984059e-01
1.348756596195692055e+03,2.791797248656491320e+03,1.974681978809397833e+03,-1.161764036390071503e-01,9.894588532698547212e-01,8.645357669530251421e-02
1.386856461839302028e+03,1.699764162523835012e+03,2.374363569677406758e+03,4.908498992170494124e-01,-5.928519087133901078e-01,-6.384300985804967077e-01
1.584168250070770455e+03,7.573854814455322071e+01,7.588280369938556760e+02,1.559382870325831671e-01,-1.428026345783519613e-01,-9.773897166406169124e-01
7.426111799153036372e+02,5.762515110770445972e+02,2.066534319132355904e+03,-6.743506748946532792e-01,6.801457438977424053e-01,-2.874942335541919580e-01
3.202230216842393133e+02,1.735993218413442719e+03,1.400385495887400793e+03,5.204764679478349754e-01,3.481740988894743150e-01,-7.796659817992888097e-01
6.286456176660257142e+02,2.182686226878402067e+03,2.322424603789882894e+03,3.008192229850355504e-01,-9.531591059020337875e-01,-3.155176569884710069e-02
1.982089230916410315e+03,1.364230310737254513e+03,1.316683423644681397e+03,2.201205925155143850e-01,3.714700566343358545e-01,-9.019739030452611495e-01
1.236861127277512423e+03,2.252407923632481015e+03,1.982300004865950086e+03,-6.183301830404529242e-02,-8.757067878761245483e-01,-4.788677265332168531e-01
3.292831553319872455e+02,2.408214089364706069e+03,2.963501255916487025e+03,-1.145594530223445068e-01,-1.794931408050768062e-01,-9.770661922956653811e-01
1.094585320529451792e+03,6.903985402205443052e+02,2.309996905956533737e+03,8.746045796670084416e-01,-4.212218126524023276e-01,2.400812649319392644e-01
2.510544282639220000e+03,1.823649697582198769e+03,1.816867459830291409e+03,9.185347389637201765e-01,-3.554639236076581610e-01,1.730298596494246333e-01
2.790424551189715658e+03,9.220701369770564497e+02,3.920072007955045024e+02,-7.101671441976127727e-04,9.908834868586148259e-01,1.347197503469363122e-01
1.733697739258939464e+03,2.901689398507185160e+03,2.519000581214411795e+03,6.455964591420889631e-01,7.588073322642416851e-01,-8.611994220400909228e-02
6.413679693121575838e+02,1.879478009932637860e+03,1.054363897091057424e+03,8.693505763840477796e-01,-4.348012740011215627e-01,2.348987600387142383e-01
5.225253971955983161e+02,2.818732207728253798e+03,2.176703319601428575e+03,-7.349488295085959688e-01,-5.269637510172744399e-01,4.268013860307259266e-01
2.886633508012271250e+03,9.066348524532827469e+02,2.541442263981816723e+02,2.911092689565560332e-01,9.566729732360009786e-01,-5.675897054156608945e-03
8.415587257530530678e+02,4.522477243229529904e+02,2.256269133390365823e+03,5.845272828423340172e-01,7.749288624521126767e-01,-2.404435770646260462e-01
1.811476662835903426e+03,2.700902024276008362e+01,1.167168761446459030e+03,-5.938098465518742985e-01,-1.713925711237171134e-01,7.861389525406059509e-01
2.174547520883566904e+03,2.327953354871377996e+03,1.177412804857652418e+03,-9.533606102723962694e-02,9.758210506548601337e-01,-1.966832798350062195e-01
1.437550868557732883e+03,2.825996419959233663e+03,3.869495563844397452e+02,-6.816807692536718255e-01,6.425907640256894870e-01,3.498405905817721373e-01
2.938460177467336052e+03,2.351724221545279761e+03,2.274685086460239290e+03,2.557325114444039798e-03,-9.601380676996766894e-01,2.795144916496999921e-01
2.627589957471865091e+03,2.391805235682671196e+02,1.342917337255910013e+02,-1.591612679165864408e-01,-8.328794558992410613e-01,-5.300749972750731231e-01
1.919794463056444101e+03,6.306801183506386224e+02,2.157173156199771711e+03,4.412629508406032408e-01,7.923992389008948090e-01,4.211774618907405121e-01
2.789824244318649107e+03,2.351025784247446154e+03,2.582241919288445388e+03,-9.499799089754864534e-01,-1.721636199506086928e-01,-2.605721790760266998e-01
1.912811848689273575e+03,2.828260569430135092e+03,1.060759121017127427e+03,8.240191660178611821e-01,7.322028441004529292e-03,5.665146087566830246e-01
1.649506181842194110e+03,2.814849394856234085e+03,2.552388640623763877e+03,-8.407078075160425712e-01,-3.889583843977356681e-01,-3.767250424225501715e-01
2.081346677246984655e+03,1.411253847536695503e+02,5.724665687567168106e+02,-6.908485946846896208e-01,-4.918237071020741813e-01,-5.299411857504215950e-01
1.237592300534387505e+03,1.596901465057829682e+03,2.454536291701940627e+03,1.599251138458751206e-02,-6.527666164249458502e-02,9.977390425479124580e-01
9.971941094049067260e+02,3.895983996867451538e+02,2.903557327204273406e+03,7.617963715710421302e-02,-5.807024571629506582e-01,-8.105438415826273779e-01
2.354918239438954060e+03,1.340494961019377115e+03,2.637031078527671525e+03,1.780896666748661705e-01,-4.949333030885705309e-01,8.504852121686021782e-01
1.823485044420146096e+03,1.221801134579100335e+03,2.375143406738427075e+03,-2.577482957275761821e-01,-8.669580555030147462e-01,4.265554431113984801e-01
2.221576524414162179e+02,1.262952261097456415e+02,8.517950420894294439e+02,-4.015578114628131079e-01,7.785429510137787945e-01,4.823092342884933714e-01
2.999348127245211344e+03,6.667911821629276119e+02,1.970703219131817832e+03,-2.913171761722343489e-01,-9.464691732978475214e-01,1.390338335223646471e-01
1.102375800975318725e+03,2.084266577426053118e+03,2.801205925963602681e+02,4.881397217473913419e-01,8.674756628387693125e-01,9.594574735139227428e-02
1.712823378036068561e+03,3.449357840343986368e+02,1.532240816064984983e+03,4.801194625874529720e-01,-2.498516034791688212e-01,-8.408682880711007002e-01
2.596561192188361474e+03,2.448279456076706140e+02,1.614012126315021305e+03,-7.032622115843690791e-01,-2.778715395889731488e-01,6.543773141268849347e-01
1.515173997712117398e+03,2.575989766077858803e+03,2.052611486587550644e+03,-8.714307794170124133e-01,-1.584723235984653589e-01,4.642143032457764495e-01
7.669241733912930385e+02,3.490959362136789537e+02,2.688497980293624551e+03,-7.095587057314478585e-01,-2.494189219478852027e-01,-6.590270438267822328e-01
2.017010790499129826e+03,1.653472296185360392e+03,1.801684812442081011e+03,1.942716272793951204e-01,-2.948232654108633444e-01,9.355948786770327263e-01
4.227691931642070244e+02,1.715039345037785097e+03,1.970561898043263000e+03,-5.360896288769583240e-01,8.097085287987362268e-01,-2.387048558390705566e-01
2.991238071005484016e+03,1.823884534438593391e+03,1.149007649808153246e+03,-4.922468772289462224e-01,-2.472348718625191344e-01,8.346064521638174583e-01
1.424401439430345818e+03,8.388202490816460113e+02,6.155879240090808935e+02,4.728665016763997642e-01,-8.253983100525459360e-01,-3.084070384325313108e-01
3.864948229952378256e+02,7.132595930327885299e+02,4.227377676796980381e+02,6.573728501504042532e-01,4.374555261936536321e-01,-6.135907418530430757e-01
2.811218120141818417e+03,2.964643448599161275e+03,1.087619608463911391e+03,1.257879240296799206e-01,-6.567478642483551843e-01,-7.435453187086362714e-01
1.909598257793934863e+03,2.990814685791709508e+03,2.119219506142891078e+03,-2.621598683208684610e-01,-4.348816506623778277e-01,8.614813714521925014e-01
4.284029404732656303e+02,2.821570635421798670e+03,2.122116431781140363e+03,-2.068473074311722448e-01,8.813183985094036332e-01,4.248435851666990115e-01
2.684850864471624845e+03,8.428332539011847757e+02,1.206098773480390719e+03,9.270702352844752969e-01,-6.508506945010357481e-02,-3.691946811429747122e-01
2.302716181431981568e+03,1.716772298575529248e+03,7.625801656597986948e+02,-6.191454327345451425e-01,7.838675010590919756e-01,4.701780415254752654e-02
2.708380695350961673e+02,2.092136610183744779e+03,6.778307838250164252e+01,2.563376306010447525e-01,2.395395961617603764e-01,-9.364356897344863206e-01
2.392962552057798348e+03,1.306735662831755235e+03,2.630053671737463446e+03,2.558290679126346348e-02,7.842393490164754066e-01,6.199307689849927749e-01
2.703664137988929497e+02,1.742503154493810143e+03,1.088040701885372101e+02,-7.003364980522266414e-01,7.038602578411885524e-01,-1.187835296986887862e-01
7.960331708106846236e+02,1.706299125110204386e+03,2.367532098008329740e+03,6.110077718605464447e-01,2.799084789876336576e-01,7.404868304817040503e-01
1.976886498947017571e+03,1.187781994916905205e+03,2.050277937277839101e+03,-1.389441290486068646e-02,9.421787050423964249e-01,-3.348226889783041393e-01
2.803514089292147219e+03,1.019236452344458939e+03,4.266552081031293824e+02,9.381220101012038848e-01,-2.074666138400302895e-01,2.772809014436959374e-01
1.483989760199709963e+03,2.860494975089583932e+03,5.525367974436305758e+02,2.170233793936698907e-01,8.688171030165973141e-01,-4.450367336550980490e-01
1.644042977220862895e+03,2.976802539856224030e+03,2.398651353945578194e+03,5.370421735451340606e-01,3.078058707539440553e-01,7.853924176889692799e-01
2.092472504755376576e+03,2.917687767148614057e+03,2.657733399824597655e+03,9.565794810989560748e-01,2.551785593485516590e-01,1.408531121035306033e-01
1.052324555856610004e+03,1.489138444140189904e+03,2.072775368395268742e+03,7.529500628970415832e-01,6.398513149722995230e-01,-1.538066887737994382e-01
3.542400095860561464e+02,2.613585142560758413e+03,1.508236346749285076e+03,-8.687152541588766264e-01,7.110446075227001839e-02,-4.901815611105822534e-01
2.871297365157352488e+03,1.145985016649942736e+03,2.521674191676062946e+03,-8.123686915034823708e-03,4.633068016207837064e-02,9.988931243064123056e-01
5.162346640997030818e+02,5.560146064140699309e+02,1.441827463512366649e+03,-6.351648956051789696e-01,4.470574403551446641e-01,-6.298453781794135509e-01
1.882813692693084931e+03,1.854728805439021016e+03,3.783589055712813547e+02,9.708216511284626371e-01,-5.418728247452884311e-02,2.336002142940614423e-01
1.057758305293280955e+03,1.698191583922671271e+03,2.786682571939200443e+03,6.567366197283962259e-02,-1.556190234427615449e-01,-9.856316196560449550e-01
1.590354877408597360e+02,1.234057428874337347e+03,2.603940995275720525e+03,-3.978277754422800960e-01,-4.511409572440978066e-01,7.988772732926665565e-01
1.708569010056174648e+03,1.649142042941087993e+02,7.074518489287094098e+02,-1.035000202696406274e-01,2.280725939436979155e-01,-9.681273871221581784e-01
9.344746887249384599e+02,1.177918835994918709e+03,2.928898542023194295e+03,9.758100880232283281e-01,1.792530052543465091e-01,1.251520364172507283e-01
1.168665948671934984e+03,2.846392964492586543e+03,2.847137084825154034e+03,6.791865900328819539e-01,6.480831117012064713e-01,3.445197472528789273e-01
1.653717264403756644e+03,1.210265540099232339e+03,1.397398058828811600e+03,8.532758325000652233e-01,5.208820118093713258e-01,-2.454146378565471784e-02
4.664490805950104573e+02,1.703015944810907286e+03,2.700406519470976946e+03,7.183791254859402120e-02,4.462638032004167532e-01,8.920134148507858907e-01
2.908289633566042085e+03,1.443655417435252957e+03,4.060292162002784266e+02,1.346913872553787417e-01,-9.572015588633278060e-01,2.561706577827305709e-01
1.317938159110163951e+02,1.952881350732861847e+03,2.636127477214236933e+03,4.394078268089344763e-01,6.652271015511583840e-01,6.036502837743840111e-01
2.337562209855231686e+03,1.076878478447196130e+03,1.597525680850719255e+03,-2.780010381876097184e-02,8.889475986647564776e-01,-4.571644354669655019e-01
1.693052316803742542e+03,2.712024496189498223e+03,5.578008654487917966e+02,-2.156149829958920461e-01,-1.010037086143982799e-01,9.712406653110334798e-01
1.601058092500539260e+03,2.367529089655953612e+03,1.771818867899043425e+03,2.217367621346443829e-01,6.014688027156197547e-01,-7.675077118035251722e-01
1.245080673773777420e+02,2.207460816031815739e+03,9.982343498000749378e+02,-2.859851002924687080e-01,-9.447416665649301937e-01,1.602364061841907994e-01
2.714771131387914920e+03,1.533956262444264212e+03,3.607424161483583021e+02,-5.410001758884985801e-01,-7.881570472257820592e-01,-2.934744939461522706e-01
7.380664617862717023e+02,1.583006598432603596e+03,2.327941102523376316e+01,-7.584853165458377289e-02,1.767936260266107784e-01,-9.813210555379959787e-01
2.492809102058987719e+03,1.154612310940945008e+03,2.289140508067566316e+03,9.152633418133375720e-01,-7.732534349028535869e-02,3.953654086876985385e-01
1.183073756697712497e+03,1.200046607855679440e+03,1.555646076442293634e+03,-6.975068117041293148e-01,-5.442881915482824517e-01,-4.660843401868812186e-01
2.681064392130764190e+03,2.939035553672478272e+03,1.585852518073795636e+03,-1.838131799816056233e-01,7.452585261861526256e-01,-6.409387209491197446e-01
2.390531896364669137e+03,4.155053782779691574e+02,2.217353328384510405e+03,4.198942956808555116e-01,6.855248465417460579e-01,-5.947642097744231249e-01
9.611268752035330181e+02,1.310049675120322718e+03,2.654608358344444696e+03,5.051368102719824282e-01,-5.777046430669655619e-01,6.411662407575098310e-01
1.483338740485658036e+02,8.637885248617971357e-01,2.840732183644449378e+03,5.659755597443995034e-01,3.030780815266999051e-01,7.666911648572121152e-01
2.742922842121753092e+03,2.929998647123698447e+03,6.373724059249391303e+02,-2.245908173458460166e-01,-7.804869599547840098e-01,-5.834372889218379932e-01
1.576728826327678007e+03,1.994179880734994185e+03,2.302321103680085798e+03,8.472919221887025287e-01,-3.005151167906990328e-01,4.379349988001031702e-01
1.926856144865882470e+03,2.998998848634259502e+03,1.579533285306333745e+01,-7.013895184304288488e-01,-5.126871914436433031e-02,-7.109319671200806656e-01
2.413674072855300892e+03,7.368595304212217343e+02,2.349751207462113598e+03,4.109073051071433086e-02,-3.950779284322595286e-01,-9.177281636365804962e-01
1.413194978562642746e+03,1.176634622298411614e+03,2.383730758445128686e+03,2.258124230296809365e-01,-4.535988463255585246e-01,8.621234460433069291e-01
1.195456100199523689e+03,7.754284408250809975e+02,2.755007621196851233e+03,-1.896794066314280436e-01,6.193569099340097139e-01,-7.618521777989115673e-01
1.518493023279268527e+03,2.187162919170717942e+03,2.305204868362264733e+03,-9.825209306562135980e-01,-6.441708573880143909e-03,-1.860406547319626291e-01
1.321818117560436349e+03,8.040699876918458244e+01,1.903020151248914260e+02,4.970228139502082948e-02,-9.541409866242771542e-01,-2.952027453594922024e-01
2.308530897714173989e+03,1.068405964286781455e+03,1.012028061005549034e+03,5.818842639538938238e-02,-4.195524303001224586e-01,-9.058641538679457206e-01
2.908664411076409237e+02,3.110474159509582819e+02,2.537158646475163550e+03,4.121754490094873269e-01,2.860929040128938339e-01,-8.650215312391342781e-01
2.524365276914792958e+03,3.923999372641328875e+01,2.756495472337399860e+03,2.021784227579551674e-01,9.740255254284094777e-01,-1.019713743411188173e-01
1.427389388139527910e+03,1.609646819175102792e+03,2.668461099253109296e+03,-8.657911174555620315e-01,-4.751316424450924975e-02,-4.981447983854929706e-01
