x,y,z,nx,ny,nz
7.405372213819649119e+01,3.589231203110687574e+01,1.277952073548473663e+03,-6.356126298782608375e-01,2.237604566561584851e-01,-7.388693001988027032e-01
3.068320591184764226e+02,1.919121527969139834e+03,1.949166558895726666e+03,6.313511036549815936e-01,-7.194921827268502268e-01,2.893558067649402155e-01
8.320506293442487333e+01,1.569495857946367323e+03,1.398046584124984292e+03,-1.209086658188340269e-01,1.508486103375820953e-01,9.811349506001352250e-01
2.507119107720840930e+03,1.869276535091718188e+03,2.132253629951056269e+02,-4.587143966333598888e-01,-8.318596373080863748e-02,-8.846814103164308829e-01
2.206293994050507536e+03,1.884186553731087997e+03,9.196116334118098479e-01,1.376525280497019055e-01,-2.177682014672041033e-01,-9.662446853417954173e-01
1.708786552856985509e+03,2.821490429288698124e+03,2.899819933464779297e+03,5.556599238134808383e-01,-4.660496367346794733e-01,6.885054721402511513e-01
1.570219248661558368e+03,6.932915750886879778e+02,3.182139053362075742e+02,1.151799783780908804e-01,9.933287750973212038e-01,-5.614013223887477297e-03
2.085282511594198240e+03,3.387974846657591002e+02,2.206609665950927592e+03,2.024242693180811135e-04,2.319903874846460379e-01,9.727180573728129165e-01
2.807260216496788416e+03,7.465401127088819067e+02,1.751518607695845503e+03,5.197274438990221457e-01,6.151679520275717961e-01,5.928336822890480917e-01
9.206384196245735438e+02,1.824023529634232546e+03,1.803679637778253891e+03,3.133672969450608248e-01,-8.704498051783692292e-01,-3.796288633261244994e-01
4.007250402931571216e+02,1.187691041953414015e+03,2.381933381840286529e+03,-9.839844042416445724e-01,3.952702639977419968e-02,1.738168760310905558e-01
2.652230350528194322e+03,1.472125759768515081e+03,3.991286540056722174e+02,-8.049429806936346798e-01,-5.692498411583543083e-01,1.673959861323906229e-01
5.827973903879272939e+02,1.167773492948527519e+03,1.579153681687718972e+03,-7.330027354699761855e-01,6.532209644618428568e-01,1.897613274117566640e-01
2.606603120020393362e+03,1.304609077406130382e+03,2.540969008073043369e+03,-6.708030564982985222e-01,-2.698641538603213652e-01,6.907941790821585659e-01
2.624091895903963177e+03,2.389962073630751547e+03,1.389314165053926445e+03,-9.663776681608642338e-01,-8.141490951065984139e-02,2.438971401827863539e-01
2.832217136116742950e+03,3.140052628568877822e+02,2.278867028633840164e+03,-1.104899827080387947e-01,6.944384230057362162e-01,7.110184529071545967e-01
1.667145700832475541e+03,9.231169266922970564e+02,2.079351057416630283e+03,7.178929705281032747e-02,-9.659293910822880358e-01,-2.486497703036614215e-01
1.920810701051835167e+03,2.778159413280287936e+03,1.306034343002831974e+03,3.713529460646350366e-01,9.229503428818582877e-01,1.012899502585351552e-01
6.381223461672209396e+02,2.069874622460099090e+03,2.769550291029625896e+03,1.504016933773245357e-01,-4.454137752478585788e-01,8.826017785211421884e-01
2.511655586489830966e+03,1.373279099590157784e+03,1.130753105197346031e+03,2.422767337880207539e-01,8.817845348028608976e-01,4.046702589115127591e-01
1.098079875357157562e+03,1.021906034165902611e+03,3.615723092344928773e+02,-3.468438869916395939e-01,-6.138742798921447141e-01,7.091245916927655379e-01
1.620478671323355229e+03,4.614095608505154473e+02,1.533660410239988323e+03,-7.177849546467668373e-01,4.364320737723532684e-01,5.425051187458991286e-01
1.639316787177591095e+03,1.732817579274057152e+03,1.434351403531973119e+03,3.928834771520126057e-02,7.449735404896600244e-01,-6.659360702831094159e-01
1.800355197838536014e+03,1.750587824811954761e+03,9.019924785810603680e+02,-4.992178098607528286e-03,-8.223506820351905722e-01,5.689590792966474631e-01
2.976347064295592190e+03,1.576085511014373651e+03,1.544038146236006526e+02,-6.466363189723708382e-01,7.613550512222379274e-02,7.589893647776930763e-01
2.414135929983447113e+03,1.240015106285159845e+03,1.762453926269191925e+03,-7.139699999944524311e-01,1.923576735336109400e-01,-6.732349994917512515e-01
8.931259123569087706e+02,1.152073156201556259e+02,2.949921174467172932e+03,8.175005928744522032e-01,-5.639595151678251650e-01,-1.168008814247170069e-01
1.869116760052983182e+03,1.519055959460252780e+03,2.939373123118178228e+03,7.761693307416099863e-01,-4.790381913408281456e-01,-4.099799766488963493e-01
1.543031032026680805e+03,2.049233842563129656e+03,1.523142265862452405e+03,-4.796134180297149940e-02,8.295781523933845047e-01,-5.563270609668713451e-01
2.925569956603084393e+03,9.582198060426117081e+02,1.185108647809510103e+03,-1.757009196582978439e-01,-7.209371964824466961e-01,-6.703571775995679216e-01
4.946181438189820483e+02,1.820987479985404320e+02,2.518646387566480371e+03,-7.644612195177831193e-01,2.984859147073782859e-01,5.714063375345810325e-01
1.616921747040299806e+03,4.923136979606059640e+02,1.636051794610355898e+02,6.205084349239286395e-02,-9.979740818284424941e-01,-1.405079430351936949e-02
1.820451064316462862e+03,3.960131650437978124e+02,2.567421456919887078e+03,1.852902938375985409e-01,-2.715445384473872403e-01,-9.444210240401109679e-01
1.463573532107902565e+03,2.191562108618235015e+03,2.352500516685870934e+03,-9.805100087806806197e-01,3.359094417649942377e-03,-1.964404214147459360e-01
1.032078177638843499e+03,7.847365435621668439e+02,1.170207222330998547e+03,4.927756324251157949e-01,7.736913959437083932e-01,-3.982132593607388138e-01
3.000000000000000000e+03,1.982244838119823100e+02,8.478207388490020548e+02,7.001157183113144999e-02,-5.934101705470761212e-01,-8.018495802212683987e-01
2.536065856420059845e+03,1.856197782880797831e+03,1.253857170383490711e+03,9.305388743195405765e-03,-2.035192932490604290e-01,9.790267141481590052e-01
8.953315452828611569e+02,7.971737716567085954e+02,2.546914190466035507e+03,6.920411731336377770e-01,6.693046948683860353e-02,7.187484448275973659e-01
9.897663410973941609e+02,2.758042031091351419e+03,7.263604595191960698e+02,-1.580414861209606878e-02,-9.441301405780989642e-01,-3.291937219003817638e-01
2.124117140446679514e+03,2.024036471030011853e+03,9.120649376687687209e+02,7.417625167672166064e-01,-5.183678583669091289e-01,4.255386376479446398e-01
1.239719404100834254e+03,2.954023571190672897e+02,1.626207679013428731e+02,5.624180292552289906e-01,7.194486817950530577e-01,-4.075285936373360118e-01
1.121058465588961553e+03,2.756306951421671329e+03,1.041736269644175309e+03,-1.255892378408491328e-01,-4.082177309994531322e-01,-9.042044168417961991e-01
2.396986230839821019e+03,1.546474713389126691e+03,1.721655921535736752e+03,-9.393189032213338230e-01,3.279052916373920157e-01,1.007874881484176477e-01
1.841773323195506919e+03,3.494207945701399609e+01,2.954495230206251108e+03,-7.999112530875416294e-01,-5.834654017724520969e-01,-1.403927067850392341e-01
2.221613542004658939e+03,1.206910842167003239e+03,1.171253963880697484e+03,9.497356973597171903e-01,1.699496925218860199e-01,2.629053197871205061e-01
2.665553145110114201e+03,2.214306515125287660e+03,2.016012175591731875e+03,-2.045865710668119952e-01,9.687780704936875820e-01,-1.400477956615244768e-01
2.716183609306939616e+03,2.185283652475412964e+03,2.641907855714245215e+03,9.206274869696720654e-06,6.837876596757435088e-01,-7.296810511383821085e-01
9.188269474364863072e+02,8.625486581208940606e+01,7.321397403710288927e+02,8.389343922485573701e-01,-5.359938855154878778e-01,-9.433790432564137518e-02
2.632523773962773703e+03,1.782082329480588442e+03,1.329502308002819746e+03,9.228587959619865000e-01,-1.754846362987103614e-01,-3.428363824606455723e-01
1.077740064380573585e+03,2.723184593051284082e+03,2.435593077340545733e+03,-9.005512477952108963e-01,-3.968736258284559226e-01,1.774789430221610509e-01
2.889529567375166152e+02,2.062491643997546817e+03,1.126600611424376211e+03,-3.877513725946978712e-02,-2.557861659632038598e-01,-9.659554472295053262e-01
2.393749922620847883e+03,7.786967287632101034e+02,1.759222864020438010e+03,4.391512932996924357e-01,8.875122604148936167e-01,1.395282380253319854e-01
2.457113002801089351e+03,2.915939161768477788e+03,5.449526062057841358e+01,-5.234857956438215831e-01,-4.759722221198688930e-01,-7.066916339744155895e-01
2.273970052297035636e+03,1.749038726352357799e+03,2.018593620124532890e+03,-7.871563797271967644e-01,-5.644835114702401180e-01,2.484817883326673194e-01
7.056742445639813468e+02,1.391752327045950778e+03,1.003171487943589227e+03,-3.729739988093410119e-01,-7.351172344916724333e-01,5.661210539853513968e-01
2.853267713807200835e+03,1.932725807314442363e+03,2.539875501467826780e+03,1.898598873907298978e-01,5.560541363094927414e-01,8.091705757459817239e-01
1.829068713248166489e+02,4.434634271994081018e+02,1.762398721431815375e+03,-9.233932922564529466e-01,3.823226923137179600e-01,3.426640859178409215e-02
7.977196617139517230e+02,1.243341292260720593e+03,2.814648812132159492e+03,-4.138358906917090074e-01,-9.004084643351702999e-01,1.341806727102692609e-01
1.340143030737368690e+03,1.292428361748656471e+03,1.410613011791683675e+03,-4.516278731276324732e-01,5.213436607510044674e-01,7.240393992103970611e-01
8.181518934402090792e+01,8.173396872971745779e+02,6.172375778816930136e+01,-1.264868291106213960e-01,-9.068993889510469364e-01,-4.019136479167609854e-01
6.817061772183836865e+02,9.125527749929038919e+02,2.498963837340309965e+03,6.951060564095785654e-01,7.135936769285273762e-01,-8.724468230412862901e-02
9.695033787684102435e+02,2.283051122661602506e+02,2.469874607193480642e+03,-8.148410257426262904e-01,3.492016581887119608e-01,4.627010964812584004e-01
1.016128226140360312e+03,2.807508042899284646e+03,1.502345149106107556e+03,-6.211373937066976270e-01,9.765077931927589050e-02,-7.775941508509366384e-01
1.023125699413175482e+02,1.049129392857282028e+03,2.929022453378905539e+03,-1.425989337067130047e-01,-8.652120167130743500e-01,-4.807012692317373936e-01
5.079614534995521353e+02,8.894729104815654637e+02,4.384416154666537579e+01,9.815557137281909483e-01,-1.883573316702900624e-01,-3.270927167623893794e-02
7.597899661368911950e+01,2.535355273833047704e+03,2.441987588111880143e+02,-4.281683587163986893e-02,-9.267516284990864328e-01,-3.732266571940332511e-01
1.695468752795409273e+02,2.229735034124830690e+03,1.670298227050640207e+03,-8.540222105264692054e-01,5.155760473159691770e-01,-6.947951756830761383e-02
2.751148863775469636e+03,1.261379012851755988e+03,1.162842242022681830e+03,3.015258270725121870e-01,9.121921975628033419e-01,-2.774663408663853859e-01
2.367447068890187438e+03,4.421164790102193933e+02,2.410416289103032796e+03,-9.753022176621578554e-02,8.341408636821471267e-01,5.428599040063968317e-01
1.118108124408767253e+03,2.020250527665110894e+03,1.330429118542943115e+03,-8.932696965307475034e-01,-3.696205556449272400e-01,-2.558317691464485066e-01
2.260910354759909296e+03,2.274855581116187750e+03,2.265121729011350908e+03,-7.839416209834900728e-01,-2.196198366096925869e-01,5.806915379591045534e-01
1.043630559763379551e+03,1.504027924540901040e+03,2.188131462389805165e+03,-9.629989748071012823e-01,-1.850552850870660349e-01,-1.959273232140343879e-01
6.534697786526599828e+00,2.311877435301272726e+03,2.278896667207316113e+03,-7.651267688460758887e-01,-6.219832709420205497e-01,-1.664867510146939011e-01
2.533648450403819879e+03,1.863198322764040086e+03,1.057098706081343153e+03,-1.717941955292506262e-01,-6.802345286285249593e-01,7.125782346128641809e-01
1.089364456229617417e+03,6.045453937310610399e+02,5.243663139021120969e+02,-6.812062874248824285e-01,7.256326995113363543e-01,-9.703184720852831013e-02
9.304470974977542710e+02,4.012182382302261772e+02,2.406252848066233582e+03,4.016652519059194515e-01,9.147496262148636648e-01,-4.356772602651393100e-02
2.455897684051941269e+03,1.670366238239728091e+03,1.508750078753711250e+03,-3.434896941981042950e-02,-9.939837720477356919e-01,-1.040019673157772662e-01
3.579784167268035162e+02,2.083725828583839927e+02,8.036199982660712067e+02,2.810661887518594027e-01,1.583874020746886269e-01,9.465279860651427679e-01
2.762577578331861787e+03,2.305694374761758638e+02,5.707753221696428909e+02,9.666204045786644938e-01,8.421634119283850917e-02,2.419764478792727769e-01
1.547501418353420377e+03,1.488455183231275214e+03,1.507590974609681098e+03,-1.153910920225285908e-03,-8.790032649320727032e-01,4.768143545745498479e-01
3.664203608724546370e+02,1.057340395517959678e+03,2.499313055038885977e+03,-4.651859798802780444e-01,8.141885229337337826e-01,3.474176927645029611e-01
1.720868878937465070e+03,4.659665990849260311e+02,2.743100855103288609e+02,-1.324800401449963694e-01,-8.022764309606550404e-01,-5.820666347491613157e-01
5.960569647845144914e+01,1.053401174284297440e+03,2.118120369494838542e+03,3.461525621032041089e-01,6.583004437980958246e-01,-6.684451581428483280e-01
4.964481999341953724e+02,6.109694796255015490e+02,2.600671509359660831e+03,3.213241010166069112e-01,-7.908405353072204269e-01,-5.208858510469051017e-01
1.936952329208897481e+03,7.015124845123409614e+02,2.294726033037514298e+03,6.617059189847682710e-01,6.039958827108263817e-01,4.442231989089415745e-01
2.641500807888102145e+02,2.907372955652487235e+03,1.017718884731842422e+03,-2.817118794093005363e-01,-6.399910232923309086e-03,-9.594777007042374350e-01
1.952828436380134463e+03,2.193018257818128859e+03,2.577797919938514951e+03,-2.295795748735423580e-01,5.857628636504037534e-01,7.772870038595539599e-01
2.923418686021903795e+03,1.301765466955742795e+03,1.214117598850429204e+03,2.017479219334338270e-01,4.853566804590485062e-01,8.507212638281202999e-01
1.456277922162486902e+03,2.227584776080620486e+03,1.306240507400517799e+03,-3.301384336653451212e-01,-6.027332775569138601e-01,7.264442241098023612e-01
1.543573248377536402e+03,2.383917983686922526e+03,1.279411248330151238e+03,2.043849209112603982e-01,2.189808595964818499e-02,-9.786456345048506478e-01
1.723031651636970764e+03,6.776108581902299193e+02,8.579136001256038924e+00,5.089279671701431029e-01,-1.496939721279832436e-01,-8.476933637469461491e-01
2.891957667827487057e+03,2.223446657526819763e+03,2.127354649142835569e+03,8.036084530175241492e-01,2.366533334152746693e-01,5.460848414140614393e-01
2.016419705701081966e+03,3.452742154167211197e+02,2.130425758788054736e+03,2.774045660858072138e-01,5.599854831227114582e-01,-7.806810907192311966e-01
1.465926775601862118e+03,8.247206069438034319e+02,1.149526155772786296e+03,-4.025995415284319701e-01,9.080907486806414353e-01,1.152597124832817205e-01
1.572109234812634895e+03,2.422061171546534752e+03,1.991039787012477746e+03,1.866943316041025924e-01,7.194176431904714120e-01,-6.690168018915257919e-01
2.330915087903932999e+03,2.394830922143064981e+03,1.908029110603449908e+03,3.833993943114893388e-01,-8.996168651503237967e-01,-2.090320558638967263e-01
9.634509000622318808e+02,1.080612029020629052e+03,3.615142714918341085e+02,-2.876429135228424916e-01,-7.877418182031820093e-01,-5.447241339926436332e-01
6.990466099475578403e+02,6.061565210618837227e+02,6.640547389964764307e+02,-6.992110208335168275e-01,4.364592017644083333e-01,5.662219649043358505e-01
2.768252167569746234e+03,8.368310318448815224e+02,1.246059632624747451e+02,-8.046342120039008394e-01,4.143077596695359799e-01,4.253385300563208293e-01
1.271482517031491625e+03,1.363073258981310346e+03,2.504533815702046923e+03,-3.818439830780727129e-01,9.234536153832243466e-01,3.779673031790631299e-02
1.711440651748419896e+03,1.974806721736161990e+02,1.580224922431737241e+03,-4.481738303260736633e-01,-3.208018158984588530e-01,-8.344018292927617431e-01
3.832472842689893611e+01,1.536650944366356498e+03,1.279570580971251275e+03,-7.758157901055602323e-01,-2.534024982127633385e-01,-5.778382418310646917e-01
7.405668911314265870e+02,2.774025550330655278e+03,4.071448901303320866e+01,-5.136081816033493119e-01,-1.494909185131721996e-01,-8.449018292512977535e-01
1.642048555232139961e+03,1.897442866723676616e+03,1.628418785888572074e+03,2.422798649797861317e-02,3.838820097736010961e-01,-9.230642487077671543e-01
3.428930433848569237e+02,2.226608269882486638e+03,1.564411577949523007e+03,5.194534024729471344e-01,-8.523516830513012676e-01,-6.053735259236669997e-02
8.849263781525077093e+02,2.245295184126449840e+03,8.095415628480780015e+02,2.292871847184885792e-01,8.644273570855345312e-01,-4.474290236964824086e-01
2.404726788205241519e+03,2.102054802616801680e+03,1.149639556195348860e+03,8.666994706224617762e-01,-2.153136845104087482e-01,4.499689376893662995e-01
1.464856069617009780e+03,1.587182263538803909e+03,7.996805413668333813e+02,-8.614092621150699625e-01,6.297831162043396325e-02,-5.039918802994850511e-01
8.678459204855060989e+02,1.746938800452809801e+03,2.312374064559492126e+03,5.574068821518006756e-01,7.386049895286633804e-01,3.791572723464124994e-01
1.025486847092527043e+01,1.178090300622319774e+03,1.383083547459088322e+03,5.883032273070196716e-01,-5.518007389969192822e-01,5.911135738439773357e-01
2.325756749788640263e+03,2.794841377218931484e+03,1.453641443851934355e+03,-6.151129924223217582e-01,6.538679316965886335e-01,-4.405595696975406206e-01
9.484597448574224927e+02,9.111424163588708325e+02,2.948069531217484837e+03,-1.087500667880465371e-01,-1.364930484652852050e-01,9.846537821459118156e-01
2.203401128088617043e+03,8.589899719794242117e+01,1.729242899110877488e+03,-5.892167861771364645e-01,7.975545701116216746e-01,-1.293456090524644220e-01
2.003089064014994392e+03,2.669985386976806694e+03,3.791390428059694386e+02,5.663002888527098877e-01,-2.265730132078351902e-02,-8.238875102477258849e-01
1.415578708913997616e+03,2.534328181682061313e+03,2.941783657974478956e+03,-4.675026186850134158e-01,7.572186944841398093e-01,-4.561372055055255004e-01
2.571041207386263522e+03,8.044620639761520806e+02,4.052160576498331324e+01,-8.417109086797336381e-01,-4.259567868323364294e-03,5.399116615624377502e-01
5.124205803130066670e+02,1.530261921971520906e+03,3.210885238019860708e+02,-7.609173879700060761e-01,3.096325616663251346e-01,5.702038279780772267e-01
2.726177227885160619e+02,9.750867223646729371e+02,1.622929863637399194e+03,-1.241711833572862328e-01,7.780203774123536364e-01,-6.158456052898242383e-01
1.878237912916673849e+03,4.961006130284976052e+02,8.911123055068536587e+02,3.289116360738699174e-01,6.649838479476960496e-01,6.705323389843964588e-01
2.580523943396007326e+03,7.271539153378067795e+02,1.423858013199715742e+03,-5.254301349351363504e-01,7.261488006364076320e-01,-4.434310460898640560e-01
2.503338886340476620e+03,2.047175354099195147e+03,7.343125029821596854e+02,-8.763746895749202626e-02,-9.911335070945804793e-01,-9.987014142936743999e-02
1.131287918093361895e+03,1.368805599765546276e+03,2.154708017192348962e+03,8.225368190273461000e-01,2.669121508565264894e-02,5.680851700067750532e-01
8.923515202958665782e+01,2.506365556606404425e+03,7.201180802396270337e+02,1.008437119316120678e-01,9.372565249308280055e-01,-3.337375499377353005e-01
1.384564229518080765e+03,2.060725312842937001e+03,2.375630897197845115e+03,8.819990522375480424e-01,-4.267635057014649291e-01,-1.998764169517322220e-01
1.047243614253582564e+03,2.118302058701659462e+03,2.056877946742382392e+03,-4.542112145084035990e-03,1.144484597860632308e-01,9.934188035616496881e-01
2.680699621555659633e+03,2.616729046727252808e+03,2.465068567073062241e+03,-9.790905559122464741e-02,9.500858322462232275e-01,-2.962274939944565810e-01
9.898994045391943928e+02,1.282020209071563386e+03,2.287401426405543248e+01,-1.135543631276314108e-01,-4.526181626560367155e-01,-8.844445745486551047e-01
2.827303484301382923e+03,1.386486036201615661e+03,1.806089167564461604e+03,-6.946357330390114937e-01,5.364647389517768206e-02,-7.173585255811555372e-01
4.579303289048907004e+02,1.374080075497631924e+03,2.659554291892392484e+03,3.871887911729585130e-01,9.096515551241564079e-01,1.503957720490407823e-01
2.129869685609108728e+03,9.740683310794722729e+02,1.148381745438151256e+03,8.680891187138146947e-02,9.960075338024532154e-01,-2.081358759228680091e-02
2.656659322595941831e+03,2.060804846351123615e+03,1.903839347225349456e+03,9.887583094170186715e-02,-7.280300500119989415e-01,6.783773406704518560e-01
2.661241650097315983e+02,2.209921909225291074e+03,1.377883196245436181e+02,-1.363650331502269941e-01,6.946009986146390869e-01,-7.063526247261233681e-01
3.902634282679608759e+02,3.545288375688134579e+02,1.936255129701499527e+03,-8.662898758025064927e-01,2.994700875562384956e-01,-3.998243586140504124e-01
2.724344431176940361e+03,1.063486396757669581e+03,1.380769218676340188e+03,-3.865345873703671664e-01,-8.471243128962115954e-01,3.646524527087970924e-01
1.810928504194232346e+03,2.683637543285193260e+03,2.727554044398481437e+03,9.159515836369223063e-01,-3.350038687773520540e-01,-2.209187731661139409e-01
9.862513579471850562e+02,1.870189685353441519e+03,8.359149940489286337e+02,-1.274725878976461502e-01,8.012416876767031182e-01,5.846045648672831829e-01
6.934439127220042565e+02,3.262297777787321706e+02,1.254812396600846796e+03,-6.396196945835872505e-01,2.455529316760058367e-01,-7.284163672283302526e-01
9.578968711986693734e+02,1.152194462164830838e+03,2.015682897555925592e+03,-5.597959704717968554e-01,-3.254251961828606432e-01,-7.620544030007869729e-01
1.027436037747878572e+03,1.995357601418246304e+03,1.652314777783450154e+03,-4.904858255411497225e-01,6.321245238078884165e-01,-5.998685200474076495e-01
2.128337487264517222e+03,2.730081194295014939e+03,5.123883374940598969e+02,-9.680255325356426077e-01,1.027660925980560802e-01,2.288355273361488695e-01
1.590767126986662333e+03,3.629365463878360174e+02,1.617296640151546171e+03,8.564666621278141934e-01,-4.067846000417895680e-01,3.177910411457219308e-01
1.354396348997375526e+03,7.477782291915168571e+02,5.184884710898149933e+02,2.718363791234391924e-02,-7.137259488265292884e-01,6.998973637623742139e-01
5.786306885356066232e+02,1.369143037539060060e+03,1.854246355332969188e+03,6.690863072406624257e-01,3.810470993590893141e-01,-6.380647471323566133e-01
1.937324879193541619e+03,2.612164429871373159e+03,2.007177561673090167e+03,4.733212177324598244e-03,-1.548132287031909471e-01,-9.879324171829659829e-01
2.309264179701293642e+02,2.309137716328844363e+03,2.972995433742913519e+03,5.460596240503280407e-01,-7.374095063427182906e-01,-3.975501313512586066e-01
6.128434954970028912e+02,2.179173122109967409e+01,5.729195557085390647e+02,-2.450406222557582891e-01,9.149396296395494455e-01,3.206876479684788173e-01
3.747671377299388951e+01,9.123829657689667556e+02,7.210285790613972949e+02,-6.205247183750790541e-01,7.516308189101301718e-01,-2.236072135464681754e-01
6.621590063324624680e+02,6.556236641718668352e+02,2.347671228219494424e+02,3.967205432575897084e-01,-6.010010023087488662e-01,6.938375932315014039e-01
1.531639910289878799e+03,1.968101184001813664e+00,7.724665217314278607e+02,-3.038845026629743984e-01,-5.564437393463702586e-01,7.733204859458369107e-01
2.579300491919096316e+02,2.833692152785845337e+03,1.610286860733483763e+03,7.507850121988077774e-01,-2.561107731251923703e-01,6.088753052529329857e-01
2.946343047510993983e+03,2.644753945671390284e+03,2.014067896400547852e+03,3.090125179121565036e-01,7.481220677876081471e-01,-5.872177070412494260e-01
2.037748952698591211e+03,3.672120314659786686e+02,4.789891527692452655e+02,4.371255077898580366e-01,-1.671138580174074684e-01,-8.837387899702018323e-01
1.219617633149062613e+03,2.141663394332584630e+03,2.758704769766012305e+03,-3.978520314881962144e-02,8.220170596873920266e-01,-5.680713786077431493e-01
1.332034708205723291e+03,1.724476334793672095e+03,7.816021635125090370e+02,-3.730146494117067557e-01,-9.099361370787404368e-01,1.813182223674201232e-01
4.440880387440610093e+02,2.834863106000744665e+03,2.968511412398604079e+03,4.791570667706248066e-01,1.747295443425989914e-01,-8.601616660242414891e-01
2.818407719202229146e+03,1.139902942626297545e+03,6.864385401859832427e+02,3.143000959644477732e-02,3.031075156663848857e-01,9.524379184195259640e-01
3.351286122292236200e+02,1.896422907563728586e+03,4.348571286321003413e+02,-8.262918646279374668e-01,3.483640830779470843e-01,-4.425880930062935370e-01
1.787382200643207398e+03,4.327608695458421835e+02,2.561907678751924323e+03,-1.905774203969269331e-01,2.712649869678062098e-01,9.434487551956434181e-01
1.247632649660181187e+03,1.368168215795930564e+03,2.594424243015443153e+03,-7.191510643560863336e-01,-3.505375425002615342e-01,-5.999543132050852989e-01
1.545799642108116132e+03,7.528440307839529169e+02,1.579543598741742471e+03,-1.342054405348234170e-01,-1.604024337607588557e-01,-9.778854528903062615e-01
1.143592562731909311e+03,2.937284975374323949e+03,1.741282230565711416e+03,-4.772033301037908459e-01,-8.486296802844727205e-01,-2.282644244689173707e-01
2.605551298638276421e+03,5.989892350582942981e+02,6.703798049329249409e+01,-2.703533769809137247e-02,8.555684176356493920e-01,5.169833394413994032e-01
7.470507020294982112e+02,2.056520417652146534e+03,7.202494056398642215e+02,-6.520899955337030596e-01,-7.545231865934267645e-01,7.398242100496665863e-02
5.487084622166106556e+02,1.131699742070941284e+03,2.198117153482555295e+03,8.949824543598809967e-01,-4.079093028486279193e-01,1.806001302256173557e-01
1.459921914463756139e+03,1.429083776701134639e+03,5.857553961478664633e+02,3.125562988656738206e-01,9.257428932739079821e-04,9.498987856816574205e-01
4.834834857859361250e+02,1.416127743838656443e+03,1.913301829416159080e+03,-2.567444564543047356e-02,-1.331679030326127500e-01,-9.907608856039364920e-01
1.074109041403994070e+03,1.103555794205673948e+02,1.945448741197319578e+03,-7.731130175053020359e-01,3.905735111187627617e-01,4.997485313397211915e-01
3.755679780777677479e+02,5.704453505812554113e+02,2.982186074738775460e+03,-5.457482118558962814e-01,-8.309844153188860050e-01,-1.078136853707396536e-01
4.010988297159518083e+02,1.034041931217959927e+03,2.566020324072921994e+03,-6.916710203903942977e-01,-6.983512727287428667e-01,-1.841105630599610965e-01
1.387316316612628043e+03,2.278843277651027165e+03,2.016959006765282538e+03,4.005743492553057172e-01,-2.747545453563991491e-01,-8.740996113285297575e-01
9.271796303687567615e+02,2.637916440490427703e+03,1.178067810960250199e+03,-8.771933943177506743e-01,-3.754990611518956301e-01,2.992193243080201182e-01
8.487921118317324272e+02,6.216826482859585212e+02,2.922793888002138829e+03,3.046623831662198523e-02,-8.890268733844057802e-01,-4.568402639032406176e-01
1.875721133259640283e+03,4.786994477907668966e+02,3.363121398405097580e+02,6.413803956275488938e-01,-7.650233684895494379e-01,-5.805543703695726504e-02
2.044630951247332177e+03,1.179498451228848353e+03,8.006410982165990617e+02,-4.272017651484634193e-01,2.658367553569487285e-01,8.641929595613047077e-01
2.166660396928380408e+02,2.074541702142690269e+02,2.274191935064981863e+03,-3.289096326969918604e-01,-3.811846162852166597e-01,8.640120032885088008e-01
8.122796261144641221e+02,1.754852978457499262e+02,1.219419498227024178e+03,1.581784734832803688e-03,-2.250185640520842856e-01,-9.743531925277356676e-01
6.973608102399437030e+02,2.203456531931249174e+03,2.378428664519478559e+02,3.922501308802298081e-01,7.096234462180218694e-01,-5.852985557833718655e-01
1.734807101907393871e+03,2.226186948855396167e+03,1.214034123369261579e+03,4.043484181831510232e-02,-3.146291798171489407e-01,-9.483530475380548275e-01
2.512728399873381477e+03,7.931282282449712966e+02,1.653874058187353057e+03,-9.551720602613790190e-01,1.402993938318269629e-01,2.606960210407027745e-01
2.396681559145594747e+03,9.085491137673016055e+02,2.357807461370472083e+03,8.576626384243583034e-01,1.082796300081571989e-01,-5.026831212366942303e-01
5.617694892389790766e+02,2.144963195952044259e+02,2.595658252181102853e+03,-6.460062919526577963e-01,7.588782481356087795e-01,8.233878347538858833e-02
2.357248192458318954e+03,2.461601713720426687e+03,1.680207688088388068e+03,-7.235032315569440986e-02,9.209776675900692711e-01,3.828388257996080957e-01
8.787228377068328200e+02,2.062207437285981996e+03,8.088349339709798187e+02,-6.421517718756648563e-01,1.414339527467274420e-02,-7.664470407321360979e-01
3.651094394595457970e+02,1.474148838015157480e+03,2.638211681001203033e+03,5.377531100150264587e-01,-8.117201922157720739e-01,-2.278857657212425558e-01
6.777914130396941346e+02,1.320862687789084475e+03,2.018833017837771422e+03,8.756284579853721439e-01,-3.710443505929076347e-01,3.091939414982882717e-01
1.596240553936084325e+03,2.243745566008203696e+03,3.450361250440217873e+02,6.513192365752313862e-01,-3.862230944174955827e-01,-6.531576941333785413e-01
7.584198336131775875e+01,1.259857712561943799e+03,3.519881467224207086e+02,-7.920022421086531095e-01,-2.414563314874703659e-01,5.607417306385171774e-01
1.425512556341469406e+02,9.580330657011748485e+01,1.347939259923647114e+03,-9.016967218777109938e-01,-4.213139816169552687e-01,9.714705682138792542e-02
2.374551714892169912e+03,2.034051111707292421e+03,2.366820174081561618e+03,8.631052757214553450e-01,-9.312272858158530953e-02,-4.963642215584347372e-01
8.155782797189826852e+02,1.424603142593963412e+03,3.077660561815833944e+02,1.733973550004303532e-01,1.094765938316955289e-01,-9.787482989420031032e-01
2.052349182676691271e+03,1.166046591185367333e+03,8.416362859735038171e+01,2.087219224350421176e-01,-9.716527452268775011e-01,-1.110229786489855819e-01
2.614049365134486379e+03,1.414645803815135878e+03,9.637931587127530975e+02,-5.523125487045713738e-02,5.234941598553028985e-01,8.502372451750306315e-01
2.196122474377058097e+03,1.238592293104763712e+03,1.859649005803677483e+03,-3.888859252874772854e-01,7.719497840201317018e-01,-5.028531277267497268e-01
2.651071693474304539e+03,1.119275887737850326e+03,8.939186049661300615e+01,-1.717593636218328265e-02,-4.601312752993199084e-01,-8.876847394776502531e-01
2.353439216043007036e+03,1.973683897199454805e+03,2.933744733494967477e+03,-9.039294021115770184e-01,3.180523069470360120e-01,-2.859272040990072927e-01
1.266245090190166138e+03,7.171706908226651649e+02,2.003167908558256727e+01,5.875823291575691387e-01,-6.733024171207907527e-01,-4.487882145968928871e-01
1.395057041250968766e+01,2.363781953135888216e+03,4.683496456356728288e+01,-4.209610249379883706e-01,-3.661845702497398131e-02,9.063392875122806558e-01
1.612465775002558530e+03,1.906963416153775825e+03,1.596866385163192945e+03,-9.401375835375249020e-04,5.880209316328307428e-02,9.982692171858954522e-01
7.457471691041856729e+02,2.459947709043682607e+03,1.382656610215183491e+03,1.184459672765911381e-01,1.703378586698273689e-01,-9.782410575822764187e-01
2.328340773338694021e+02,1.930048478437757467e+03,5.919790833371420149e+02,9.804077151389879452e-01,5.807956913926969750e-02,1.882218790272423004e-01
9.777937803732272641e+02,2.630458854706751026e+02,2.950596587460895989e+03,6.788815310687682514e-01,-5.018574456323819932e-01,-5.359654569438834226e-01
2.875698332263360044e+03,2.731486856887552221e+03,2.635983360291756071e+03,9.635518777622080755e-01,-2.176535629642704639e-01,1.555464734086933476e-01
1.362576741644645836e+03,2.343379513214119925e+03,1.450535542822475691e+03,-1.574173298285928835e-02,-1.481154708153095412e-01,9.888447831423572421e-01
2.434186932461856031e+03,2.662385545695075052e+03,1.618251488650870215e+03,-1.886955349611329491e-01,-4.330457060175632589e-02,9.810803785881814232e-01
7.942735058987892671e+02,1.727405838529943139e+03,1.629600463262186850e+03,-2.829666829655828539e-02,7.710966445692819526e-01,6.360890372403135151e-01
1.043558977743304013e+03,2.384484938999829865e+03,2.413114483126945743e+03,-4.931620187194092897e-01,2.402414806299470740e-01,-8.361072026225631060e-01
1.777133423156943309e+03,2.938828361827628669e+03,1.458935368292126213e+03,3.179735429237169342e-01,-5.036041247767113482e-01,-8.032905523584985552e-01
1.638789681865911234e+03,1.649758572773411743e+03,2.312844716041468928e+03,-3.395018374444001008e-01,6.207167280823210342e-01,-7.067172318902759098e-01
2.405914715380660255e+03,2.255835314315618234e+03,2.272037757794966637e+03,-2.491485436821760657e-01,-2.643934607063258557e-01,9.316765002492997105e-01
1.892460040815719822e+02,5.797438888502548338e+01,2.552399869260555079e+03,8.050502617841258646e-01,-5.250830727816516719e-01,2.760105843613416265e-01
2.509137263572453776e+03,5.684752116145463674e+01,2.792047609471527267e+03,5.896262002032288674e-01,-1.417873071175081712e-01,7.951335130493917269e-01
1.903746543078641253e+03,6.784165578422595217e+02,6.623193674748061994e+02,9.847842295575549576e-01,-8.244883329955562945e-02,1.529778124509404424e-01
3.633703118601587789e+02,2.133370312923772417e+03,2.252387702083892407e+02,1.313890644429397403e-01,-1.569846135470814585e-01,-9.788221211508669750e-01
1.212523921195811170e+02,1.749179921347773870e+03,1.153835781973923304e+03,7.879077559833653349e-03,5.584874106026228580e-01,-8.294755766960130172e-01
2.089357645409084512e+02,1.182940713096987565e+03,3.748155447573536776e+02,2.121690063619502756e-02,2.448950675677606659e-01,9.693174139611728801e-01
6.339935580399367154e+02,1.631652168083961897e+03,2.766805253035733131e+03,-4.937889334577767048e-02,-9.981777497953626677e-01,-3.468291662205947451e-02
8.471677549191665548e+02,2.957977952605027667e+02,2.909696501797656310e+03,6.799129407845431183e-01,-6.918679447555871054e-01,-2.429755954275951979e-01
2.034637534502147219e+03,1.371800005386253588e+03,9.817369709328572753e+02,1.025959702709545035e-01,-9.933303633778540753e-01,-5.261992090246736531e-02
5.495607958858349775e+02,2.634696901376551978e+03,1.630304774809358605e+03,-4.953637066711465142e-02,-5.100053340226653464e-01,-8.587436795980276649e-01
7.351926541696639106e+02,2.657502837849209754e+03,2.361708200445350485e+02,-9.201162182876418960e-01,3.886763842617315112e-01,-4.813328537795303480e-02
1.764889786449218434e+02,4.307335629746063432e+02,2.478748444083281356e+03,9.288057626598297811e-02,7.472355012736621171e-01,-6.580367042869248451e-01
8.174069086654968714e+02,6.050077690298807056e+02,9.992343115464356060e+02,-8.560158057641564788e-01,-3.943608667949879409e-01,3.342401038514792866e-01
7.930109779569794455e+02,1.746941330529936295e+03,1.775876258988363361e+03,6.262717281601414276e-01,6.223791612599489653e-01,4.694974996064116834e-01
1.944966432457484416e+03,1.604032764958640882e+03,2.726004783668763139e+03,3.226696441568898122e-01,1.132639258185243053e-01,-9.397103723210902260e-01
2.174800867447351038e+02,2.233683234364269538e+03,1.120501804139945818e+02,-1.818241190213215619e-02,-6.140309790145028757e-01,-7.890724660688094305e-01
2.102400395464751000e+03,3.142206929218423852e+02,2.524876619981162548e+03,6.770103535706654130e-01,1.097434434865706965e-01,-7.277453935064327473e-01
2.325180787427632822e+03,1.045271004413516039e+03,2.550864394782948239e+03,-2.413661426487397621e-01,-9.137742128891436222e-01,3.267400695379958364e-01
1.768171739420989752e+03,4.913867837531076361e+02,2.662496682638913626e+03,-9.169186939989178997e-01,3.704233216891527625e-01,-1.484812154587009658e-01
2.665181587529468743e+03,2.232134421408133676e+03,1.324043354811485642e+03,-1.767202889342295580e-01,9.813807432498926620e-01,-7.524477561459465280e-02
2.819053827447375170e+03,2.988683424829319506e+02,8.115775158374724469e+02,-3.940391367539671230e-01,-2.095055133381155676e-01,8.948969765213876659e-01
1.878912333093662028e+03,1.891216988397177374e+03,8.287304176768883508e+02,5.667703283415628096e-02,9.198096906970151254e-01,3.882497222780426638e-01
1.869400374211055293e+02,6.950295543906098601e+02,6.654277797667133427e+02,-8.573232254822534815e-01,-4.735557081281815961e-01,2.018461749648028380e-01
4.422307005269266256e+01,1.952871031461999110e+03,2.330576185093553704e+03,-7.887078587316133094e-01,5.185695438927888645e-01,3.301901599409325372e-01
1.919753067237952791e+03,1.745690711363162677e+02,1.915176083657648405e+03,1.221422538886315773e-01,-4.484989116196829162e-01,8.853982132865216848e-01
2.726641793067116851e+03,1.206421846767732177e+03,2.856947296334685689e+03,-4.467439724870922446e-01,6.371304826453334513e-01,-6.280800674520540250e-01
1.236055570188554611e+03,9.435720855319563043e+02,1.645842791504853494e+03,6.805981869706766441e-01,5.341018428056794054e-01,-5.015190219760414791e-01
1.608583748876579193e+03,1.948815016229013736e+03,1.407783580867062710e+03,3.079357747555164573e-02,9.994815178630909180e-01,-9.404841112380376428e-03
2.639323716302139474e+03,1.478144261497210891e+03,1.685031458156688814e+03,5.552393834891633517e-01,-5.823371535859491743e-01,5.937951385587358910e-01
2.522491179428458508e+03,6.569095083461027116e+02,1.611569878520605926e+03,-9.850125220475137999e-02,3.290074129953794446e-01,9.391760354205082040e-01
9.653378377232903631e+02,2.180155739152725118e+02,2.923022939933342059e+03,-4.596052862892362374e-03,-7.265373916652176911e-01,6.871115592175578435e-01
1.625219734068917887e+02,4.176413455959272483e+02,2.735332515638104724e+03,2.648457261911688621e-01,-6.041519750912764941e-01,7.515697787375315020e-01
1.080567879576547966e+03,2.876291836974573471e+03,2.728322401053311751e+03,1.874270952110056732e-01,1.783834011635826999e-01,-9.659453639673813985e-01
2.071575843889641874e+03,1.394515688420138986e+03,5.462004016048082349e+02,2.732666656478995870e-01,9.486330011583821165e-01,-1.594388865958369372e-01
2.221960747765908764e+02,4.754086558423209681e+02,2.480157902276184359e+03,-6.389921071655713103e-01,3.940525619986621764e-01,6.606146118293128033e-01
4.906181467075178944e+02,2.091511846575240725e+03,1.002400170165521558e+03,6.772304131079173173e-01,-3.766377554119269555e-01,-6.320624721971280779e-01
1.822255053937062996e+02,2.631818415801920764e+03,2.902825506378908358e+03,9.912313118571490778e-01,-8.814823358822800048e-02,-9.843970392697511118e-02
9.428980917901657222e+02,1.652091110580489612e+03,1.144056420752185886e+03,4.344940885478106862e-01,1.814774710605805974e-01,8.822022526124400077e-01
2.914294954977630368e+03,7.737424604255126042e+02,1.122306974791344828e+03,9.598393468512486093e-01,2.354348816571054936e-01,1.525740631145193760e-01
5.765995519738612529e+02,2.750997204437686833e+03,7.402151625203363210e+02,1.581884747687636594e-01,9.720669564277548691e-01,-1.733846552368849547e-01
1.131908112216476184e+03,7.175254365574536450e+02,2.531764030941754299e+03,-8.994595570732699663e-01,1.619432904815113483e-01,4.058902263637027552e-01
2.616879305321142056e+03,1.258151445521595633e+03,1.396190197453342762e+03,3.963814441346151241e-01,-6.807411739196699285e-01,-6.160139648386444566e-01
1.970693236822556401e+03,1.256451689387647548e+03,5.813215013243655704e+01,9.092372165374082993e-01,1.187667638979805901e-01,-3.989763650349571478e-01
2.516158473198758202e+03,1.264651163320443857e+03,7.462569005766551982e+02,4.410862368327248539e-01,-8.808291656705089512e-01,-1.719968388690344963e-01
1.466333481265416822e+03,5.805179095423967510e+02,1.808079882917301688e+02,8.174780547416441445e-01,7.459350782804145819e-02,5.711089551090275940e-01
1.636508332441750554e+03,5.186511981790251866e+02,2.698369963065430966e+03,4.068221584223040144e-01,8.950635640318154174e-01,-1.826388451542613478e-01
1.918346074577080799e+03,1.166014279206004176e+03,9.440508972701312018e+01,7.266524292855708334e-02,9.435052116209329265e-01,3.232919394514384703e-01
2.462811420946807630e+03,1.512724226329657995e+03,1.343789268918795642e+03,-8.458122406909581725e-01,1.575544013695153456e-01,5.096844750494509135e-01
1.218721776265753988e+03,2.662566825479253112e+03,1.696696917610806850e+03,4.773678272492093977e-01,-3.522206236024461035e-01,8.050221051725678922e-01
2.290642302588078564e+03,1.789368168155897592e+03,2.311223571801680521e+02,5.103223284159343065e-02,-6.406214041903049439e-02,-9.966402326698104996e-01
2.949201834979231990e+03,1.790165311102389751e+03,1.995172744031632647e+03,-7.725874968607724172e-03,3.926672402903578531e-03,-9.999624453447288897e-01
1.246644264520637080e+03,2.599393740002699360e+03,1.708327088765761346e+03,4.878523587725732552e-02,8.753551616857406792e-01,4.810128290082616997e-01
6.619185078553692847e+02,8.846793953018694765e+02,1.206533195498244595e+03,6.942268880536007769e-01,-4.770275986154876580e-01,5.389746729323694474e-01
2.980254444335955668e+03,1.474386072211083956e+03,3.952320541711411579e+02,-9.579384216256786599e-01,2.553889617912992183e-01,1.308833777393674513e-01
1.732872876086444194e+03,2.794713489211267643e+03,1.417891854109473343e+03,-4.006212330971499758e-01,-7.390384698696225163e-01,-5.415946525257485655e-01
2.745573136537111168e+03,1.431136825582621668e+03,2.353663464123474114e+03,-4.746935144145320029e-02,-4.296962678411463954e-01,-9.017248904611192550e-01
6.531536197427445813e+02,2.583925170213534784e+03,3.717754309313024805e+02,-6.237997866682483128e-01,6.650556928421532676e-01,-4.105785571250541999e-01
1.382847287928352671e+03,8.717818790973128671e+02,1.723649175248203619e+03,-1.272835019317808229e-02,1.302571158589139744e-01,-9.913985439113159881e-01
1.705882163474940967e+02,2.185079106879277788e+03,1.414852206425073746e+03,-4.619845420039105921e-01,6.301260217739367286e-01,-6.241085479568352357e-01
1.726847517777374605e+02,2.388800121809337270e+03,5.015048960612345041e+01,-5.955951879046710307e-01,-7.944593941949098514e-01,-1.187461288642985974e-01
2.140908823889740233e+03,2.240021575903642315e+03,1.004179972407606670e+03,-2.942332352426876851e-01,7.087608983621849212e-01,6.411589445928753683e-01
4.031614367408229214e+02,7.477342528570389959e+02,1.886971783181869569e+03,6.984530216791109969e-02,-4.096835196214642094e-01,9.095499148016246149e-01
2.091358186732136801e+03,2.349720118439372527e+03,2.383716580711350161e+03,1.323022803046967899e-01,-7.303477344698733331e-01,-6.701405027163339634e-01
8.725953548369632244e+02,2.593741709067272950e+03,2.816795710611462255e+03,5.507502665687551424e-01,-8.244457893541521365e-01,-1.302431736815963248e-01
2.660913770720178036e+03,9.051671228880583158e+02,1.026981184139376182e+03,-5.908516749618711872e-01,3.765307244331087544e-01,7.135256910249481166e-01
1.698368957580789811e+03,6.820676154797159825e+02,1.558039733456336080e+03,4.054883620168791522e-05,-6.713929134866722936e-01,-7.411015814823698200e-01
7.502093554708792453e+02,9.924673177778466879e+02,8.631791509021173852e+02,7.881277292801126821e-02,9.647730046689194650e-01,-2.510011878169162713e-01
8.055160853804741237e+02,1.831262468543485738e+03,7.817212588629521406e+02,-7.924344396327275275e-01,-3.750299693775851484e-01,4.810407269167680244e-01
2.013746766017204664e+03,1.316761976628477214e+03,5.763424241039609797e+02,1.668173514986115089e-02,9.387703035874690460e-01,-3.441395600838141888e-01
1.449686990607712687e+03,1.661537522203680965e+03,2.793763888984839468e+03,5.386334174359060922e-01,2.232591142695961733e-02,8.422443797973795387e-01
1.199364634533266326e+03,1.608768371982454710e+03,1.948800187443628374e+03,6.247234477489319038e-02,-8.902099598019640458e-01,-4.512465330700197175e-01
7.076561532311692417e+02,2.284451000097717952e+03,1.071345692246278304e+03,-2.792267705120076715e-01,-6.628008572580158797e-02,9.579349460509387626e-01
1.727237400747977517e+03,1.379654045631961935e+03,2.707423329315090541e+02,-9.525149836672293369e-02,-8.673422283818851275e-01,-4.885126517547320191e-01
2.723249515961329507e+03,2.591814881737763699e+03,2.482795290919221770e+03,6.961385960182633892e-02,-9.523566609958933338e-01,2.969355162456830954e-01
5.148972141431057707e+02,1.540534195049802520e+03,2.857715226252599223e+03,2.592184588854954397e-01,-8.586063365864604613e-01,-4.422679610220557334e-01
7.653654942264774945e+02,2.052317120377397714e+03,2.314217982253308037e+03,-1.964763690942723795e-01,-1.138764572003749531e-01,-9.738732920062149745e-01
1.167021897249438780e+03,2.355953190513702339e+03,1.067762188025745218e+03,-8.955232943989287486e-01,4.362157000532091433e-01,8.805618783469106037e-02
1.456852655721508427e+03,4.685431269518993531e+02,2.410376652812802604e+03,-9.033157128824917947e-01,-9.281463855571282784e-02,-4.188151928110634969e-01
2.577850053328940248e+03,2.495061096257630652e+03,2.851859361639892086e+03,7.296999163031007152e-01,-6.275676134222712976e-01,-2.714717715172656476e-01
1.521339778141323677e+03,1.521952406428339600e+03,1.605040932057967439e+03,1.249852883686487781e-02,-9.983627743442597957e-01,5.581717997665748554e-02
1.081198512627898026e+03,2.716915478160156908e+03,2.324267837673985014e+03,6.960738469166651010e-02,7.643983270508294403e-01,6.409758260638849237e-01
1.773099544990403274e+03,1.943640329749298644e+03,1.079787178396604077e+03,7.342700009092190117e-01,-6.645023309804575229e-01,-1.388676272077618012e-01
2.073670729004710665e+03,1.389276555075572787e+03,1.173987654537342678e+03,-9.615229852551057110e-01,2.657994351569080704e-01,6.945652666508994599e-02
3.378743297793785700e+02,2.058168443435094105e+03,2.322144724683204913e+03,-8.705142501772732411e-01,4.346011440512012047e-01,2.309259314751961611e-01
2.256964423972267923e+03,2.631769787270323832e+03,1.166454155908751318e+03,1.483456298658183958e-01,7.826456404207136064e-01,-6.045323611107720208e-01
1.592192393206635643e+03,2.246017297768527897e+03,2.156631134330496593e+02,-3.875724765278854567e-01,-8.929305571529212449e-01,-2.290471469820472283e-01
1.127462980578376346e+03,8.892156105874859406e+01,4.262015168815120774e+02,1.076337877929017112e-01,4.085915145616270117e-02,-9.933506417512574238e-01
1.222051463653263454e+03,1.865040363569021565e+03,1.130692420311561136e+03,8.256497623231934258e-01,-4.668184357974127785e-01,3.168327918245066321e-01
5.391053424513052050e+02,2.464354004125552819e+03,6.746017009153168829e+02,-1.222338440274341048e-01,2.044734452297142790e-01,-9.712103261241449292e-01
9.762712843965346110e+02,2.970120535820881742e+03,1.516703764178192387e+03,-1.839470646074773397e-01,4.850151849999632114e-01,-8.549407861026072641e-01
1.644955671974659708e+03,2.475184629500778328e+02,2.849512383661842705e+03,9.499233500301451638e-01,-2.620327845409713419e-01,-1.702481979147250080e-01
3.317527601639990280e+02,1.424401200679040585e+03,4.386825404827047237e+02,-7.673645589350561735e-01,3.823573910051891178e-01,-5.147372720467321416e-01
1.677472680048255143e+03,1.652839323807140318e+03,1.558127809736918152e+03,6.684653399554715270e-01,-2.329601583048767910e-01,7.063169642028873652e-01
1.435311724119486144e+03,5.806527452038120600e+02,1.377343475102724710e+02,8.195699838316420349e-01,7.420747843821295930e-02,5.681534051170019639e-01
2.537325243532971854e+03,9.684401123453352511e+02,2.516411576644388788e+03,-3.469870175062538808e-01,-3.083264315753615481e-01,-8.857397028891267343e-01
1.646256130806961210e+03,5.758433770399182094e+02,6.937055341283414691e+02,2.179627235034360122e-01,-7.070154419620887642e-01,6.727714440953309616e-01
5.706471479457572968e+02,1.279849895061932784e+03,2.009268254860542129e+03,5.059587876538960971e-02,9.778527624486785808e-01,2.030862674418097702e-01
2.599171732729161249e+03,1.157310809494583282e+03,1.691614661582732424e+03,7.499620251245099345e-01,-7.071076232246595317e-02,-6.576906179678404518e-01
1.327039209064134184e+03,1.587972581188178310e+03,1.619734706921659381e+03,-2.837461677801109694e-01,-7.839341513440073461e-01,5.522095242085671707e-01
1.454771282541626761e+03,1.468439234783629900e+03,1.549852335356656795e+03,7.837443324903703434e-01,1.914042536679988193e-01,5.908546631507788360e-01
1.259192532990395875e+03,1.980601118211646735e+03,2.964103329808974649e+03,9.682017430025153804e-01,-9.401908422146575128e-02,-2.318313970303594040e-01
1.391262154573963016e+03,1.246302023480172465e+03,1.738018381651158052e+03,-7.361068039115284956e-01,6.616031017301396977e-01,-1.429269359365579195e-01
5.515327502981390353e+02,2.782239906808708383e+03,2.136777020515762160e+03,-5.663990727660269536e-02,-6.190407908702494355e-01,7.833137431083626590e-01
1.782653500928282483e+03,6.182507633644768248e+02,1.824336168866451771e+03,-5.616749224343817737e-01,4.329952317770042192e-01,7.050080926958993688e-01
2.913380937584630828e+03,1.166096596235459174e+03,1.824204488428513059e+03,2.478641173090924965e-01,-8.908570287266042165e-01,-3.807060988728583339e-01
2.539478260936862625e+03,1.608539524625419290e+03,2.547977582852074647e+02,1.142315614750582034e-02,9.328668332808980335e-01,-3.600402517331904306e-01
2.490259377422658417e+03,2.896129755369192480e+03,2.695507121611509774e+03,-6.672666202147783387e-01,7.437516318943974136e-01,-3.985934773133803510e-02
