x,y,z,nx,ny,nz
2.125625295459749964e+02,7.669698141722184346e+02,1.063648546473255692e+03,3.358681007305202582e-01,-9.005145225360864369e-01,2.761633821006641565e-01
8.966156135670331651e+02,1.502594274241847359e+02,2.598532423629939331e+03,3.124145456241387842e-01,-7.624200450732205869e-01,-5.666681802898513309e-01
1.036479503225807093e+03,6.715023884523252491e+02,3.792872797178266069e+02,1.300366982637018165e-01,-7.901101129621850294e-01,-5.990129101276185919e-01
1.521726690665869000e+03,2.057001896588581076e+03,1.520896859653932324e+03,-2.442500816063605806e-01,4.516902335636922790e-05,-9.697122746438994190e-01
5.598862543705113239e+02,5.645372598318630253e+02,2.517884145603432842e+02,-6.707928972909039667e-01,-4.239403618849676980e-02,7.404320594353835938e-01
2.707539712558630981e+03,1.458775406959029624e+03,5.144839356045763452e+02,4.270576807872710212e-01,2.432896412066816172e-01,-8.708799502584276819e-01
1.109129650319026041e+03,2.516070715358720918e+03,2.327643272649508162e+03,-6.401477906845920440e-01,7.605011701448071149e-01,1.088520844541567278e-01
2.489832938627660042e+03,2.309851451944160544e+03,5.221110262671493274e+02,1.276179083678865289e-01,-3.526822490488119161e-02,-9.911961570626999229e-01
1.466133756680314264e+03,1.368064559077645299e+03,1.590536339006094522e+03,-1.191598070353391409e-01,-9.739588622712758159e-01,-1.928861710712891087e-01
2.698976290501175754e+03,2.430217922672594341e+03,1.227414100561054056e+03,-8.862072162924037322e-01,-1.653333450750809341e-01,-4.327836119789576497e-01
2.845009051015036221e+03,1.332613287108035138e+03,2.232995941305647193e+03,-1.192959246413154151e-01,-7.190398715386563389e-01,6.846533031408278402e-01
1.190942413696786133e+02,8.435063466142478319e+02,1.100863412089498297e+03,-6.626363193852871092e-01,-7.147468583163651967e-01,-2.237186553651833165e-01
6.245350573136151979e+02,2.960414943138715898e+03,1.901668380847110711e+03,3.577422453893828579e-03,7.210882634776160094e-01,-6.928339760169260897e-01
2.225919724783002493e+03,7.960346778628531865e+02,2.741010775692978314e+03,-9.717521200378418378e-01,1.347988028795068516e-01,-1.937191264284759129e-01
2.427310458895476586e+03,2.746262182266385480e+03,2.491007979773430634e+03,-6.534338225373929054e-01,5.357210695258035615e-01,5.348150850810962087e-01
7.056263041092769583e+01,1.616827720082608494e+03,2.402538056158723975e+03,-5.724700361629241341e-01,4.860060052417685683e-01,-6.603606746048391596e-01
1.982493687353106907e+03,2.201269080614527525e+02,1.547989113383141273e+02,-7.383126534450163980e-01,-1.805862910138049116e-01,-6.498330687652456028e-01
2.901552422287604259e+03,1.569901402167263313e+03,2.668991372542077897e+03,7.720211630574156381e-01,1.022639698171089045e-01,-6.273160322108153331e-01
1.233106055337661473e+03,2.270914458931702029e+03,1.294581976097390452e+02,8.326755826506433700e-02,9.393166123842595638e-01,3.327924509954104937e-01
1.310722697065090415e+03,1.761065257957735184e+03,8.230165990100784938e+02,-4.370073989040822865e-02,-9.493544229261674516e-01,-3.111533785829016518e-01
2.507039001346852729e+03,4.113152454570850978e+02,2.030680497660772971e+03,-8.990635718967607826e-01,9.955092371923864990e-04,4.378169739167233065e-01
2.265149429185650661e+03,1.642038192736376459e+03,5.501564834430574820e+02,9.109487024778459840e-01,3.002760358255628925e-01,-2.828546689782831525e-01
3.190539036613133703e+02,1.952341973768794787e+03,2.000529480215764124e+03,5.809767158490714706e-02,6.253531816586197500e-01,-7.781761103669615487e-01
1.391050861085485622e+03,7.653029791036127563e+02,2.960058610177272385e+03,2.003119964890331672e-01,8.930474367479876996e-01,4.029160952114306249e-01
7.709948871589249393e+02,1.853955720368651328e+03,3.083049098820110885e+02,4.219520396977679416e-02,-4.506825215136386897e-01,-8.916865085690471870e-01
1.326413524827716628e+03,1.487558321561126604e+03,1.542057976206375315e+03,1.692763264653621147e-01,2.961079804115089309e-01,9.400348872435584369e-01
2.267378204520209692e+03,1.176662997492670456e+03,7.864190368142676562e+02,-1.644322532256094552e-02,-5.006738735471201185e-01,-8.654798048991749759e-01
1.290387223980513681e+03,9.058076227970600485e+02,1.006735716625330042e+03,-2.170022262097427435e-01,-3.563304185236003119e-01,9.088116783221986683e-01
1.486675833479103630e+03,1.081133025274749116e+03,4.310746449105050146e+02,-1.553548163562144535e-01,-3.132847634870790099e-01,9.368658057597000210e-01
2.746506809521648393e+03,1.098518521276218053e+03,1.513608993639591972e+03,-2.563582624139467137e-01,5.877988838517164139e-01,-7.673153937168069039e-01
1.441920589242070264e+03,2.782207133906970284e+03,2.456709013905344818e+03,4.588972008672300151e-01,-8.044384292730353270e-01,-3.772163471337808827e-01
2.098134774141953585e+03,7.973528168033286647e+02,5.007487820833482601e+02,7.273014773902910513e-01,-3.255400716299672870e-01,-6.041988271662364074e-01
1.207649441924515486e+03,2.380302550378611386e+02,1.765855837526662754e+03,-7.849760538945700361e-01,-1.949688640296046160e-01,-5.880473933885896898e-01
1.261556347159094685e+03,7.999684755990994063e+02,4.750036763136990885e+02,7.004818167334142531e-01,3.276548113998072886e-01,-6.340091079727578904e-01
3.000000000000000000e+03,2.007226978951900946e+03,6.089939104914714108e+02,-1.179298192640078216e-03,8.626312092014540855e-01,-5.058319940132398607e-01
1.741944170535080957e+03,4.162074110992491001e+02,1.177245199607547647e+03,-9.203661382842166505e-01,-1.347562578272714917e-01,-3.671061460615827610e-01
2.105474885254324818e+03,1.072412702595047676e+03,1.651197425580028835e+02,2.822033944866433886e-02,-3.188040797758340816e-01,9.474004280976897618e-01
2.503110683408589011e+03,4.383036430887336792e+02,4.267828160755408931e+02,-1.533020878212642060e-02,4.156167985355745387e-01,-9.094106121404874621e-01
4.367253615724573592e+02,2.862856877372722010e+03,1.427884394524058507e+03,-6.489466078164315421e-01,-3.544385488312716825e-01,6.732322149941496470e-01
1.161170121875945370e+03,1.985836860890098706e+03,1.242111653167573650e+03,-9.305785704371713485e-02,7.584365894281358544e-01,6.450691242487494037e-01
1.701024742528509250e+03,4.901411704137611309e+02,5.493501995422202526e+02,8.878082049380975685e-03,-8.256696336803540093e-02,9.965459729582504256e-01
1.245054032106316981e+03,1.531115094748081447e+03,8.493582306064511158e+02,1.230221061572196045e-01,9.024079865788897648e-01,-4.129471965703073177e-01
5.173466128053528337e+02,2.599117061655666021e+03,2.280280435416413638e+03,-1.824203834473129004e-01,-1.812422711345155202e-01,9.663715863253317107e-01
1.494935052066782418e+03,2.720397018756253146e+03,1.840752995808765263e+03,2.816367058900229661e-02,7.722694143085815366e-01,6.346705912380332659e-01
2.899313994190877565e+03,1.477534197196071773e+03,2.656806741684426015e+03,-4.076375068281772318e-01,9.041428219185209114e-01,1.278961320764693543e-01
1.395798465820837009e+03,4.534337348322679873e+02,2.340985576218915412e+03,6.886677452484703255e-02,-9.850083408346144154e-02,9.927512040040074037e-01
2.349970145868067448e+03,2.391335907746400153e+03,7.076603484733046123e+00,5.666715208592782993e-01,1.091399468583625354e-01,8.166834511894962567e-01
1.918856672208115924e+03,4.215078197047289450e+02,2.277122836167526202e+03,-3.447989768712688557e-02,-2.280334345357838965e-01,9.730425938206916925e-01
8.377351401784767404e+02,2.365152410750371018e+03,1.818915175138285122e+03,-1.580419745536389975e-01,9.871919275517316850e-01,-2.179065065305585414e-02
9.863230797596670527e+02,1.109041749190827886e+03,9.060569506040087617e+02,2.621967459955218960e-01,7.801208065820296467e-01,5.680355565694485964e-01
1.543467460437731461e+03,1.333958479734241337e+03,1.344793368886876124e+03,-3.930178575194014923e-01,8.971439262534990078e-02,-9.151438637868496428e-01
8.985601792447240541e+02,2.345928345455443377e+03,1.814498391291117287e+03,-3.806595936111334399e-01,9.244900454323240480e-01,-2.040660893794417688e-02
2.006961586531656167e+03,1.390297432722245958e+03,1.893486779290217783e+03,9.739264220366736780e-01,1.850335404786832838e-01,1.312627645479345073e-01
2.135732174343621409e+03,1.560319315406443593e+03,2.381482436406683973e+03,6.974615105341739341e-01,2.428736856374960895e-01,-6.742105117455876595e-01
1.784168211381904257e+03,1.853482876532143337e+03,2.383056189634647581e+03,7.845183279268351795e-01,-3.436028057169297489e-01,-5.162054872338501799e-01
2.803312481911922532e+03,1.321064623148984765e+03,2.192385884365533002e+03,-1.488383425922761710e-02,5.944794289687120870e-01,8.039730592568246070e-01
1.510698640035748213e+03,1.451036733599239369e+03,2.020770454867390981e+03,1.367816046576564304e-01,8.755837065677188891e-01,-4.632968437410420748e-01
1.687376545990533032e+03,9.093868721599797027e+02,1.529642042217403741e+03,8.965956289325146544e-01,-2.563848658482647536e-01,3.610859714016534383e-01
1.459967066195465577e+02,1.155726818253560396e+03,8.126344509427789262e+02,9.430183057939121039e-01,-1.255384589008016194e-01,-3.081502397766249235e-01
1.557624565272743894e+03,4.523378890100055969e+02,9.734546391407722012e+02,-3.894046612389565065e-01,4.105844490214314302e-01,8.244904002031443468e-01
1.351255656750774506e+03,1.898448912500202823e+03,1.074121357763288643e+03,1.176900961398237716e-01,-1.896228693919716976e-02,9.928693131246602022e-01
2.995302769315399473e+03,2.051102618492821421e+03,7.202009791908030820e+02,-9.387329452105701577e-01,2.110485998064599023e-01,-2.724682478675664044e-01
7.120495034382051927e+02,1.692037670330875926e+03,1.324679740114675951e+03,3.109061571981370231e-01,8.795090843960494675e-01,3.602792415351045996e-01
3.470551293102219859e+01,2.873440922490959565e+03,2.068419738115153905e+03,-3.173202292021713444e-01,3.260811389048525744e-01,-8.904936625207366951e-01
2.677685423407151575e+03,1.584055949174485022e+03,1.280654887714956658e+03,-8.691403092884184556e-01,4.143490108924283155e-01,2.700185548115139333e-01
1.444469005322901921e+03,1.495842408070651345e+03,2.438355951620488213e+03,-9.769959215684183018e-01,-1.653977610393019548e-01,1.346200203605063539e-01
1.243404244187224549e+03,1.685248346674819231e+03,2.722830737785730889e+03,8.965455866303766452e-01,2.104083728335697512e-01,-3.897875417905545259e-01
2.070528599054626739e+03,1.089263485041047716e+03,2.135032114899888256e+03,9.897334435449396395e-01,-1.392527482241658343e-01,-3.219290047033429580e-02
1.420081042583869021e+03,3.572861618648142326e+02,1.334006430112675844e+03,-1.000285381466305273e-01,-6.546896950125894454e-01,-7.492500882886639069e-01
1.053946723660961425e+03,9.361016591637052215e+02,1.225320978368779379e+03,-2.643151783616143891e-01,9.576001935655047426e-01,1.146270289721227492e-01
1.652830854909449272e+03,5.641520540410733702e+02,2.814760562831241259e+03,-1.934745992810665838e-01,9.693094690075826358e-01,1.516797043947175627e-01
1.500377694301828114e+03,2.477241778180024994e+03,2.507356211162233706e+02,5.969117055902234403e-01,-1.520481366308775173e-01,-7.877675925528089262e-01
1.654937717101615590e+03,1.615164114993968724e+03,1.179433481078293880e+03,4.550620767794157362e-01,-3.139568449653103999e-01,8.332764281897293568e-01
2.647419172279991017e+03,2.706708481178743568e+03,9.073573374178489814e+01,-9.498219249486380411e-01,2.826820688816323313e-01,1.338998088858376345e-01
2.708195727112522491e+02,2.165934870252615951e+02,2.443265960311238814e+03,6.577215351554664968e-01,-7.494248693159448749e-01,-7.592593393245428146e-02
5.574097155514763244e+02,2.043907267810697249e+03,1.439547671714986109e+03,3.425593365975875271e-01,8.813024426635129860e-01,3.255136025808232358e-01
2.799255864343874237e+03,5.539719353187786055e+02,1.648422971024202752e+03,-2.336137976719095677e-01,6.582798805321017355e-01,7.156061713148861303e-01
1.952737550610181415e+03,1.673608837175010194e+03,1.179176765066602002e+03,2.241911559659445774e-01,-8.223945922198693248e-01,-5.228818798487556707e-01
2.552161664304229816e+03,1.404641324772680264e+03,8.460897760059680195e+02,3.804942103628378702e-01,5.215612021147552069e-01,-7.636740589603472351e-01
2.913003167736594150e+03,6.053000533681724846e+02,2.476632421053981489e+03,5.986831813318350959e-02,-8.893871805013174869e-01,4.532176382752781674e-01
2.076857547854847326e+03,2.834910475511324421e+03,7.431044245011092926e+02,5.122134984073233310e-01,-5.727657644562632600e-01,6.399818053008722307e-01
1.010810335406019590e+03,1.508259252700366233e+03,2.265184674222011836e+03,-9.881474359939810270e-01,5.798977585627463488e-02,-1.421331440398767576e-01
4.875147729751261068e+02,1.080018975944831482e+03,1.422785634233476458e+03,-1.182282508592474995e-01,3.156736679251335720e-01,9.414734282375978314e-01
1.007635890970688024e+03,6.931706635538073442e+02,6.809672706832617450e+02,-8.070158596305969656e-01,-5.905023116634353642e-01,-5.694051705739999747e-03
2.369420270751390490e+03,5.748113809232047515e+02,1.485014391928487157e+03,5.639800349627096532e-01,-4.555231407680290223e-01,-6.887852991958316462e-01
1.066090432458104033e+03,5.769204367137003828e+02,2.427741044091550975e+03,-7.817827760563655914e-01,6.229319283771473925e-01,-2.777595488783890856e-02
5.525318910381223532e+02,9.776232658474425534e+02,1.632635477063914550e+03,5.370193640844280747e-01,6.228946652822152652e-01,5.688694389412332075e-01
2.758306996750657618e+03,1.461117051323607484e+03,4.977793259781477673e+02,-4.161413830010228798e-01,-2.446552600869412453e-01,8.757683215701439483e-01
2.812350498685146249e+03,8.482944051013024591e+02,1.999453304564111704e+03,5.488354285474775773e-01,4.007263634858010404e-01,7.336198293248024083e-01
2.170912044300163416e+03,2.756128857934670577e+03,3.112647484400372377e+02,-8.169333703905822253e-01,-4.844503989778687347e-01,3.129339854865043624e-01
1.684221972634834401e+03,2.819649215638536589e+03,2.631949799390385124e+03,-7.853179396950891178e-01,5.748208846969077301e-01,-2.299058157361939525e-01
2.702532095866914005e+03,8.786859725060157871e+02,2.949140797141758412e+03,1.854182754951041179e-01,-9.375414524602589117e-03,-9.826149625946642985e-01
6.894905301595917990e+02,1.953370460261122332e+02,2.364000534780600901e+03,-8.613463567938163257e-01,-4.918516610942186840e-01,-1.271392823515904436e-01
2.615010378155712260e+03,1.872440383569537744e+03,2.459285399050957949e+03,2.208956593922758171e-01,-9.204887218997094278e-01,-3.223439475422038569e-01
2.863667935001490150e+03,2.090142203486292658e+02,1.771687903822541330e+03,-2.550648214911536704e-01,8.267979892096741779e-01,-5.013452122804460398e-01
1.191602521802349628e+02,1.037956603157855398e+03,7.719520076061531881e+02,3.717023496397311999e-01,-7.285601204868197289e-01,5.753585961020605266e-01
1.963427887968046889e+03,1.281386951676557374e+03,4.661937099952638732e+02,-5.600519400606968068e-01,4.648376427734152716e-01,6.857607383738913986e-01
2.924855414012885831e+03,2.952181514944401897e+03,9.937227922528362569e+02,1.966167040828708801e-01,-7.111937962516082790e-01,6.749409276735369723e-01
1.722614361827498442e+03,2.818373737729469667e+03,1.238474760002218090e+03,-9.804717106967112406e-01,1.464394483784799417e-01,-1.312658085034754674e-01
2.352588421636670319e+03,1.960686007067153469e+03,1.786357150501374917e+03,3.847288481611806782e-02,-9.881028340234757623e-01,-1.489047565684232244e-01
1.911420213141504291e+03,5.317973568573933107e+02,8.653363953668249451e+02,-4.853773516999060900e-01,-8.076622667722430648e-01,-3.347991775514210233e-01
1.278389583364974214e+03,2.782772589512604554e+03,2.414479735583873207e+03,-2.703943759034529992e-01,-5.169667986084363481e-02,9.613606684128218616e-01
1.617914067906601076e+03,2.107216507138356064e+03,1.741088003420787118e+03,8.152013069698598180e-01,5.850729084430424803e-02,-5.762149998331285161e-01
1.273142728482662562e+02,2.620856108803379811e+03,1.246191429784481443e+03,-1.259619614822102968e-02,5.483339561046285393e-02,9.984160628557726680e-01
3.280675927090837263e+01,1.924147460104883976e+03,2.042705613111283583e+03,-2.630994887370614044e-01,-7.413074682198428356e-01,-6.174478897751484174e-01
2.374868406730633694e+02,2.132089337122773486e+03,2.320438403143231426e+03,4.757238384524282160e-01,6.559134925324225929e-01,-5.860582904814226612e-01
5.828289012878573594e+00,4.545188227535593910e+02,2.984737655375844042e+03,-2.666068800346947376e-01,5.473679375964983773e-01,7.932900556603000863e-01
1.182563831152696139e+03,1.167293427014064719e+03,4.757095905559296511e+02,5.084283147875315878e-01,8.464389365236659746e-01,-1.582459334674861662e-01
8.928756338019613850e+02,1.897047071006933493e+03,5.020354314274230205e+02,1.911542638921899795e-01,-1.018574882553487659e-01,9.762607743232063484e-01
2.806567157627502638e+03,1.093657928616594290e+03,8.313720351106368867e+01,5.004561417296549131e-01,7.757012457243473991e-01,3.844882671639842653e-01
2.815320577497077466e+03,1.372059450481227486e+03,2.202349598095031979e+03,-8.594745977737811016e-02,-5.923452737358269049e-01,-8.010868310243554058e-01
5.729383910251837051e+02,1.357610578130646218e+03,8.434396757784672900e+02,1.591059045396221727e-02,-9.749455722867127472e-01,-2.218738023966340400e-01
2.962022123505066247e+03,2.894258077695956672e+03,8.016496344672558507e+02,5.535680632369196497e-01,5.424329969575295562e-01,6.319247132181162740e-01
3.807361251712254671e+02,1.068972003646464145e+03,2.786135729200012975e+03,-8.418471521064154750e-01,5.179765092379486902e-01,1.516367645658103225e-01
5.505106148260438204e+02,2.598111104271624754e+03,2.048512979427050595e+02,9.702252527870214305e-01,-8.647846653953956964e-02,2.262397703307936769e-01
1.095621412612117410e+03,1.498199074489505392e+03,7.268328383636937815e+02,1.181399253429522705e-01,-3.089488509435787261e-02,9.925162286406041812e-01
5.380121946318279242e+02,2.921706790912463021e+03,1.044156837294659681e+03,-2.795992896575533876e-02,-6.071214209562262321e-01,-7.941170081218023036e-01
1.226697271897579185e+03,2.612142248434588510e+02,1.816483825246437846e+03,1.308265266907276680e-01,-9.034194862884397104e-01,4.083107293574003149e-01
7.187648535795284488e+02,1.971602921326204068e+03,9.603715114299404831e+01,1.892218129136915838e-01,-9.540754929038348653e-01,2.322392287232293295e-01
2.666438276748222506e+03,2.374371828763859412e+03,1.924092250559305285e+03,2.091836625464895127e-01,-9.776409797959965120e-01,2.145483505320942147e-02
5.223775196696235525e+02,2.064465613482403569e+03,2.519500654483274047e+03,7.519841717278951121e-01,-3.442201938310236048e-02,-6.582818013983835481e-01
7.327826170595858457e+02,2.681214151975604182e+03,2.774556138669428492e+03,8.679311660806814377e-01,-3.673672487841306983e-02,4.953240393833477917e-01
5.299128723086306536e+02,2.589615968422961032e+03,1.883770781978636251e+03,1.301962511277474088e-01,7.859947820097995530e-01,6.043683800842398757e-01
9.397357039996295498e+02,5.836618592173208526e+02,1.436559659885133442e+03,-6.884231449246126511e-01,-7.251661837559580936e-01,1.440761843351601179e-02
2.476006077664074837e+03,2.156345164122244569e+03,2.319335668911031405e+02,-1.115470655256865957e-02,-7.360973991868433597e-01,-6.767837109683499941e-01
1.984038557776841117e+03,9.893363090076147728e+02,6.829115186679501903e+01,-4.347761470614955326e-01,9.002407365647315807e-01,-2.315854433573871773e-02
2.927623366925868886e+00,2.534728273622667075e+03,1.034963825676591114e+03,-3.390727632185589480e-01,-7.759146372652866441e-01,-5.319644132090131095e-01
1.401958371218306183e+03,1.425956154798517446e+03,2.056237325215759483e+03,-7.193696662463210378e-01,-3.227544519837187154e-01,6.150909258063770313e-01
1.970537493491426403e+03,1.506608845786415031e+03,2.182442072114663461e+03,6.972752301269512232e-02,-9.039716228123513275e-01,-4.218689105451101651e-01
9.674752539357499472e+02,2.585688430877882524e+02,2.083110668788334351e+03,9.289814638162358085e-01,1.032708784998118690e-01,3.554272999358956131e-01
2.317034199631779757e+03,1.249360369448476831e+03,1.050649470766931159e+02,-9.033164743069821423e-01,4.030093977807365224e-01,-1.469788166574064192e-01
1.148328014978213105e+03,1.310305566378653339e+03,6.572278630876517127e+02,5.495876977867947266e-01,-3.489290964738751000e-01,-7.590796058881678077e-01
1.067103795916069203e+03,4.665265891865987555e+02,8.243825999255271881e+02,-9.286531695873487813e-01,3.703319306402083066e-01,-2.139045964131880764e-02
1.305185854059485109e+03,1.757697043557298912e+03,5.413567956880982734e+01,6.986361379665780857e-01,7.116176164432481688e-01,7.421532654899931636e-02
1.517858376867208392e+02,3.774227564931806000e+02,8.007859719784910340e+02,-5.757587453993020521e-01,8.021992100670599646e-01,1.580452291719260938e-01
2.329799712887001078e+03,2.887396356411040301e+02,5.248431418715025529e+02,6.777319176568774584e-01,-7.222541793948118460e-01,1.379432786904037922e-01
1.324295860191880138e+03,2.214442199032400254e+02,2.774253448439717886e+03,3.072583082281106770e-01,9.327772058221402984e-01,1.884648941406330547e-01
1.536737287799063552e+03,2.391964038285206243e+03,5.207870504815844015e+02,3.284932045799668354e-01,8.509859344324989250e-01,-4.097745159753480859e-01
1.575184742814110450e+03,1.213020607060188013e+03,2.744512445574413960e+03,-1.636741877844308593e-02,8.761578120206843234e-01,-4.817464022052040939e-01
2.090553608839120898e+03,1.370359866116462854e+03,1.305698632717876535e+03,9.602408898393961501e-01,-1.880250390248146275e-01,-2.063589546885752912e-01
1.994329907599187436e+03,2.962201221916568556e+03,2.683029577479925592e+03,-4.118464425736978463e-01,-7.942565991964902761e-01,-4.466978423635104001e-01
6.043564293811808739e+02,2.437293452207340124e+03,2.814947957528843745e+03,-1.394071468277703341e-01,-9.839821634316502363e-01,1.111069280545091825e-01
5.831003220312614985e+02,2.068920717134345068e+03,1.474174555503846477e+03,-5.209371222521532591e-02,2.084255351534774481e-01,-9.766499073069034864e-01
1.084953797652045523e+03,5.785151002183375795e+02,5.393963883134694015e+02,-8.626647951934761638e-01,-5.019551634009750130e-01,-6.205211574876634550e-02
2.494606252471210155e+03,8.204014481775981267e+02,1.533329154729831998e+03,8.759863953689568383e-01,-4.306448173859645512e-01,2.172392146623418618e-01
2.992498195701599343e+03,2.065325773172856316e+03,7.727225225127371004e+02,4.047250071366566004e-01,-2.891366340861879075e-02,-9.139812189900438089e-01
2.585685306789381457e+02,1.449405324742130233e+03,3.862993478586661809e+02,-2.760691339038131090e-02,-9.995896316351703392e-01,7.643733415066079374e-03
2.838258692766613876e+03,6.064995437289925349e+02,5.250706516347513997e+01,7.138247948089553319e-01,1.613923460113430297e-01,6.814738974934460014e-01
2.649193770394134390e+03,1.301758421473577982e+03,6.681093823019160709e+02,-8.964573827684221285e-01,3.743290258762254075e-01,2.371538346022408206e-01
4.021125776345628537e+02,1.660605508190644287e+03,2.626366298933289158e+02,-2.250787259668635132e-01,5.925861384318652503e-01,7.734217708699075988e-01
2.435744530342321013e+03,2.814198206545164339e+03,1.604030605894973860e+03,1.953434277595098301e-01,5.671118992339418269e-03,9.807185037718723075e-01
2.648069335369850705e+03,1.893917790363118229e+03,1.626778444780349446e+03,-9.841091770768152225e-01,1.585939145443599763e-01,7.985673335849585719e-02
1.721538190785867755e+03,5.159498630726862984e+02,9.982455367341690362e+02,-8.900498914486883184e-02,-9.852905494543758858e-01,1.458788712021585887e-01
1.487337828251317205e+03,2.418324133124031960e+03,6.703056664992867582e+02,-2.527981253923891267e-02,-7.960469899878988009e-01,6.047066402886502878e-01
2.362619072977372980e+03,5.603007546393045004e+02,7.365216005395288903e+02,2.860111923994929084e-02,1.624510750773392187e-01,-9.863019944136983685e-01
1.113306767989139189e+03,2.258211047572120151e+03,2.433157730903395077e+03,-9.012288923558766651e-01,-4.286268318262430044e-01,6.376145090568008378e-02
1.983339080539640463e+03,9.165192671015139467e+02,8.701908137032507966e+02,1.187646646009223594e-01,9.603191949075804423e-01,-2.523529241643281962e-01
2.541680183841514918e+03,6.981791148460454224e+02,1.297244648660590656e+03,3.410711441975843861e-01,8.643368063264847967e-01,3.695840362151527891e-01
6.789664122951043055e+02,1.503346069941038650e+02,2.363208416276843764e+03,5.765895386648201698e-02,-2.167790824209796519e-01,9.745164310896666793e-01
2.492913755848212986e+03,4.607606816796670728e+02,2.012294786593025492e+03,1.229969555408034765e-01,9.904591585484828764e-01,-6.214824354014284596e-02
1.466322438196954181e+03,2.036927844708929342e+03,1.923582273809554863e+03,-5.863698406441211208e-01,-7.003465316961520193e-01,4.070444023987538351e-01
1.148775640185477869e+03,1.132366129446940022e+03,2.002636097520591193e+03,1.817170226368465813e-01,-7.861457534982652096e-01,5.907230975174787568e-01
3.000000000000000000e+03,1.429477892840926870e+03,9.792434410616903051e+02,-8.490807320167758077e-01,-9.029365492696986295e-02,5.204891606919261893e-01
1.242653636877106749e+02,1.715698125439688056e+03,7.395854705482626059e+02,2.532644819452649076e-01,-1.900966310428759895e-02,9.672102847331898179e-01
1.364959790643513770e+03,9.575755548299042630e+02,2.469448611783474917e+03,-4.665992827743203342e-01,8.074637583154258280e-01,3.609534434267354097e-01
1.159558329205514156e+03,2.971318097964533081e+03,1.653974681392303978e+02,-3.939185130211744074e-02,5.003150162004161849e-01,-8.649469154898288270e-01
1.753251610644665789e+03,1.815185924786107535e+03,2.554603313927477302e+03,2.613950516057960693e-01,-5.003619734578483857e-01,-8.254153636281376105e-01
2.178084883036708106e+03,2.151085879184768601e+03,8.947681430125430779e+02,8.981080259322101744e-01,2.534548497512894571e-01,3.593920044932827906e-01
1.302608418919772021e+03,1.931912854295636862e+03,2.037127069189693884e+03,-1.855659679144007757e-01,9.790462933674333179e-01,8.386672162116172446e-02
2.851482490278004207e+03,2.446612519616723148e+03,1.762786160840933235e+03,-7.980217271999070494e-01,5.249282353137906254e-01,-2.959926868813265166e-01
2.067342537456879199e+03,5.563352015439537581e+02,8.814528790551987640e+02,-1.060745091627167402e-01,-9.420847179803991667e-01,-3.181581095205345822e-01
2.889877729277063281e+03,2.080380483595677561e+03,2.400785662859944750e+03,-2.844987255380254099e-01,7.558643629406440745e-01,5.896859672771377348e-01
2.422375236319985561e+03,2.728312432872118279e+03,1.154849056542393100e+03,4.520832441535944102e-01,7.584090678279137299e-01,4.695065773681522114e-01
1.900062553759571756e+03,1.724456130349716432e+03,9.606193265458610995e+02,5.558094718896204878e-01,7.506680086323264112e-01,-3.571741476839536134e-01
1.858204860594090405e+03,3.327350609337829042e+02,1.667371811881913118e+03,5.398014787706970630e-01,-4.048544588866562211e-01,7.380428379413768170e-01
1.135560260407975051e+02,7.295613644784612006e+02,2.582291577656567824e+03,-1.278938582743647245e-01,-6.322383383558951575e-01,7.641451724173053961e-01
2.873751198674192892e+03,1.838256912027922283e+02,2.309880028989480252e+03,-4.642445360082323585e-02,-9.593034950995547039e-01,-2.785346915514179678e-01
2.133420335336839798e+03,9.516668946752049578e+02,2.507309415715909381e+03,4.471547806400730241e-01,-8.296384266952664399e-01,3.342943061156309348e-01
4.510985606257731320e+02,1.781125223517545010e+03,5.942466722750499457e+02,-2.946459092792169110e-01,-9.172620375740333509e-01,2.679816086423771893e-01
8.441024899259297172e+02,5.953241052922146537e+02,3.238912948385509480e+02,7.482917192586876487e-01,-5.894916749290095570e-01,-3.042352183398042698e-01
6.611903878742286906e+02,1.178649548047067412e+02,2.402491111252181781e+03,1.262268555042903723e-02,9.050047949538037040e-01,4.252140507087208698e-01
1.995455763933407070e+03,2.308996512389350642e+02,1.108432822315602664e+02,8.282152842495619227e-01,1.500497923595298377e-01,5.399486112106219871e-01
1.803502937071213410e+03,1.551173237468522757e+03,4.791838135242287677e+01,1.918489619482856290e-01,9.522393045806281098e-01,2.375590086929286748e-01
2.239062667264803167e+03,2.215232548495427181e+03,1.037385964906086883e+03,7.712201084040351540e-02,-9.294231590272834520e-01,-3.608667162647138937e-01
2.940178291775825528e+03,8.916034983767233371e+02,1.270706606899939970e+03,8.132319266020190396e-01,-4.451067590472032598e-01,3.748783890885994396e-01
1.511181236892898823e+03,7.724456648198989797e+02,2.001437067171360980e+02,8.096980382383908159e-01,-3.744293725692106056e-01,-4.518757924809966298e-01
2.071131903169434281e+03,4.050129470323778378e+02,6.190745655846989166e+02,1.121290899555318632e-01,-4.029421642625247713e-01,-9.083307103941695715e-01
1.283498071495802833e+03,1.003329033144612822e+03,1.661993331805666685e+02,-2.221205837669719407e-01,7.585984302316983729e-01,6.125282588722111843e-01
1.787444774514396840e+03,1.784722182861042938e+03,2.228831038692894253e+03,4.281086220756350619e-02,-9.919882511313385942e-01,-1.188551206067014337e-01
1.428898706109234354e+03,1.087146470814476515e+03,4.788716616513058852e+02,-5.935693554355782331e-03,9.857640148675772540e-01,1.680299810575003328e-01
1.804839671721593959e+03,1.892507379879016298e+03,2.376232356839162549e+03,-2.191463864575138309e-01,-7.033285157632446216e-01,6.762424566802097692e-01
1.593411158991987577e+03,1.203479677514656714e+03,2.418020679530685811e+03,-9.807103931848784040e-01,-1.242739525421327207e-01,1.508744823312316019e-01
2.965324692366869385e+03,2.988429711633420538e+03,9.788630285928791182e+02,7.521352938794200610e-03,7.253318460425374203e-01,-6.883582950517084242e-01
1.640240321955090167e+03,2.650568279869169785e+01,2.311102067403493947e+03,5.061327302682770979e-01,-8.624524500535922789e-01,2.330396476044605415e-03
2.132726946136918741e+03,9.157088136657538371e+02,2.481891524382606804e+03,1.069455874049873578e-01,1.644695614718678089e-01,9.805673891598953862e-01
1.454347294762601678e+03,1.565381373347262524e+03,1.500044834190875690e+03,5.062487792034624581e-03,-3.650624437290146962e-01,9.309692709192691762e-01
1.161346793551283326e+03,2.984603413754872236e+03,2.182051261100257022e+02,8.572170579427264014e-01,4.148081747449938184e-01,3.051443817879384568e-01
7.028025937717079614e+02,4.115186984185448438e+01,5.717210486542915078e+02,5.993695250803821040e-01,-1.397300157465180825e-01,-7.881825265155242288e-01
2.260310699075460889e+03,5.182559926783244464e+02,1.124475944107780833e+03,-5.309886835836510333e-01,8.224576840203855488e-01,-2.039960193286256551e-01
1.825572027493794849e+03,1.525314970852008628e+03,2.844337082296187418e+03,2.066188121458875093e-01,7.014294166626591220e-01,6.821330074902578477e-01
1.757801863254731643e+03,5.940046218396614677e+02,2.765897537949513207e+03,9.612362522716665358e-01,1.369255109700859008e-01,-2.393246158762236675e-01
1.648537835001996541e+02,7.645587560136265211e+02,1.080816221608974047e+03,-1.466839221631021650e-01,9.457113187540443500e-01,-2.900240137632320581e-01
8.235439362145704081e+02,2.627227960120440912e+03,1.136516346790977877e+03,-8.523833233860426128e-01,3.206056798105474392e-01,4.131037013711956196e-01
3.242157641111223825e+02,2.948085664224836364e+03,1.995767928224569232e+03,8.436603533944729838e-01,3.445028985664836951e-01,-4.117705198160792612e-01
7.347497511528968062e+02,1.012887065035362980e+03,2.798289968238589154e+03,-5.617737629511816433e-01,-2.923483623923020525e-01,-7.739138674724783673e-01
1.008189599109665210e+03,2.095048100300450642e+03,6.339354077768432916e+01,-8.084234101307931075e-01,4.953769026461393721e-01,-3.178888394977352760e-01
1.217968460414595739e+02,1.393781830099067292e+03,4.840053969843990558e+02,9.505282465377046242e-02,1.839251983159915227e-01,9.783335228590313015e-01
1.583064485265867006e+03,2.012897875842809981e+03,1.049963300466004057e+03,-3.198711446587965690e-01,-6.533647758021947638e-01,6.861464279260069965e-01
1.701664174139836859e+03,2.132681294175773417e+02,1.926063191379659884e+03,-6.827899638676282468e-02,-7.139300964925218151e-01,6.968800441787632582e-01
9.244156912483973656e+02,4.694205756365904563e+02,2.159058018309023282e+03,-2.286370431388035362e-01,-5.802700204661529471e-01,7.816724415335079001e-01
1.512981526241165511e+03,1.068141662669219158e+03,2.172284958224328420e+03,-1.175062323109027085e-01,-8.797893218651482439e-01,4.606115874575443248e-01
2.350196255527398534e+03,8.106234517280475416e+01,7.534358309235824436e+02,-1.154745548681795075e-01,5.159540710592697144e-01,8.487973985206138661e-01
2.445780460940748526e+03,1.275589707603848098e+02,7.052280177776278833e+02,-9.177533587054831354e-01,-2.949606260393906609e-01,-2.659454862772736572e-01
1.194498663129179249e+03,8.983741426405167658e+02,2.800410411650496371e+03,-3.519943806110223394e-01,4.851200534813745469e-01,8.004739157077456202e-01
9.239031670171586939e+02,1.531985842835348876e+03,1.188573315932002515e+03,7.263002097551867209e-01,-6.607771755896155730e-01,1.893714063141058723e-01
9.156757750534880813e+01,1.015199899238463445e+03,7.245003825355096296e+02,-1.125783262885018433e-02,6.415451701157204312e-01,7.670026440017609914e-01
9.242943616115192071e+02,2.774206406203227857e+02,2.043314193062440381e+03,-8.607701297490173709e-02,2.860106488797646215e-02,9.958778674740152992e-01
1.619477432966099059e+03,2.044986725816180297e+03,1.895966420357353627e+03,4.176244323602172348e-01,-7.883138638468326631e-01,-4.518308151982151077e-01
2.679605547216979176e+03,1.237868490947848841e+02,1.930706295640348571e+03,4.361866623754252492e-01,-4.775014801004400788e-01,-7.627145809984727798e-01
1.416334174854221374e+03,1.978064475883693376e+03,8.277328828207657807e+02,-6.263146102509109525e-02,9.980275495392524343e-01,-4.279071223703523330e-03
7.700848337395589169e+02,1.775374490297196814e+02,5.283707157755040953e+02,3.111888773501326755e-01,-7.814966635343377765e-01,-5.407628384960104784e-01
2.523242172742823186e+03,9.991118192764707828e+02,2.352628936273771671e+02,-4.738073990333713237e-01,8.455860332825653192e-01,-2.459487933263506676e-01
7.058786399327635763e+02,1.664111565765747628e+03,2.981351021357030277e+03,1.744022692958078491e-01,9.448587965121165722e-01,-2.771744994009137653e-01
2.975495325330673495e+02,2.597788720681986433e+03,3.334918666728707990e+02,-5.577383416168162356e-01,-8.300024635865161926e-01,-4.883925760863273326e-03
1.111800635773550539e+03,1.062669555229211483e+03,2.448222356639892041e+03,-1.777073119909934260e-02,9.545597164303522009e-01,-2.974894096956308687e-01
1.659937463639113844e+02,2.974128168500569245e+03,1.170392830122131272e+03,5.260001493201851286e-01,-6.774424590578524974e-01,5.141940855171255320e-01
2.207387366497398943e+03,2.683885349715576922e+03,4.563642938967682312e+02,5.269647167246892250e-02,-8.243393261106600478e-02,9.952023556179652175e-01
2.439326874050706465e+03,2.449889749708893760e+03,3.290597852370081000e+02,-3.546794354013980272e-02,-8.867144448899617615e-01,4.609550067029541953e-01
2.431067285178657471e+02,2.073413344775195583e+03,9.088116347393963679e+02,5.139540343764149588e-01,8.494326051908409614e-01,-1.196473977439873743e-01
2.759129401689648603e+03,8.233504642387530339e+02,2.489165534334416861e+03,3.532257751088613285e-01,-8.578396570521314990e-01,-3.732863171714515538e-01
8.887692827523986807e+02,1.530965348327330730e+03,1.145451697916529611e+03,7.068630399789526120e-01,-6.799770677637779759e-01,1.948738823626406380e-01
1.219148376357811003e+03,1.140825691892884379e+03,2.799489948900895229e+02,9.527951206002750750e-02,-1.121574319514293538e-01,-9.891119881184655682e-01
9.393782348929338468e+02,2.771512280910390928e+03,2.258736323319836174e+03,-3.777376818402876091e-01,-1.781513556542170876e-02,9.257412514643124091e-01
1.604620166546963446e+03,1.678243614821994470e+03,1.105463825775512305e+03,2.709678240097546653e-01,8.282572860069499221e-01,-4.904755921835666221e-01
2.557185581960457966e+03,1.896867802966627096e+03,2.471451373431959382e+03,-1.776672340897068880e-02,-2.554023120781674372e-01,9.666716104885026972e-01
6.105283053123616810e+02,1.252547295024629875e+03,1.815896834991374362e+03,4.037621584244361350e-01,-2.275076321052867945e-01,-8.861243686742206194e-01
2.947073208438471738e+03,1.107497463789141193e+03,1.011145131548248514e+03,1.447080589837234643e-01,-2.474230051755721138e-01,-9.580404136439402141e-01
1.477610718833685041e+03,2.766245397625590613e+03,2.419216495842837048e+03,1.387496645821883201e-01,-6.479135764134773545e-01,7.489703118798684001e-01
2.325240629794822325e+03,1.022565798969389448e+03,1.782124918340657587e+03,-8.490668116230951634e-01,2.612093358601658699e-01,-4.591897562660587906e-01
6.789319097680763662e+02,9.802999291698475872e+02,2.364722955757470572e+03,-2.509073507970110972e-02,-3.400671092795329309e-01,9.400663892510052744e-01
2.810583605473213538e+03,2.662175310236098085e+03,2.087935800006526279e+03,-7.325289063094742037e-01,-4.675343477175571416e-01,4.947858477415900680e-01
2.382105982388009579e+03,4.548248839443945712e+02,1.854968794727343038e+03,-9.366639511562127041e-01,-3.375549168669525479e-01,-9.336659308005668123e-02
1.619839956338653622e+02,1.164394472006930528e+03,1.032388871061736154e+03,-2.807795856494236242e-01,-5.020455869350489708e-01,-8.179933086044042234e-01
2.646457949094187370e+03,2.005159513696782597e+03,1.426913248009069093e+03,5.399962284658059719e-01,-7.528291062390501942e-01,3.763673870595298787e-01
1.664280290571984324e+03,2.002796389555216138e+03,1.909798295475473878e+03,7.958447194820009729e-01,-3.825271232023708667e-01,-4.693657235963586416e-01
1.548410609018130344e+03,1.605650754387937923e+03,2.077286007098812206e+03,4.407349150611528793e-02,-9.140560040739966752e-01,4.031862457509409192e-01
1.409617676435870237e+01,7.876976995335737683e+02,2.927727211926669952e+03,-6.166026800053807655e-01,-2.547119717250855842e-01,7.449315045493116738e-01
4.554367706618058946e+02,1.882811171404199740e+03,2.952392278124639688e+03,1.138335532641759212e-02,-9.853212733305433124e-01,1.703302895664460248e-01
1.848804818608803771e+03,2.316673265280171563e+03,7.579264960474152986e+02,-9.913911110917534852e-01,-9.089884048358354285e-02,9.423940601997983502e-02
9.132277459787978842e+02,9.001371764089277576e+02,5.562945825831552611e+02,8.078290187319300264e-01,4.295376568998712230e-01,-4.036207103204387803e-01
2.736537631784966607e+02,2.242908561615429790e+03,2.881500939474041843e+03,3.117038136601756881e-01,3.722705090725578758e-01,-8.742170214681026508e-01
2.637819276648694995e+03,2.361328426211911392e+03,8.635023519474942759e+02,9.804550776094469455e-01,-5.422749983315631322e-03,-1.966683364765964281e-01
2.453727501891376960e+03,2.534968406317314020e+02,2.994014287474057710e+03,-9.943849922181330347e-02,9.859577012157016984e-01,1.341618287217440919e-01
2.231938379212640484e+03,5.200535855339770706e+02,1.348413106570998252e+03,3.477944375223851470e-01,7.003248296152109198e-01,6.233651917238509643e-01
2.746791230550873024e+03,2.959945385005375101e+03,2.366722262509353186e+03,-6.628526052343060027e-01,7.290111476793258438e-01,1.707898424771372436e-01
2.822152779920291323e+03,2.476853528033702332e+03,2.801167498871211023e+02,1.822498346454846097e-01,-7.226793059390480556e-01,-6.667230448538203902e-01
9.492676326581729427e+02,9.623721470941508187e+02,2.605641854123215580e+03,-2.195294713441650059e-01,-6.696256205271498008e-01,7.095127479791896175e-01
1.750022433772731347e+03,1.503169738202068118e+02,1.303258457719985017e+03,-6.477042135230309805e-01,-1.082673739858826950e-01,7.541600808281441193e-01
2.447523738241958199e+03,2.767774632437272430e+03,8.778539336036267287e+02,-8.620724370804085934e-01,3.851051170796045420e-01,3.294315741172198497e-01
2.439836928603568140e+03,2.128687384887098233e+03,2.658585292995358031e+02,-4.733060402122866994e-02,6.184116519264437617e-01,-7.844277166728572670e-01
2.986517803167213287e+02,1.468085030564009230e+03,4.004235643808057716e+02,3.399892436074297610e-03,1.306915606707858557e-01,9.914172465217949703e-01
2.162673261116950925e+03,2.610690474892991915e+03,2.358608687772081794e+03,-8.463017942980791686e-01,3.846639681390779386e-01,3.685198835657992888e-01
6.241207869213460668e+01,4.323400401255474890e+02,2.859298830929240012e+02,-3.232541919641951367e-01,6.391706472240005210e-01,6.978306464356718308e-01
2.749427794898523189e+03,2.177709839313722568e+03,8.816652551933084396e+02,-2.350929126841375949e-01,1.408738249570271051e-01,9.617098771706908966e-01
2.640410777503654494e+00,1.649490574844369576e+03,2.239940725051121717e+03,-6.549284869078353388e-01,6.859257329282349991e-01,3.171349333382831870e-01
1.799945767039107523e+03,1.508280757731030917e+03,3.270897150521455501e+02,-2.622551370218131894e-01,-6.731060953398502189e-01,-6.914842207324838341e-01
8.015052361145569648e+01,1.697214952719832354e+03,1.404774303925339836e+03,-5.576011441566796067e-01,-2.467865609670478744e-01,7.925764047467093176e-01
2.766962338821566050e+02,2.012345626867833516e+03,2.287634554777218000e+03,3.382946630167036894e-01,-8.733269633789568775e-01,-3.505092523881574440e-01
2.993800457182270520e+02,1.250055001271313586e+03,1.092208962092931415e+03,1.817421680152812857e-01,-9.663023217978355950e-01,-1.822898989335879349e-01
1.470488350122823476e+03,1.471163204902539292e+03,2.477514091097536493e+03,-9.886054123068763744e-01,-6.405884050179867784e-02,1.362196891463057780e-01
4.502503286460141680e+02,1.103032220710214915e+03,1.439200524154555296e+03,-2.415138309380760601e-02,9.926151282937477616e-01,-1.188777429843063116e-01
2.897915937940707067e+02,2.899748464436522113e+02,6.262552913612927341e+02,2.048383019833400764e-01,-5.393250156979386700e-01,-8.168046262619967912e-01
8.743096137046443346e+02,1.485167400080382777e+03,2.617029976624255141e+03,-6.455961386684037073e-01,-3.947342289681331495e-01,6.537511102991571121e-01
1.252537118352511925e+03,7.651275635776489707e+02,1.407471551509160918e+03,-5.450022411481931783e-01,6.394271653615564155e-01,-5.423149060657762588e-01
2.837529583959320917e+03,1.182011915393159825e+03,2.603393457195787164e+02,1.525829647931497279e-01,-5.917271210282322169e-01,-7.915664552610679472e-01
2.021311165759796268e+03,1.443577072775453416e+03,2.861104498861566299e+03,3.116607144305906796e-01,7.579595844325295317e-01,5.730312970924720251e-01
3.251194403231850742e+02,1.095189824048528862e+03,2.009217474548308246e+03,7.037408488750219737e-01,-6.677118978588612030e-01,2.427130797513419314e-01
1.770345314521657201e+03,2.147537975732743234e+03,8.443939193779943935e+02,3.582056162442002201e-01,2.151563272871470367e-01,-9.085133412996304614e-01
1.901370267796366306e+03,6.536363614406398028e+02,1.270656866651042037e+03,7.698756960176754705e-01,-2.470398742932528036e-01,-5.884409173319558040e-01
1.138303488453298996e+03,1.098920963617074449e+03,1.942422311807011511e+03,-4.387707400903185229e-01,7.538521712775442252e-01,-4.890676246703786756e-01
2.498574673904039173e+03,2.105098167809655934e+03,2.432322248309214501e+03,-5.109910113850443247e-01,3.283999868353016521e-02,-8.589585093414904282e-01
1.029268656036755374e+03,1.721575917775699281e+03,2.454019598935970862e+03,-3.664989589882249876e-01,8.159706036477640811e-01,4.470687721629087452e-01
3.662728239007068964e+02,2.511467529568440398e+02,2.548596791082825803e+03,4.876356107003205001e-03,-9.224724926113754275e-01,-3.860320213744886098e-01
2.498269926475649072e+01,2.584844648734015209e+03,3.646556459457710275e+02,4.560326215486656398e-01,-7.753783156186876413e-01,4.368325946535793758e-01
1.051167044707094192e+03,1.820997583815752705e+03,9.414954406248311898e+02,-7.806249120433624844e-01,4.999320815117169747e-01,3.750902032480383785e-01
1.884364779178022786e+02,1.687345775823232543e+03,2.750183554199143600e+03,5.777942535032064564e-01,6.084338936585166335e-01,-5.440238943890328693e-01
2.340306184813184245e+03,1.922045861610553629e+03,2.897225833532353590e+03,-1.671245437148101377e-03,9.978012797014190749e-01,-6.625566515324674000e-02
1.824641458542685768e+03,6.329844680644362143e+02,2.154150961438247123e+03,-4.475517489242165081e-01,-3.501891812977174223e-01,8.228395769145462335e-01
1.161132313684368910e+03,2.904081004679460420e+03,1.905694970477443803e+03,-1.097834922676081126e-01,3.499829233760312075e-01,-9.303007783349936943e-01
1.902658646744016096e+03,1.738333990018629720e+03,5.427247929582266579e+02,7.521321810931600460e-01,-4.622692938629310300e-01,-4.696853011490917940e-01
9.489515233177969549e+02,8.764778649039212723e+02,1.045687347361429829e+03,8.874880022514962663e-01,4.357781844550437933e-01,1.498746803590049748e-01
1.816907044130969552e+03,6.250951659323283138e+02,2.752913053886533817e+03,-9.734566746090985712e-01,-2.098463713605635828e-01,9.135974543419057847e-02
1.286866054127141865e+02,1.029087993408969169e+03,7.449416222973839012e+02,4.991378742143874332e-05,7.641992987598618114e-01,-6.449801774345855776e-01
1.498018478627822333e+03,1.821057149223134957e+03,2.508631819693450325e+03,6.823232805186623118e-01,-7.061488002133698982e-01,-1.891793139311728489e-01
1.881418878765218096e+03,1.579197259608973582e+03,2.680173855087340939e+02,3.415232261704137517e-01,-5.286180367476649433e-01,7.771260240213273551e-01
7.094556249325075896e+02,1.938886138502239419e+03,1.545862382363502775e+03,-9.847589062183770281e-02,2.280612526125893047e-01,9.686539960290324602e-01
2.275517096012536513e+03,8.244636252621517087e+02,2.806088314368008469e+03,2.456438922870195496e-01,5.308237238690719506e-01,8.111012590052208981e-01
2.006230955515156438e+03,2.340774190156769237e+03,2.043517622907379746e+03,6.336823323341419512e-01,-7.700037501979709598e-01,-7.443739899152124195e-02
2.199111947423099537e+03,7.617632339695414885e+02,2.703760532950783727e+03,9.472111030094392259e-01,-2.591052700889674987e-01,1.888268660645639474e-01
6.142234646010574579e+02,7.663839039483859779e+02,1.714980985899813049e+03,5.237912914611909665e-01,-5.897997867718081100e-01,6.146372056045317223e-01
1.292236811843629539e+03,1.763414409119501215e+03,1.365868193039196967e+02,-3.187653179971209338e-01,-2.512474700561081464e-01,-9.139274483418251549e-01
6.217978582247258146e+02,1.268889411721642773e+03,1.763115031465726133e+03,-1.196873495910703022e-01,-8.576121490968934280e-01,5.001763089844148968e-01
8.198396405255970194e+02,1.425319593592921819e+03,1.830816306660818498e+02,4.737150011765728363e-01,1.609557570721231179e-01,-8.658448717441360465e-01
2.680648716274502874e+01,1.938648774121955512e+03,1.270047125462549957e+03,8.919106979157602755e-01,2.563577460597175062e-01,3.725265265435508955e-01
9.198758978788933973e+02,6.348627239664042463e+02,1.056738268332594544e+03,-8.823303447193492355e-01,-4.345348692242810840e-01,-1.807556644082597697e-01
1.173916936854548823e+02,2.448816987237707053e+03,2.726422708813681311e+03,-5.554208659021033778e-01,-7.926584718250759831e-01,-2.513965170094702994e-01
9.369871181578514552e+02,2.600839140142935548e+02,6.547791673352571706e+02,7.081785372613363938e-01,3.049155227622576403e-01,6.367964222112221240e-01
1.228010583822729586e+03,1.582780740812788963e+03,1.873565214107504971e+03,1.332389761131559103e-01,-3.549990995448636943e-01,-9.253231946550641851e-01
2.007233828656862507e+00,1.526646830780209463e+01,1.848836169198754988e+03,-2.835990599959793412e-01,-7.749362837692126416e-01,-5.648409769725983853e-01
1.334589703635568867e+03,2.147600154841433323e+03,1.886948918245443338e+03,4.515916238680740130e-02,-9.805807983496720448e-01,-1.908453509007801696e-01
7.529901124331768187e+02,2.662096573318446644e+03,2.819748490140536887e+03,-1.128931240893622789e-02,9.976543944189121271e-01,6.751489259391012243e-02
5.865342700400004787e+02,2.178239444012877186e+02,1.796429553112545250e+02,9.019752736904965706e-01,-8.641332845200048671e-03,-4.317012080335336788e-01
6.358337933198010461e+01,2.732651345661379310e+03,2.453496074591542310e+03,-5.348243429642779434e-01,-6.034806822948033389e-01,-5.914169326877840582e-01
1.795870164006330924e+03,4.434140539053395855e+02,2.762394639702136828e+03,-3.734671756742590776e-01,2.793726409257502388e-02,9.272226151086446766e-01
1.349978360414797578e+02,9.178160909604732751e+02,1.937883782266931576e+03,-6.985233541198903051e-01,-5.897120525695773718e-01,-4.053453081056623830e-01
2.870455936807931721e+03,1.846427241329218134e+02,4.359859890374687552e+02,-4.690433245902865256e-01,-4.286775042583704232e-01,7.721618722781551369e-01
