x,y,z,nx,ny,nz
8.003557134528738004e+01,5.293632634337079708e+02,1.390795071943104858e+03,-3.098326932274267365e-01,-6.043856102971936206e-01,7.339766592154877145e-01
1.872616919891386260e+03,1.806757400221705666e+03,1.733575322802127801e+02,-1.244201053075520702e-01,7.794380858526335221e-01,-6.139999248514940167e-01
1.718746656601713994e+03,1.156644774903102416e+03,3.992911413033244230e+02,6.383219754985122174e-01,7.508036673186043730e-01,-1.698202247572750956e-01
1.529061880820947181e+03,1.020427667612155119e+03,9.071500863416758875e+02,-2.485153465012601981e-01,5.397371089296303381e-01,-8.043158433088601900e-01
1.564676126724520145e+03,1.089767413352389212e+03,4.545547628303177135e+02,-5.445698147900370628e-02,8.323329512101800276e-01,-5.515943214881273704e-01
7.754102635628197504e+02,5.950978647544744717e+02,1.359111789066300616e+03,-1.734119300082141990e-01,3.245029193497516729e-01,-9.298527613898421862e-01
1.885615970150569410e+03,1.605465100315102291e+03,4.816524191431079771e+02,3.095402677001464209e-01,7.866690756332104240e-01,-5.341690632323367049e-01
4.757113744824397372e+02,1.516361246826254728e+03,5.220994628093731080e+02,-3.713425638078190344e-02,-3.557678838514676811e-01,-9.338363131849687360e-01
1.779182219221069374e+02,6.534025158592031630e+02,1.896730580378045261e+03,6.317908159871431506e-01,3.826576206052752505e-01,-6.741020028356310423e-01
1.861979730691943814e+03,2.675566154861828068e+02,1.026024587320035607e+03,4.385502164821646343e-01,8.199090586405387571e-01,3.679984282339152646e-01
1.775366260959449619e+03,7.046254130671903226e+01,5.149165676153490949e+02,-2.124349653934466953e-01,9.288913841444912389e-01,3.033680634813369359e-01
1.150903668929964851e+03,6.155845566694210902e+02,3.030281237042462408e+02,1.700791929760792631e-01,2.874738743713808886e-01,9.425666234651601805e-01
1.781448382987025980e+03,1.717430231453890428e+03,3.685141343168936032e+02,8.445948184198465158e-01,9.788054430601091094e-02,-5.263829326115215812e-01
1.774242353314612728e+03,1.190932337939085755e+03,2.187353110137073600e+02,-6.705897326320726659e-01,-3.521530871170188148e-01,-6.529147063149970398e-01
6.003436664720969702e+02,3.419746978860367221e+02,3.791834381455296921e+02,-9.954016775617576807e-01,-6.183407250642428132e-02,-7.315769121909720951e-02
1.994277598733841614e+03,2.591916345402796082e+02,1.512339776775470682e+03,-6.968284830898988647e-01,-4.114097215599465951e-01,5.875134944497850675e-01
1.786853274700558813e+03,1.656360438146249408e+03,1.005818720574074234e+02,3.772017175951745127e-01,1.740809438136049075e-02,9.259675061757079995e-01
1.144861633854145339e+03,1.668759329581033626e+03,7.694321358507512514e+02,-5.012027439462434231e-01,-2.824987191087676708e-01,-8.179182619080356265e-01
7.235915218143227321e+02,1.970633604170645867e+03,1.737557739110040075e+03,2.171345472901535512e-01,-6.854330969735753509e-01,-6.950065164775891535e-01
1.856414438254352035e+03,4.487685320879690494e+02,9.979349489999200387e+02,-3.751162557583820889e-01,-6.560558380699862413e-01,6.548881828221517765e-01
1.303951641541483696e+03,4.770320255980260526e+02,5.108016975158147233e+01,-4.089274727603782189e-01,7.807101608389497294e-01,4.725145148930680605e-01
1.225232108299108177e+03,1.314330084727034091e+03,4.057978012456848660e+02,-5.533515641842436938e-01,5.182815757244857435e-01,6.520630756908377679e-01
1.237940217480284446e+03,1.003586236126339031e+03,9.047524955557031490e+02,7.877909287613383826e-01,-4.044584968380321999e-01,4.645414695125371640e-01
1.764603020001915752e+02,1.139307113368147839e+03,4.899017102296687654e+02,9.255196162253048753e-02,-3.787877189063680317e-01,-9.208441770492616918e-01
1.554140985884767588e+03,9.764178861764096382e+02,6.358717821502306151e+02,8.960808455635173031e-01,2.422663519746107441e-01,-3.719490998982064589e-01
1.647103111993520770e+03,1.677907049987559276e+02,2.171174112174352331e+02,-5.341575372065021643e-01,-8.433576278293376527e-01,5.851185373543388996e-02
6.264433902937720404e+02,7.555555161229298733e+01,8.291257593847898306e+02,8.365156780076773435e-01,5.859624709475533787e-03,-5.479116582494116816e-01
1.904125078109066408e+03,7.823035210700563766e+02,6.005968587429262016e+02,5.943210524332012135e-01,-7.970103243993286180e-01,1.075036252205905513e-01
1.369513409957153044e+03,8.642141825994129931e+02,1.380868039708627521e+03,-1.742094522948398616e-01,8.044157272232059785e-01,-5.679492974967859098e-01
1.859960272692713033e+03,3.800990072333796661e+02,5.921265788364651144e+02,-1.428165366944860459e-01,6.549989262851102501e-02,-9.875794656189678111e-01
1.282849565107242825e+03,1.419178431356216834e+03,2.375554287969701193e+02,4.567794934125229411e-01,-3.048572686458984049e-01,-8.357119959361367645e-01
1.066806994532028739e+03,1.926483129827341145e+03,1.518108024432670618e+03,8.040895844807967041e-01,4.813472645420385776e-01,-3.489194048020210492e-01
6.722508858746623446e+02,4.337080905220381055e+01,1.542304666507557386e+03,-8.770605304400552749e-01,-4.216410705568653938e-01,-2.301817402920343369e-01
1.881694839802091337e+03,1.224644677369245301e+03,6.307923575602862911e+02,5.596610586861030523e-01,2.803893372780850712e-01,-7.798469843059641082e-01
1.321678277912009889e+03,1.390304129455380689e+03,4.154360801259753089e+02,-1.883572986203430888e-01,5.179619799009721470e-01,-8.344081228233051206e-01
1.509339348949729356e+03,1.059314641140085087e+03,5.739675054941491226e+02,-9.016990177536825246e-02,9.644620127999933290e-01,2.483594465278218255e-01
1.683796015653475706e+03,1.277895640736863243e+03,1.131262937953467826e+03,6.596326157282523805e-01,-6.450644527499047598e-01,-3.857157814582774513e-01
1.554958862419882053e+03,1.147287715140838372e+03,2.825586652820033464e+02,-6.224409494297162837e-01,6.896101778996621690e-01,-3.701419552147929282e-01
8.919056294978555570e+02,1.221265033735291581e+03,4.258291810303271632e+02,6.595529774446726723e-01,5.608111514986695578e-01,-5.004804914265923443e-01
9.948965571692864387e+02,9.796155694201764845e+02,1.991154423692792307e+03,-2.509390203216364523e-01,1.056778608196898145e-01,9.622171261272538523e-01
4.287958083516281249e+02,1.082241772217906828e+03,9.068706289394632449e+02,1.824852163161377605e-01,-3.034251500691013126e-01,9.352177950250923910e-01
8.790782043107823256e+02,3.369539432928942801e+02,1.058174420910500885e+03,7.891235233935277593e-01,1.809725088052475950e-01,5.869693483340667761e-01
1.954911128786032350e+03,1.921594612041289565e+03,1.113183318204203715e+03,-1.323310920756559372e-01,9.471633895169556672e-01,2.921814429918783151e-01
1.339549612654479915e+03,1.333615990277523224e+03,2.220666673984572625e+01,1.253929911063729474e-01,-6.970837382766422730e-01,7.059396996993856366e-01
1.481563626039170003e+03,3.131448491967543646e+02,1.437550105697299841e+03,-1.580323856506379854e-01,-5.699159492958342232e-01,-8.063631786135798674e-01
1.552411574920761950e+03,9.831143695630788670e+02,4.087737325957297116e+02,-3.562936749065385711e-01,8.141491118234368551e-01,4.584932288907903608e-01
3.604670504644440712e+02,1.877101308572050584e+03,1.941500296106323276e+03,5.976779793009435737e-01,-6.999121043999985137e-01,-3.910295118953384663e-01
8.492254201892055789e+02,7.273688157055695456e+02,5.648749464700899807e+02,-5.921936731364685000e-03,1.638133952572415619e-01,9.864735689310912825e-01
8.566704275194449565e+02,1.870854024682817453e+03,1.677689668396365505e+03,-6.477126399320292105e-01,-3.263607479931476263e-01,-6.884453487689743412e-01
8.116408119980902711e+02,9.754088964453178079e+00,6.506626595379208311e+02,6.786283587952849361e-01,2.827168895069149257e-01,6.778898959464974006e-01
1.403574693023831742e+03,1.028316535512375367e+03,9.963336499890244795e+02,-7.699984086536988404e-01,-5.858365284542464968e-01,-2.527805621471879149e-01
5.538461129379854810e+02,1.689522725687269940e+03,8.332382971442366397e+02,-1.276803558095002400e-01,-9.918134167366328136e-01,1.968024787881050841e-03
1.843273837312280193e+03,1.404138928457696693e+03,1.237860846194977967e+03,-2.973456700631012528e-01,-8.399319024425585534e-01,-4.539823253761646193e-01
1.632905340654954898e+03,2.294491004581211513e+01,3.330752872230802382e+02,-2.332075363026119008e-01,-9.655244570940171300e-01,1.156579775241179942e-01
1.755619002959900172e+03,1.951739875125827211e+03,9.285541350884865324e+02,-8.437791042421343146e-01,2.772613487434561971e-02,5.359739589656116188e-01
4.497499599347314643e+02,2.190834344325369614e+02,1.958017875148380426e+03,-1.712367690295541200e-01,7.574902153553949580e-01,6.299893194119696727e-01
7.601424105575824797e+02,3.526760815397313991e+02,8.376702861049856210e+02,9.090581552599570347e-01,9.530008952885715701e-02,-4.056244116065448324e-01
1.841826007609504359e+03,1.656400517414897422e+03,1.148149510393101764e+03,1.094503924147054996e-01,9.254538200171457119e-01,-3.627062704392349790e-01
1.129220198137423495e+03,4.352106071182462301e+02,4.989641021972457224e+02,2.765522854157027519e-02,3.928364937361942255e-01,9.191924050618383024e-01
3.679238795053383342e+02,1.532449613835838136e+03,1.417528511862522691e+03,2.696686454022937385e-01,-9.549209406466168115e-01,-1.241161504457524156e-01
8.271963222582139679e+02,2.348838724551791586e+02,1.767822131872698492e+03,-6.656160865280758010e-01,-5.962563238073647076e-01,-4.488135711793663774e-01
3.788360440875076165e+02,1.930375983586085567e+03,1.305430736851390748e+03,9.198897275414805175e-02,-6.634584713377467136e-01,-7.425367908069047118e-01
1.125561099378849804e+03,1.377110399516296184e+03,5.269575773996560031e+01,-8.668925132890871466e-02,1.889573207995939585e-01,9.781513710158937780e-01
1.617128300948776996e+03,1.946505103534136197e+03,1.475177019833362237e+03,9.629706147787381321e-02,4.049890854647549693e-02,-9.945283879091992851e-01
6.714302155112061428e+02,1.763666961503593257e+03,1.747338738713876864e+03,-4.730288336959551782e-02,-2.169416784470975801e-01,9.750378174088831784e-01
6.393002237241051944e+02,2.223539038396120588e+02,1.730728211564759476e+03,-8.039116617423882616e-01,4.463563163064038775e-01,-3.930548040769499263e-01
1.210198268311025231e+03,8.418461690297598352e+02,7.723010237411871231e+02,-6.413466094408205587e-01,-1.385501420726221733e-01,-7.546379162819873976e-01
1.509615702200922669e+03,1.349741168329000175e+03,1.438539296184289071e+02,3.920177677900228003e-02,-2.023449870366967607e-01,9.785293694716006296e-01
1.093022998728455832e+03,1.319327910849842056e+03,1.594439614717476616e+03,-5.142822210653149456e-02,-2.253857315853812771e-01,-9.729113063217447177e-01
1.972805151274833861e+03,1.692483461175563434e+03,1.120802362169563821e+03,3.490965121012375438e-01,9.164600963980581438e-01,1.955313707536785461e-01
3.080263566759022638e+02,7.556270949288834800e+02,2.239108886831622272e+02,-6.445994781448600719e-01,-7.641879351650460173e-01,2.254578726852374260e-02
6.883927178605362087e+02,1.406957593704156864e+02,1.051522374544138529e+03,-7.135492566550309945e-01,-6.328502187869435858e-01,3.005795384060108710e-01
4.711324730048407332e+02,1.236363683680891199e+03,6.056570384652812891e+02,-1.935586427404218379e-01,5.348710625625983095e-01,-8.224645878417153888e-01
1.917148422039341540e+03,1.454330869853858530e+03,2.029217156480081030e+02,-4.908502667299373678e-01,6.567080903867847930e-01,5.725386446971871823e-01
9.909948694942268048e+02,1.745385445969744296e+03,4.410595894874473970e+02,-6.458609655433279473e-01,7.157598060742882407e-01,-2.656153481934689364e-01
6.620288681315895474e+02,1.319419607677599060e+03,9.330869827474812155e+02,-8.034192822001648415e-02,6.467448033085292369e-01,7.584631394888623479e-01
6.407085803012245151e+02,1.103475941243415264e+03,3.764388312125757352e+02,7.028525335559860920e-01,-2.809289797529490595e-01,-6.535114569836542042e-01
1.174196269766099704e+03,1.103041700376476939e+02,2.817159937987336775e+02,2.245285732910494159e-01,-5.457849806963135375e-01,-8.072828962775133732e-01
1.032632091359098240e+03,3.111557959841481988e+02,5.576335108576970470e+02,-4.359815651886586596e-01,-4.736907277308797792e-01,7.652040050061401644e-01
1.199428731231985921e+03,1.903943243311601208e+01,8.312820110408432583e+02,-1.159099596132522614e-01,2.726121225154745087e-01,-9.551164912826404230e-01
1.150918682247616061e+03,4.773004058578598006e+02,1.116573156895303782e+03,-9.768310769299880514e-01,-4.042195294184878357e-02,-2.101597317855321556e-01
3.135032200068625912e+02,1.509034015204772686e+03,6.599464576110387952e+02,-8.776694612583326727e-01,-3.827880951495289397e-01,2.883913850764328601e-01
1.761367235814029982e+03,8.862228006535668783e+02,4.094701729845140221e+02,-6.293931345207356420e-01,-7.307290783026112457e-01,2.643847505836516842e-01
1.814946405469599995e+03,1.565161956089197020e+03,1.250581871711693566e+03,2.270860201523485777e-01,9.527096796165157588e-01,2.019311907961796326e-01
1.629000341553208955e+03,1.844644961705792866e+03,1.833300224161865117e+03,-6.128661998002817718e-02,9.906117775875548093e-01,1.221976117452732158e-01
1.995524731137640629e+03,1.051195576435638714e+03,1.631813345675644769e+03,-9.800652115825763122e-01,-4.270384381521733635e-02,1.940323755691442109e-01
1.075541056462604956e+03,1.346941398840661996e+01,1.753371613193147823e+03,9.808827454580181238e-01,1.508200584062573402e-01,1.229729630653586675e-01
2.707087817241464904e+02,6.127739618173944081e+01,9.246708082702315323e+02,3.234768379361883106e-01,2.157414463376437497e-01,9.213133905739927521e-01
1.759871152443847222e+03,1.642744083086576893e+03,1.639938844490167639e+03,-8.961437022052506363e-01,4.390714666340918559e-01,-6.436390436925654157e-02
1.164430084278614231e+03,1.457941338752222464e+03,1.568584004699252091e+03,-8.785642843502885491e-01,-3.636944382123593611e-01,3.095983751208358226e-01
6.398301240877091232e+02,5.724955856523703233e+02,5.923534368061505120e+02,7.268750186906723643e-02,-9.279666409450066933e-01,3.655057323288864457e-01
1.957387637950090721e+03,3.181992318512505591e+01,4.977962839651594891e+02,-1.562005182043865181e-01,-7.961244488779593009e-01,5.846257435414956571e-01
1.109784762151690529e+03,1.171171588198041263e+03,1.442768553294459252e+03,-8.243607476248601129e-01,5.613830784296485188e-01,-7.265257757459787913e-02
4.766178168136454474e+02,1.850067163012079163e+02,1.291766774835284650e+03,-3.608585210833503698e-01,-8.687718801210071451e-01,3.391408970804723477e-01
8.765060650419723061e+02,2.451067298227262938e+02,1.053218671412614867e+03,-2.817764115004083303e-01,1.280027209218900872e-03,9.594792418037485504e-01
1.627679984789190939e+03,1.936402876489398977e+03,5.742467550575906898e+02,7.952308180273425231e-01,-1.928340514636904535e-02,6.060000794930018309e-01
1.062094709174444233e+03,1.627053158970000595e+03,7.525883673137963115e+02,5.637471020766687650e-03,-9.940858166765927928e-01,-1.084509474505495064e-01
7.210526099929217025e+02,1.127412510572911515e+03,4.771711918851675591e+02,7.291191860132048563e-02,-7.296640216522466416e-01,6.799075434440657872e-01
1.045976150027457379e+03,2.130493159811861403e+02,1.873234046122973950e+03,-7.149600504132914702e-01,-2.048837221806779629e-01,6.684719789926982791e-01
1.763381838707884754e+03,1.552162274733795357e+03,1.142507954084834864e+03,5.438496998873872945e-01,-8.068781340732600338e-01,2.305974429321646646e-01
4.129599183752632712e+02,1.382976847107939648e+03,1.064027500154763175e+03,8.807799000475502460e-01,4.352837532695098995e-03,-4.735058821996209755e-01
1.347133395952063893e+03,1.756640399361889649e+03,1.661405138481135509e+03,5.600434511936457360e-01,2.683878683063389281e-01,-7.837852288229791853e-01
5.696667442366134537e+02,5.436061049932425249e+02,4.000601216863408638e+00,3.925173987490018224e-01,4.486049350703280036e-01,-8.029219787188939250e-01
8.906272052307305103e+02,1.628271629447640407e+03,1.624596230736894995e+03,-5.368175004950788143e-01,1.986479589951738456e-01,8.199792433648962486e-01
9.766682362408973859e+02,9.968511626904196987e+01,1.608628679390942011e+02,8.555530909805367790e-01,-9.923568094155854613e-02,-5.081153295677219850e-01
5.360151637146408348e+02,1.412526489102632240e+03,1.322692268763139282e+03,-2.623635928437026421e-01,3.111749291504997683e-01,-9.134196782521850633e-01
1.706171024779779600e+03,2.347552082018959823e+02,1.130346963403823793e+03,6.935711699388147355e-01,-5.887567447199588688e-01,4.151198956644464033e-01
1.631541169098656837e+03,5.560326633375640313e+02,1.184574771531827537e+03,1.517523554494355498e-01,-8.852856076876037816e-01,4.395914187478393576e-01
1.214753077897749790e+03,5.749457484046610034e+02,1.996633500568939326e+03,-6.665824869165465349e-01,4.000158477203143992e-01,6.290112158847014356e-01
1.465002230216907492e+03,1.857493861455512160e+03,3.432213884938483943e+02,7.582904102923277989e-01,5.065816349172383992e-01,-4.103299901582517784e-01
7.623772274930760204e+02,1.265425079237507134e+03,9.430398766971654823e+02,-1.084745771858178359e-01,8.937080761268101359e-01,4.353379615540939884e-01
7.582452055507304749e+02,8.761628748557091058e+02,8.442531356316671918e+02,-6.891976471826238848e-02,5.577548952092946655e-01,8.271393733230500978e-01
4.304193203266539740e+02,7.438460228085457402e+02,7.797107816622179826e+02,-1.752516367558912269e-01,9.728976822030923621e-01,1.508541142237489474e-01
1.438122790113047813e+03,1.820357415145088908e+03,2.441936391268830846e+02,5.174852378146627130e-01,5.731036871417649614e-01,-6.354220585000303068e-01
4.280195454153206356e+02,1.209143206612747463e+03,4.033574696059660596e+02,-3.115552338755536721e-01,7.064381074586999487e-01,6.355143873862489912e-01
2.974671256051217938e+02,6.118908941723209409e+02,5.944828906033527574e+02,-4.051208185914824678e-01,-8.734361852123297965e-01,2.701598650900978171e-01
1.115087828154945100e+03,1.300325972631369041e+03,1.799902060653944034e+02,-6.106651434797988331e-01,3.581917425798634702e-01,-7.062483685548572865e-01
3.356423272471886889e+02,7.779582784486167384e+02,9.958919077748522568e+02,4.635447918711701476e-01,1.675323488385009052e-01,8.700914538264172826e-01
1.968319691797569249e+03,5.345452270397777284e+02,1.780114607548182676e+03,2.751366815019197221e-01,-8.651032766679713770e-01,-4.193997224491816667e-01
1.195217297753740013e+03,4.733347535302048072e+02,1.375229924321629824e+03,-6.621019141763824223e-01,-2.606372230753986052e-01,-7.026302677735392077e-01
1.674411991898839460e+03,9.629370307474661104e+02,1.569461919973458407e+03,-3.487124601284101177e-01,9.157700142907025942e-01,-1.994113865284485865e-01
8.369285278228497873e+02,9.935321224266699573e+02,1.154645062648658040e+03,-6.707241900240508148e-01,-3.760110703094599049e-01,6.393314757786570102e-01
3.211736570184855282e+02,1.404222609828217855e+03,1.766465643303669367e+03,-6.077605443947462494e-01,1.309913696403209871e-01,-7.832422241916956462e-01
1.127018334950341568e+03,1.090507028214060483e+03,1.269510997562857142e+02,-5.630562273763113357e-01,-8.233973974245017979e-01,7.060035925767495224e-02
1.912729455293693036e+03,3.923015838866854779e+02,1.347851987115883958e+03,6.931524066446134169e-01,5.620071894399693013e-01,-4.513176931836009320e-01
6.683036670361494771e+02,9.294637544620454719e+02,4.687128868029746513e+02,3.131475845560270921e-01,-8.336105304682969175e-01,4.550077733172155359e-01
1.431497096782467224e+03,5.392864923220453193e+02,4.209155820813514879e+02,-4.967504956286490359e-01,3.769831428052019540e-01,-7.817433435171702305e-01
1.310779312964950577e+03,1.899657828724836691e+03,1.511266561158304057e+03,6.372690557045878057e-01,8.246426849716560759e-02,-7.662165458032150767e-01
1.985752313518072924e+03,6.256634959540026557e+02,1.475015597588256696e+03,-8.093076882029889285e-01,-3.968389876351675061e-01,4.330587531827858605e-01
4.165313880601761980e+02,1.959998432887271520e+03,1.317875400102510639e+02,-3.072626398271549042e-01,7.920141884927466291e-01,-5.275444961258000109e-01
1.426738526038196596e+03,5.307437004760254240e+02,3.290026058773261184e+02,1.762291309952528362e-01,-6.243638094790069371e-01,7.609948270530624281e-01
1.758601687193169255e+03,1.175879490420922139e+03,9.150743939727441330e+02,9.089586500079598341e-01,2.299918959276253116e-01,3.477037537665124134e-01
1.760968356187040342e+02,1.367274929562100397e+03,7.960234304325946368e+02,-2.472735203838569429e-01,9.680310351970827787e-01,-4.209181645211823586e-02
9.302536453550325746e+01,5.622512927277165318e+02,1.181191723517756145e+03,-6.540410357255049822e-01,-4.853045710143044089e-01,5.802670048690782290e-01
4.705582975565625503e+01,5.098471786170859446e+02,8.418351968474557623e+01,9.976729953191973976e-01,-6.818059691681097045e-02,2.479693757839740442e-05
8.817580766745110168e+02,9.572836211769075732e+00,1.225777238658693705e+03,-1.795247523675378709e-01,-7.528107849987399902e-01,-6.332825477438606132e-01
1.657151310460720197e+03,4.123563274684631779e+02,7.044325476639014596e+02,2.986826676682580173e-01,-7.876781226299039984e-01,-5.388430561534618413e-01
1.747667011773248305e+03,2.601719453962087982e+02,9.979162207300762475e+02,8.272316496531649799e-01,-9.811925291708106789e-02,5.532272679641678792e-01
3.660023595739074835e+02,1.519545911096005284e+03,1.492704302457221672e+02,3.995871333305562323e-01,-7.510876460953899159e-01,5.255449274415600058e-01
9.854416596164556950e+02,1.873054845353887458e+03,1.939013753495810732e-01,-2.386978448481272622e-03,1.946683794963393610e-01,-9.808662112429786806e-01
1.080833300992179602e+03,7.425848480494130399e+02,5.854227503903734942e+02,2.496573456110235123e-01,-7.637607112195643477e-01,-5.952653070521103373e-01
9.849359710942380843e+02,1.622581783408006686e+03,1.224717884920230290e+03,4.358296263821899164e-01,8.812734586287814809e-01,-1.827830076457501729e-01
9.704253074602364677e+02,1.981169185128209847e+03,5.683901518411711322e+02,1.366787121569798535e-01,7.308430925058116978e-01,-6.687206470415363313e-01
1.520953811495231491e+02,7.298153968469072197e+02,5.694680495812849585e+02,1.193889821137888024e-01,-6.203595600691379497e-01,7.751775842867614230e-01
1.701006990734818601e+03,2.191972138183131449e+02,1.440415493550488918e+03,8.457862991507822947e-01,5.132562933837440111e-01,1.456485958421966931e-01
1.749133029770752955e+03,1.687703462723853818e+03,7.391347102346301199e+02,8.323149124918657327e-01,-1.510651596609512322e-02,-5.540971752490928548e-01
8.425632125621262958e+01,7.465557557296565392e+02,1.624373951497969301e+03,1.799750683339366650e-02,9.982250877009566370e-01,5.676939344575915314e-02
5.235020878889351934e+02,7.967601095035803382e-01,4.626378379114650556e+02,-9.021371473347990222e-02,-1.349241177488242072e-01,9.867405779249618369e-01
1.410970334437529061e+02,4.859282339785942213e+02,1.741674385653876925e+03,4.359377223079567987e-01,7.678185288748586856e-01,4.694816386030433719e-01
1.125444057471293945e+03,1.652891532045658096e+03,4.010326127290135787e+02,-4.454277997610987527e-01,4.085485553509416445e-01,-7.966694126930222719e-01
5.210270385148485275e+02,2.166087054261604976e+02,1.118859305515651528e+02,9.284191253179453485e-01,2.236770702603856353e-01,-2.966588882598863997e-01
1.345113620640590170e+03,9.209671799694763195e+02,1.482233707449057192e+03,-2.949246538273845863e-01,-9.555183129362810890e-01,2.049928828163682937e-03
1.489224818922932855e+03,1.003274404010799230e+03,1.410737659818055363e+03,-9.936089492601933859e-01,-3.710463207514747702e-02,-1.066044193672215368e-01
9.786185812085293492e+02,2.845750043946488859e+02,2.849916939690912727e+02,-8.795950799432901146e-01,-4.566659829499655765e-01,-1.332991948809101324e-01
1.467284571901011304e+03,1.541284629948529528e+02,1.681816316250470209e+03,-4.621752059926664824e-01,1.954934592415789596e-01,-8.649718991732606721e-01
5.263602072730890313e+02,2.559063437855906216e+02,1.524477544121603160e+03,-2.359979658287707505e-01,4.576956119600808504e-01,8.572162427982623623e-01
3.649709528234261597e+02,1.926471045328147738e+03,1.153269269300549240e+03,-2.486801991197417905e-01,6.476923225178095045e-01,7.201755438205683646e-01
9.076083702306034411e+02,4.142201918147443394e+02,1.037967328658090310e+03,-2.738996979663562148e-01,9.587526863663201615e-01,7.597527123547109795e-02
4.834734442966559698e+01,8.408040278607611526e+02,6.473788273175277936e+02,6.178397564381269413e-01,-7.491077861194336274e-01,2.389802505223325713e-01
1.654165960637787975e+02,1.866960916668585014e+03,1.616653933709512785e+03,-4.678619957276899388e-01,8.418814674469046189e-01,-2.689623537284533961e-01
7.497886811222323331e+02,1.271604437246340922e+03,1.970688676197146606e+03,-1.486236283428034599e-01,3.456455323436820604e-01,-9.265204709390251203e-01
1.844730838302527218e+03,1.102273461102829060e+03,1.074270768198335446e+02,-3.460365860270962490e-01,-7.871797797795483387e-01,5.104964989467937198e-01
1.911457549853765158e+03,1.749203197430586442e+03,1.506502970331483766e+03,5.383373093237553419e-01,6.344574453276462522e-01,-5.546680912567231170e-01
4.110197221873041826e+02,1.135929091629115874e+03,1.326087646335439331e+03,9.365637524334120556e-01,3.461812472216633241e-01,5.483504080330448005e-02
1.935454818216121794e+03,1.391023150810218112e+03,7.394795590830304945e+02,-8.903505525041791047e-02,9.350137001136795689e-01,3.432522972046669896e-01
1.056134278511216507e+03,5.795382517037854768e+02,9.633037913083272770e+02,-3.442415307506377364e-01,-4.848702427649674851e-01,8.039891890986465839e-01
2.051730504542708218e+02,9.593161715854153044e+02,8.086837807789148656e+02,-2.245218015769277764e-01,9.291510973044919686e-01,2.937144855033697599e-01
1.962033583901973998e+03,2.296211355705333119e+02,3.998157261227517552e+02,-2.805869980701000688e-01,-8.055329410665904577e-01,-5.219076713084591645e-01
1.569509873151338297e+03,7.620887496557018039e+02,1.704806575315108375e+03,-2.102244798960329342e-01,-8.944400713862548091e-01,3.946930791779783565e-01
1.257848876681625143e+03,8.444552456965972169e+02,6.159762232934662052e+01,-9.038759963365354810e-01,-3.828329252178576669e-01,1.909113265780046920e-01
1.299718852418983715e+03,1.433469473818322797e+02,1.750154267599488776e+03,-2.239256622472140801e-01,7.921784170243776346e-01,-5.677240997068011552e-01
1.767184180051370731e+03,1.672534432302826190e+03,6.538712338124940970e+02,8.107504554460162605e-02,-5.881343402687256861e-01,8.046892784091332906e-01
6.485104482541777315e+02,7.877562755403010897e+02,1.228243081163287229e+02,-5.802136602211064309e-01,7.672989147485732575e-01,-2.731382139476061788e-01
1.777400099060524326e+03,1.926104173724816064e+03,6.563984952292685193e+02,-6.182418812068554148e-01,-6.843144348774456986e-01,3.866403115819286307e-01
1.739975252685356963e+03,4.282038315392597951e+02,1.495428005301560233e+03,5.509263398533226219e-01,4.375217630688526538e-01,-7.106721289715420831e-01
1.052636232089421128e+03,8.858316626725102196e+02,1.556361135509141150e+03,5.800478764132042109e-01,-7.640227087945893336e-01,-2.825132944034851601e-01
1.958250987148979902e+03,5.552560045605146115e+02,8.300140727695901433e+02,7.051618113710450553e-01,-5.479315902755276246e-01,4.500197686347102710e-01
1.516264565558100685e+03,1.766807303935543359e+03,7.338964763002335303e+02,-9.726905047108314051e-01,-2.159465068167303881e-01,8.508988329431455000e-02
1.790367759448255356e+03,1.201654952252267094e+03,1.939877075432007587e+03,-7.631777668292797356e-01,4.494574875033182648e-01,4.642711095304963287e-01
1.844641564834087603e+03,1.237000767853946627e+03,1.419857206836723890e+03,-4.876846439303101910e-01,8.112356067172467045e-01,3.225840641889601290e-01
8.156259252008406975e+02,3.015396122634674612e+02,1.652667095442030814e+03,-7.373791569806377177e-01,5.282966018345828241e-01,4.209212270016282620e-01
1.751598679772099104e+03,1.278127812076054624e+03,1.993205639963092835e+03,1.951222739597262973e-02,6.026007784997935435e-01,-7.978042208045095229e-01
1.489483551519389493e+03,3.191506189140847027e+02,1.763319067870031176e+03,-9.863691712213629170e-01,-1.636626536265264331e-01,-1.704094692220503929e-02
1.228107271463253937e+03,4.552295781901345322e+02,4.270081786940311872e+02,4.668653376300895830e-01,-3.961435002299786845e-01,7.906371378483831869e-01
1.664607919172203992e+03,1.804597680039111992e+03,1.023895316184947319e+03,1.059388003378969462e-01,-9.440423321037972881e-01,3.123476361027742176e-01
9.182328392853585228e+02,1.146904463965416426e+03,1.148118863460877947e+03,4.376912540591212236e-02,7.279224496695604341e-01,6.842610400485094058e-01
1.624674219436667727e+03,1.594064722289949486e+03,1.615415637983968509e+03,-6.537065927732994552e-01,3.727819174707438510e-01,6.585600447731088103e-01
1.510491032293717126e+03,1.539531138683366862e+03,1.917209245851071728e+03,-2.863541750592435431e-01,-1.233499757229891691e-01,9.501505511840100393e-01
1.671050653372843044e+03,4.399218479133140249e+02,1.532796178921787941e+03,-6.607801132556437862e-01,-4.288848582499391049e-01,-6.159768017464524181e-01
8.836876056043536209e+02,1.729101305615995216e+03,1.086964372283539205e+03,-8.704804018846424851e-01,4.919882534388300699e-01,-1.454057815084697225e-02
7.242989198537885613e+02,1.856307163882777616e+02,1.131276999352109669e+03,1.070043687071585842e-01,-9.537228272387122674e-01,2.810032631151813676e-01
3.741215103509252344e+02,1.500487901558232579e+03,1.097718800861572845e+03,5.983893374227831075e-01,9.410902661386293111e-02,-7.956592813312202139e-01
1.380030058529850066e+03,1.865576700888271262e+03,1.932994401360439042e+03,-2.277629513743505418e-01,8.174235570980301624e-01,5.290961786692933710e-01
4.621922550736512676e+02,1.501380743303343479e+03,3.317340589590558579e+02,5.820608818227351877e-01,-6.309492017969535738e-01,5.129407710482053462e-01
1.312696765170084916e+02,8.977840414915914380e+02,1.675657222759634806e+03,7.455342429403477578e-01,1.842423422099222496e-01,-6.404946931398920462e-01
1.138664774967454377e+03,1.170313345925307885e+03,1.579813283732888294e+03,5.502373218357879958e-01,2.208623496757432247e-01,8.052693413726175198e-01
4.001837261367853102e+02,9.303030633099172064e+02,1.829358839312298244e+02,-1.583536125605794209e-01,4.782515444121617221e-01,-8.638284515205527647e-01
1.951083955774992319e+03,1.527440063566789377e+03,1.481825921097801313e+00,8.740252571729923980e-01,1.215500802346488468e-01,4.704311084724679404e-01
2.102801656906039085e+01,2.982539975345242169e+02,1.375011050322046003e+03,-6.306850953525896530e-01,6.625654977504896737e-01,4.040337506827131886e-01
1.694608410849277107e+03,2.607150288831001603e+02,1.748146323234880413e+02,-7.956544499814812710e-01,5.489239865578714461e-01,-2.561570869721945809e-01
1.508336371888893609e+03,6.435724011047842623e+02,1.600288623834999044e+03,-5.666568750387507292e-01,-4.692266819072551942e-02,8.226167085472921858e-01
1.831896043430905081e+02,5.473546076099329412e+02,1.773295629091709088e+03,-6.234308028429722537e-01,-5.942700759274786027e-01,-5.081113174528941734e-01
1.887450718684287096e+02,1.798737062785752187e+03,1.355416649162275462e+02,9.180148105998543473e-01,-1.632038167543669316e-01,3.614046509331620971e-01
6.518174409167512522e+02,1.468803327359973139e+02,1.159474094094686734e+03,-5.586806407838929012e-01,6.853868618218740272e-01,4.670340365061866894e-01
1.133182816396917133e+03,6.821283479665973459e+01,1.841388906097532981e+03,-7.051629348015024945e-01,6.671962279283297770e-01,-2.399883930950414967e-01
9.685558039936279329e+02,9.021375885266063506e+02,1.279713430688693734e+03,-8.042426509704024840e-01,-1.445358194565011800e-01,-5.764574184223298925e-01
1.077553399965809831e+03,1.417522275016132880e+03,1.197072983926275811e+03,5.299678277878426824e-01,-5.028947680644221263e-01,6.828110673995163582e-01
5.171879890441539374e+02,1.093123108386446773e+02,4.577837355376623805e+02,7.900496521607790479e-01,4.249762125055945861e-01,4.418334142242206219e-01
1.541536654851527146e+03,8.886503547455573653e+02,5.802414753846425128e+02,7.259957733183886042e-01,-6.245028151101978953e-01,2.879693925459319015e-01
3.927440800470018871e+02,1.425585259067941251e+03,2.078022165105746240e+02,-1.947239688879617570e-01,-4.192395806475128217e-01,-8.867472864119843035e-01
8.859817760424748201e+01,7.390604554667201853e+01,9.308210174666724015e+02,8.557169257715748767e-01,-4.197549103730610631e-02,5.157388884893421288e-01
1.584760450541054524e+03,1.590491728359379067e+03,1.744485418684336537e+03,6.230140223760003426e-01,6.883677646129928718e-01,-3.714880194092238241e-01
1.134926675335812433e+03,8.293078536017419538e+02,1.172833543719415985e+02,-6.505783109081129945e-02,1.477261307223266817e-01,-9.868862492281313958e-01
9.514472546207388177e+02,1.847223729404396636e+03,8.333689721213237362e+02,5.101560706594870931e-01,-7.481762991680932506e-01,-4.242322582411766629e-01
1.831168044899970255e+03,1.726823686568445055e+03,1.277638376336213241e+03,4.777405318567325976e-01,7.255287576478801626e-01,4.953503871474915776e-01
1.803915355336446282e+03,8.230675543692533438e+02,9.534681063936956207e+02,6.450722203828437307e-01,6.227400055102156884e-01,4.428055058685296252e-01
1.626295326572856993e+03,1.354683719841111042e+03,6.433014520492693009e+02,8.310447472373158062e-01,-3.631046552705720631e-01,4.213307933323944265e-01
1.116835842247060100e+03,7.620977937128292297e+02,9.114937241249709814e+02,6.429594590273169930e-01,4.919077297284208949e-01,5.870518882353849000e-01
1.409238132422077342e+03,1.729455736752650864e+03,1.563360107885746856e+03,9.268243035574174060e-01,-3.501435641012500821e-01,-1.356325729822380755e-01
9.249684637910470997e+01,1.937564605296064997e+02,4.014732438441561726e+02,1.645955578961774690e-01,9.832594515365877808e-01,7.816107269488292708e-02
1.867737448561124225e+01,1.491801857589348174e+03,1.938015644484070435e+03,-6.304135494912809223e-01,-6.210991288152187817e-01,-4.656335778300149109e-01
6.539148358592681234e+02,8.662531438256753518e+02,1.468817692229576323e+03,4.181815810747778750e-01,5.300221010525648646e-01,-7.376996256238874672e-01
1.932721196779718582e+02,1.831968062232677994e+03,6.917868169433938874e+02,-9.479881143680300992e-01,-2.896762795024606651e-01,1.319325134701798685e-01
1.360664446141748272e+02,1.149779185450161776e+03,6.781051539034807547e+02,-3.265042891400932734e-01,9.051532934738052427e-01,-2.721993102244122942e-01
4.688158590676967492e+02,5.886123993808384967e+02,5.709891810899055145e+02,-1.136886671899722950e-01,1.186252755853407920e-01,-9.864091093176652336e-01
1.748752425040812341e+03,1.443645262806854817e+03,1.190614209054678668e+03,7.097660276325156170e-01,-5.082574317326873370e-01,4.877566699772046821e-01
1.181512634257055424e+03,2.485184872509020977e+02,8.091653030443754915e+02,-7.883676942625059691e-01,-5.945949715860355811e-01,1.579024965218143173e-01
4.110006421510503856e+02,1.326302655126001127e+03,5.128582813229007797e+02,9.711016060696519014e-01,-1.729416599759603379e-01,-1.644775149791060376e-01
7.240463307510802906e+02,8.791368969298864613e+02,8.133557977831328856e+01,-7.180717231912444598e-01,-6.657484617218145662e-01,-2.028595229911436260e-01
1.746825455577553612e+03,1.282373115630353823e+03,1.113911889358661938e+03,9.169922757557783521e-01,2.828403702344826076e-01,2.812943141442061368e-01
1.947258927962120197e+03,1.502543278158934299e+03,1.779682725868452053e+03,-8.079725721767710978e-01,-5.824322448999385005e-01,-8.917960927740420374e-02
6.085103308800025843e+02,1.050941141502185246e+03,3.819346178559852660e+02,-8.185117117800571052e-01,-5.556330310697071839e-02,-5.717965521290973019e-01
8.909742173499626006e+02,1.993401342707162939e+03,1.645365962299812509e+03,-3.083546279068313245e-01,-4.592351882384865247e-01,-8.330789070262201168e-01
2.359117045248779618e+02,6.973545255852255877e+02,1.354333635864981261e+03,9.571201337453376645e-01,2.713169496345285148e-01,1.015291210457454213e-01
9.551900472200110244e+02,1.713552449736796916e+03,3.753080231099561388e+02,-5.511883302571352061e-01,-5.549279006442271733e-02,-8.325334676991773541e-01
2.778879797969491250e+01,7.870917938153266391e+01,1.872656714627161136e+02,1.777277253313211403e-01,3.528514501122562708e-01,-9.186450401554631107e-01
9.535052399330190838e+02,1.959539465723218200e+03,1.414742680326830282e+02,-5.973681520705611536e-01,-3.212075715854182389e-01,7.348312642015183416e-01
1.114272207062698641e+02,1.983070428432074266e+02,1.726189435493908377e+03,-9.239261994453340510e-01,-3.557312655119281852e-01,1.407680528947627963e-01
1.284505608232878785e+03,1.695328962875168145e+03,1.992252382198067835e+03,-3.729429031763468183e-01,9.181140183111174968e-01,-1.340904185652767311e-01
4.560501926220139808e+02,4.521971694670949660e+02,8.672872173303977661e+02,-4.943558152933832384e-01,-7.870152524023493745e-01,3.690790164337180990e-01
4.336293761410476577e+02,1.457412757465643381e+03,1.590507654838180542e+03,-9.693340407278687731e-01,2.123869036008619315e-01,1.236257281678074804e-01
9.290570208747594450e+01,9.276642955458210054e+02,1.308604160450436893e+03,-6.618003565320214054e-01,4.811463473559319803e-01,-5.749073669036901535e-01
1.909807913304391832e+03,1.754890257162063790e+03,1.748099296257028982e+03,1.709252256004727133e-02,-1.151497501872270485e-01,9.932010776798188001e-01
1.679774681330264457e+03,3.324964970720489532e+02,1.778174159379620505e+03,-2.235155360179799933e-01,9.196819428675224728e-01,-3.228404081307267859e-01
1.579966341804212561e+03,1.421094870305919812e+03,1.408296260014637255e+03,-9.760744950388906549e-01,2.074143511687591424e-01,6.525233378061900957e-02
1.383154414292296906e+03,4.716363905565643790e+02,1.507616416590193921e+03,1.938047239246303843e-01,-4.471034810492035549e-01,8.732343363715047158e-01
6.839584030327405344e+02,1.467036267810719210e+03,1.956746578371282340e+03,-8.772161845110452161e-01,1.164620098587982183e-01,4.657556933538580246e-01
7.553982801289109830e+02,1.283381264977930186e+03,3.008940370862633884e+00,-2.133250422899709564e-01,7.370557776449438991e-01,-6.412809111241259963e-01
1.653231703088180495e+02,1.042740248590711417e+03,1.962303976292197149e+03,-4.426888917311842808e-02,9.791040504085136709e-01,-1.984830570225604440e-01
1.231167073545507264e+03,1.509667245293089266e+01,1.972410209946239775e+03,-3.328673442973215102e-01,9.427131776980953726e-01,-2.216293515777012155e-02
5.711215624290624646e+02,9.270878625723865980e+02,1.303642142652517350e+03,-6.404727235634430915e-01,1.337979255494226305e-01,-7.562359456478492392e-01
1.921036080745062463e+03,4.277898403193036359e+01,1.664958421022413631e+03,4.762275488483151409e-01,-4.254896488820836264e-02,8.782920398733371492e-01
2.585028161549793708e+02,1.772040387888810301e+03,3.057242587916577463e+02,-6.175042295540846826e-01,7.354357754535955083e-01,-2.789672860135845589e-01
7.096084877082602134e+02,1.086003129657620093e+03,1.570340333154878181e+02,-8.379116392883353415e-01,-4.829654259381627179e-01,-2.542606577776118648e-01
4.859758905839282193e+02,6.255581651153081566e+02,1.490677023670083940e+02,-6.627386876020696649e-02,7.854382676348642400e-01,6.153815906039912242e-01
8.108257318787206032e+02,6.094712725763065464e+02,2.554760939588227586e+02,-2.577200519507069632e-01,-5.603788460882729305e-01,7.871187481436969779e-01
1.848618537467381486e+02,2.469900321710580897e+02,5.528728027307583943e+02,2.644103412738310066e-01,3.415260394355991158e-01,-9.019130422689816129e-01
1.871958805029876203e+03,8.681379713626222383e+02,1.418280908970279143e+03,9.790565741778013420e-01,-1.472311474225364569e-01,1.406101482392743129e-01
1.478210166656888532e+03,7.008133897144464299e+02,1.982424207161138611e+03,9.472101461864478322e-01,-1.270251851883309191e-01,-2.943765297867995123e-01
1.195473319954229282e+03,5.489591340316479773e+01,3.710640988982143540e+02,1.217534163455410712e-01,-4.454760200999113295e-01,-8.869764490245120037e-01
1.572918871340381429e+03,5.590369807958994386e+01,5.104125061128344214e+02,-8.400814631402719890e-01,-3.610722833899602802e-01,-4.048332267189294065e-01
1.774801929204790895e+03,1.274754880086660705e+03,3.229240607236390019e+02,2.438060316185039489e-02,-3.232180108021335263e-01,-9.460104141512271081e-01
1.157258299100142267e+03,8.282100957327201058e+02,1.179630176195604690e+03,-9.254093545055123160e-01,3.286271129468216756e-01,-1.887372438866479207e-01
9.846890210706525295e+02,1.182067819097458710e+02,1.953579415831123470e+03,-5.103616535923706232e-01,4.848092502512282298e-01,7.102752800240925701e-01
1.865748653279193377e+03,7.959306834015497998e+02,1.889545398735325307e+03,-9.073760350913184086e-03,-3.437224454015517794e-01,-9.390274476288067440e-01
3.876702252574697241e+02,3.257335505849214883e+02,1.182156571302748944e+03,-8.550616378145695640e-01,-5.169331574476582203e-01,-4.061657628432535638e-02
5.554741395400417332e+02,1.393447214592486887e+02,2.159934453185550183e+02,8.891354936445424739e-01,1.488652966763460150e-01,4.327553551221977046e-01
1.995095469089790413e+03,1.122151781238531612e+03,1.124195625920366638e+03,-1.379026399973146133e-02,9.439547788222742986e-01,-3.297866039690042772e-01
4.543507089921438933e+02,1.417520151754765436e+02,8.501024665681544548e+02,-1.036651008500065196e-01,-6.079667166980280424e-01,-7.871658136969478248e-01
9.807233173990362047e+02,3.911665644997470963e+02,1.361653017819347497e+03,1.386175728092975956e-01,7.368862943957213973e-01,6.616522936106254971e-01
1.672412276619844079e+03,1.705478398575730807e+03,7.434811255931268761e+02,9.578376239407041526e-01,1.000394422490905044e-01,-2.693310159601323139e-01
3.085411881772928382e+02,2.253590762670190202e+02,1.066762585096960834e+02,4.275005720026869294e-01,6.370304201475770478e-01,-6.414323851692997902e-01
1.964864909038407859e+03,1.316609002997542802e+03,7.739881431649254182e+02,4.628983122618259283e-01,1.415956423932357156e-01,-8.750290432667935381e-01
8.455596118532357650e+02,2.165204631905746169e+02,3.340682760543629684e+02,-8.369953170398424236e-01,4.117748908915249140e-01,3.603890654343531175e-01
7.840193198594070054e+02,8.951163386103911535e+01,5.420522453245140468e+02,-9.645047713882697327e-01,2.639935752990006934e-01,6.159396895189628296e-03
3.204606633835178400e+02,1.020088472825990493e+03,2.830540621130948011e+02,-6.613509799673681355e-01,4.202973663405486504e-01,-6.212608189346890963e-01
1.124655051726578677e+03,9.104636393500868508e+02,1.884193315495101388e+03,7.497620860099257767e-01,5.676827844041480997e-01,3.399898096608167108e-01
8.406584991613108286e+02,1.001263946222862955e+03,1.311611082904285695e+03,-4.940067213082618980e-01,6.007203226585084987e-01,-6.285638020498148792e-01
1.229565929303001667e+03,5.711142904203256876e+02,1.005546911013026374e+03,-8.054148312130666731e-01,-3.938777135525557416e-01,-4.429077741794991141e-01
1.678321917311431207e+03,1.371825611550614440e+03,1.632255637549997346e+03,2.860804321394148086e-01,6.633060068835030521e-01,-6.915078651607571292e-01
1.227965178172587599e+02,1.076117036744784400e+03,6.719940023711093318e+02,1.182115296926063569e-01,9.288492350994428381e-01,-3.510913452406854152e-01
1.374146692115539508e+03,1.505562384977873762e+03,6.765668319450435320e+02,2.927978263625265476e-01,-9.542652393679345035e-01,-6.039276290615137183e-02
4.595634356519240526e+01,5.679449708971940254e+02,1.908789663697136575e+03,-2.924597529488480174e-01,5.720466179255990768e-01,7.663093108040528456e-01
9.583501637338207502e+02,4.041374415732283865e+02,5.428988162368211761e+02,8.037376848123990447e-01,2.926504116994912419e-01,-5.180361672166557963e-01
1.809165775047452144e+03,1.051514928358526276e+03,1.090912945811062855e+03,8.024309354566715458e-01,2.408064418221699809e-01,-5.460007796689276827e-01
4.302513856232878879e+02,1.746786830818712133e+03,1.976657219572416125e+03,-2.476177833027504993e-01,9.212963325191764197e-02,-9.644675028579756670e-01
1.072927127024137008e+03,1.233045637278163213e+03,7.919995224016560087e+02,-6.661763938983207289e-01,-3.955266015887103359e-01,-6.322718716251063409e-01
1.787955330032706343e+03,1.288821594795309011e+03,1.890885285114316616e+02,6.855827685091818724e-01,7.207070909221293675e-01,1.027499713763813244e-01
5.310978031842677183e+02,1.525816603143139673e+03,1.396441891751751655e+03,-3.260567338723770886e-02,9.925132619532405220e-01,1.177042688686482791e-01
1.859501987217016904e+03,3.706384061638814273e+02,1.468414814299812178e+03,-3.236991631082675736e-01,-5.840705584687576613e-01,7.443657935000781434e-01
2.583319927433522594e+02,1.030065982745373276e+03,2.606163623476778071e+02,-7.503768900265990194e-01,-1.123056576436879256e-01,6.514000016696561701e-01
1.136253466898423312e+03,5.212747608912229680e+02,1.168940409363695380e+03,1.631570784731894708e-01,8.284601329097962541e-01,-5.357551454938873636e-01
1.670831566480282163e+03,1.289541540922473814e+03,1.883814823891791832e+02,-5.258868073463602855e-01,4.333810145835791383e-01,-7.318633493061117434e-01
1.782441203682583364e+03,1.782582975958432144e+03,5.964820204754373378e+01,-6.228318126786224207e-01,5.262037049606188566e-01,-5.789561244180595478e-01
1.913831267072473111e+03,9.554360904916608206e+02,1.628438586741361632e+03,3.841658696780961280e-01,-9.120344050650174283e-01,-1.435612362449279200e-01
1.919207295469974270e+03,6.732000132908677870e+02,1.533188808928113531e+03,2.003041869529086083e-01,-4.988305750985778109e-01,8.432356076660640909e-01
1.896596477563585950e+03,5.813658054140487366e+02,8.802931189165473143e+02,4.416511677431669280e-01,-4.291636932612263311e-01,-7.878849982183194767e-01
1.810489760498594705e+03,4.077151431906793846e+02,6.992116305279467952e+02,8.176833839189375785e-01,-4.315834919618068422e-01,3.809587551545817186e-01
6.801870359775087991e+02,8.008691981619308820e+01,6.635014349695718465e+02,-1.226988432650769206e-01,-9.912980447694251795e-01,-4.767788059181100185e-02
1.261808207865655618e+01,1.534689244918085933e+02,5.635810926877376232e+02,-9.723514184381260028e-01,-2.223912912980443302e-01,7.123785942989036002e-02
1.767274835840775268e+03,1.454704090068568576e+03,2.719227266596275854e+02,-8.476967290508831132e-01,-2.827071084191989589e-02,-5.297273095328637327e-01
1.617240087686337347e+03,8.386710726140904626e+02,1.882325114252315188e+03,-7.679277041429847239e-01,8.337628848628220180e-02,-6.350869513129180355e-01
1.314720827358613064e+02,5.584633265788671679e+02,4.055458508287686072e+02,-2.398052177882002423e-01,4.816441896940028972e-02,9.696255185724507175e-01
1.707850818550381064e+03,2.079371664826663562e+02,6.998871254220504170e+02,7.241827156534413890e-01,-6.895764757365663300e-01,-6.608968114889979262e-03
6.738978586343378083e+02,1.563897190068701320e+03,1.717434672415187833e+03,2.836305476276827497e-01,8.533148436362504308e-01,-4.375014172348044572e-01
1.128278666080477478e+03,3.091511166997278224e+02,1.484345062510956268e+03,-7.597951307798166409e-01,-5.868689252915948451e-01,-2.798146239394397328e-01
1.181030732841901454e+03,1.466852022109308109e+03,6.913486753815263910e+02,-7.665397917620556667e-01,3.786936996314714809e-01,5.186596470758191302e-01
5.987052751924663880e+02,1.482117837656295478e+03,1.834169727754157066e+03,9.901837257747303500e-01,-8.115610328942349239e-02,-1.137975224236012078e-01
6.224704985473749730e+02,4.662105963682600986e+02,7.178720080752938202e+02,-9.813298732728168439e-01,2.529623917170051653e-02,-1.906614279452596705e-01
1.681996669514174300e+03,1.181480434918695863e+02,9.061440240143281244e+02,-8.788574545028124962e-01,4.545514033958049649e-01,-1.448882201413946025e-01
1.879603620338973769e+03,6.606428321910156001e+02,1.897936284286742875e+03,-8.216952405346626964e-01,-2.579102366525435341e-01,-5.082314841806947481e-01
1.761243391985040262e+03,1.563397379559963383e+03,1.931522517975098253e+03,8.242373801000317801e-01,-5.569293253367801899e-01,1.022862054519315805e-01
3.380201923957024519e+02,6.132143028417269193e+01,1.521561003517304243e+03,-2.228618031783113351e-01,9.078199472667525249e-01,3.552401441682828676e-01
1.378920442840514170e+03,1.498905030793772994e+03,1.116564019591021406e+03,-7.774673741691491280e-01,5.350989974356494816e-01,3.304747267884355910e-01
1.064802563502571957e+03,1.789678403360022230e+03,1.479419110126574878e+03,-1.892981438357280444e-01,-9.808507677914489742e-01,4.580375599525599029e-02
6.099273021372497539e+01,2.661643643110722905e+02,8.106937600062276488e+02,-9.428830452048393707e-02,-6.245378532724196186e-01,-7.752820038286263316e-01
