x,y,z,nx,ny,nz
5.742338331862788436e+02,1.675631157145083534e+03,1.697648733076368899e+03,-1.394745791287393955e-01,7.676308504293634094e-01,6.255315493609840960e-01
5.805040560663767337e+02,1.372738638519828783e+03,4.702230796283337781e+02,2.329594550185578594e-01,-8.422972914276619649e-01,4.860711523749181584e-01
3.490193044148406329e+02,5.250507284475012284e+02,1.134424795509721434e+03,2.682943455965944857e-01,8.407392982140868831e-01,4.702930751769368034e-01
1.817199438189087232e+03,1.464453209474456571e+03,1.776833849226373559e+03,-6.092357390620316976e-02,3.929219081571602157e-01,9.175514657133034824e-01
1.801235679567232182e+03,7.790387361669088477e+02,2.158253563333936142e+02,-9.602226033859085907e-01,1.303022243367101263e-01,2.469693954312837114e-01
1.832359451460547007e+03,9.596281302814924175e+02,1.982353871452314252e+03,8.368858160094437837e-01,3.291029799422525159e-01,-4.373938266086259130e-01
5.924854459530101849e+02,1.847607292800369578e+03,9.692291046338259548e+02,6.870022498909372777e-01,6.152253479887447307e-01,3.866855050773410629e-01
1.357765811526458265e+03,1.904553492474935410e+03,1.640004675760841565e+03,9.081620871499671011e-02,-5.806792543236849458e-01,8.090513085291459738e-01
4.761380225079139450e+02,2.447532122610147667e+02,4.810405310456235952e+02,-6.788599085345914386e-01,7.165869056169461571e-01,1.601637639503273036e-01
2.493875195612804703e+02,5.623712496635592970e+02,6.708449140544663578e+02,-8.532847987789375921e-01,-3.725041623024291648e-01,-3.648913553924697517e-01
1.689629244829897061e+03,7.597966905242464009e+02,1.875990070940804571e+03,-8.608014663060762350e-01,4.499340287867470978e-01,-2.378659398590639018e-01
6.852798390434835483e+02,1.649211995356847353e+02,5.076075483217061901e+02,-2.621133321816997430e-01,4.588933020272347729e-01,-8.489484898668158142e-01
1.291613023537977824e+03,1.492535447639258336e+03,9.770250709594963610e+02,-5.594498641913654424e-01,8.281281193685456898e-01,-3.492373644641388886e-02
1.986733518236005466e+03,1.284616343944891241e+03,1.692419638212120162e+03,-8.247835710158302192e-01,-5.078191388514701199e-01,-2.487001873713135247e-01
1.898070717831981256e+03,1.215493522600926326e+03,1.788224028778263573e+03,8.371384416480903701e-01,4.934474400914596326e-01,2.360272301709958054e-01
1.186225075586713501e+03,1.831215678589144773e+03,1.313497730059449168e+03,-5.233678925640523616e-01,-8.007486611246426023e-01,-2.913548193185673818e-01
1.944115715845160139e+03,1.214653791477159075e+03,1.614785038423227803e+01,1.375217987989530155e-01,1.789672381095476772e-01,9.741963264858581883e-01
1.929307495060326119e+03,1.344706761267179672e+03,1.364801625317154276e+03,-8.044703949471552207e-01,5.791082124651544261e-01,-1.321403114457571082e-01
1.522497043859331370e+03,7.283240329815316727e+02,2.481113233959713114e+02,4.975390899851995785e-01,6.324023246401101472e-01,-5.937357608620894567e-01
5.358518457134335904e+02,4.623915441341113137e+02,1.310154960932949280e+03,3.043421764582879829e-01,-8.652274381628535238e-01,-3.984436219577092708e-01
1.178936947920997227e+03,9.528166519108980310e+02,7.529324822954462206e+02,-2.650213803339201979e-01,-9.569890996131927841e-01,-1.180488508518158369e-01
4.630098012409926582e+02,1.399189362533412577e+03,1.417699167408459289e+03,-7.140558727793022697e-02,9.869237269667092693e-01,1.445088206845319689e-01
1.066879001964850204e+03,5.273299056749353895e+02,1.478896619032917215e+03,-1.615594458042159676e-01,-8.290089383099544795e-01,5.353902554899898636e-01
1.786729542740326451e+03,1.105232692649346745e+03,5.641026851685957126e+02,6.885388622268646674e-01,5.008438915613739884e-01,-5.244708109027549359e-01
1.530398407985246422e+03,1.220523010783986365e+03,2.648138597468643525e+02,-6.232427411777278353e-02,-9.133807157726386849e-01,4.023075352393425952e-01
1.094651289082470612e+03,1.541999903995521208e+02,1.197162109609153504e+03,-1.564526292645223582e-01,2.207073863886880039e-01,-9.627101455732625102e-01
1.257554801761270710e+03,7.497799780941855943e+02,1.827602814421587482e+03,8.742341977351169025e-01,-4.135651214647295681e-01,2.543195977865255752e-01
1.308499173724669845e+03,1.285561719808942371e+03,1.036017811666607429e+02,4.926583200116613215e-01,4.879154207933210641e-01,-7.205736061467724607e-01
1.974844876603761122e+03,1.343544887258826520e+03,1.442067180063453407e+03,2.239992611792178956e-01,4.897813654603717093e-01,8.425785097181972549e-01
1.046787737733770655e+03,7.583053406487819075e+02,1.491984873672967524e+03,-6.610810699374869426e-01,-4.535076542285338963e-01,5.977479623774890616e-01
1.702826486031454579e+03,7.230324700037700723e+02,1.671646973370036903e+03,8.586967517738882671e-01,-5.104651398998631961e-01,-4.544479552145253703e-02
1.229603693536204901e+03,1.959291434530204469e+03,1.022004839999316914e+03,-8.090382589157428805e-01,-1.419892719987311258e-01,-5.703473873420074058e-01
1.938665145762114435e+03,3.562509835877165756e+02,1.245904914775564066e+03,7.084150648818526852e-01,6.957054459288645187e-01,1.189202604830661425e-01
1.159556137576033734e+03,8.697861243306770120e+02,1.905687949724849659e+03,-4.242773793004599447e-01,-4.566148583498412794e-01,-7.819792686178375085e-01
9.940990557434388393e+02,7.356897557135828265e+02,1.372491818954579912e+03,5.477018121471014522e-01,2.961846628636249368e-01,7.824943261488496171e-01
1.469557187513416238e+03,5.779104138007400024e+02,6.723376941771748534e+02,3.518555872666379036e-01,2.928740140253814905e-01,8.890570609459833573e-01
1.917315238081687767e+03,4.613573336651333534e+01,6.415258523486011200e+01,8.847520995368214347e-01,4.526188455333633454e-01,1.111301175794927737e-01
1.584568958387498697e+03,1.119710900982963267e+03,1.161231530893210902e+03,4.359895118179530904e-01,3.369358782649918282e-01,8.344982681363344312e-01
1.283189829145073645e+03,1.375505414082070502e+03,3.191059883777369777e+01,-5.274868464989115324e-01,4.131733592312293868e-01,7.423243239933710047e-01
1.272512730645972624e+03,7.947964261649614173e+02,1.880269182772691011e+03,-3.858348006491765236e-01,3.957789227296582002e-01,8.333609967660842166e-01
8.132620426714601081e+02,1.985588955174065859e+03,6.097921650078864104e+02,3.179698482915233604e-01,9.480638976047012223e-01,-8.367893166642438943e-03
1.905070975209909648e+03,8.033660440251952650e+02,2.568418306316089428e+01,2.086924893824979033e-01,-9.495636911797005197e-01,2.340432465774613391e-01
2.052902565223069189e+02,7.224541456953188572e+02,1.576176472425139536e+03,9.901569467893662768e-01,1.259990820297108294e-01,-6.093810017083290537e-02
5.312398944051916487e+02,1.098436797803425179e+03,8.515027290879994553e+02,-6.272743868817789448e-01,4.875504175108831273e-01,-6.073067050074878459e-01
1.076724445356789374e+03,2.995091523089583347e+02,1.995299247813655938e+03,-1.014477833155259384e-01,-7.462160761504669226e-01,6.579285029203147950e-01
1.906408338269975047e+03,1.946867994661375633e+03,2.351659206448155714e+02,5.833797242203765387e-01,6.431707196482756572e-01,-4.959833895965435335e-01
1.582645031927049558e+03,1.968093393328138518e+03,1.062667775670471656e+03,-4.276694938230217458e-02,-9.867040299237627154e-01,-1.567996982546147056e-01
1.022221873048106772e+03,9.799540913782001326e+02,8.094422256631157779e+02,-9.182937556968169268e-01,3.774020088238675963e-01,-1.196005935768893608e-01
1.869054269980724939e+03,1.040747678284295716e+03,1.377423615807718534e+03,1.900372271196915375e-01,-9.775213590479493453e-01,-9.131180051728771119e-02
1.693276132621104580e+03,1.917235912595686614e+03,2.608974613906709124e+02,9.594912676668113649e-01,2.523459262334941111e-01,-1.252918224965033911e-01
1.046149394775262635e+03,6.453488528314022687e+01,1.812453930564747907e+03,-1.000645358264381918e-01,5.201947025083538678e-01,8.481654084859182596e-01
1.476705485986944382e+02,1.309048187350270382e+03,6.287259318351241291e+02,-1.039550216664828219e-01,2.914938183285315509e-01,-9.509073074419893690e-01
6.893690571495069719e+01,1.758087497056884786e+03,8.351239887119652394e+02,9.782515446229205214e-01,-2.061136784276100531e-01,2.326084710215736706e-02
1.437455645502938069e+03,1.452430948214605223e+03,1.675170555767282622e+03,-7.539056934996209991e-01,-5.992903484011697923e-01,2.692160537970573753e-01
2.536756649059506117e+02,1.962371522763286976e+03,5.037469434605399670e+02,-6.028989838075388130e-01,-5.937340201133083362e-01,-5.329096815445623081e-01
1.092550400884412738e+03,1.742668623533918208e+03,1.150323559407273599e+01,2.476469697815946447e-01,6.740234153936883743e-01,-6.959622215745775442e-01
7.215460546176128673e+02,1.294283827169288315e+03,8.378786297106341863e+02,7.887913726989004282e-02,-3.057759267680351667e-01,-9.488304191543961430e-01
7.847544891375362113e+02,5.609503471167764701e+02,1.736118859384593861e+03,7.867623097746296867e-01,5.637809453785500580e-01,2.513088011713042746e-01
1.980032136030776655e+03,5.060682268654972518e+02,2.408382632707775031e+02,4.587143939021742223e-01,2.124385832857776102e-01,-8.628157121648241112e-01
9.348070660408919821e+02,1.811808314269545917e+03,1.895086995499681734e+03,-4.311467235041453461e-01,3.931402179165496280e-01,8.121288517644031923e-01
1.200565696054534044e+02,1.542183112566440741e+03,5.513144537155800435e+02,-2.302384657452076766e-01,9.212058273559815547e-01,3.136400365652864952e-01
9.212661960894288313e+02,1.221053969672412677e+03,6.533329448831354966e+02,-7.178479445842239626e-01,-3.053918347591793592e-01,-6.256437929993609037e-01
7.673455445017958709e+02,1.919028065840763475e+03,8.875033807420655876e+02,-7.456714239635509056e-01,6.280436162450832027e-01,-2.225653692243454718e-01
5.904143324237194292e+02,1.242910445849873213e+03,1.058943940791127943e+03,2.533847770585572756e-01,7.378648348708430338e-02,9.645474117997494545e-01
7.010992647166192455e+02,1.608966609221489080e+03,4.032409028237866551e+02,-4.460294695973420209e-01,7.867960362436637878e-01,4.266259598312942547e-01
3.544297505315807939e+02,3.470716573896925752e+02,1.821407856047605492e+03,-3.962953311105585352e-01,9.141528766207074330e-01,-8.529084772739925491e-02
1.073301392246590240e+03,1.343897657330316179e+03,5.641780825655820308e+02,4.942786321398917604e-01,6.174650408273152369e-01,-6.119032253273710698e-01
8.180995096444494266e+02,1.283008557589057773e+03,7.768962619237585159e+02,3.076975827464371593e-01,9.223148154427557310e-01,-2.337896036756019758e-01
1.103708412109398068e+03,2.736421891393299006e+02,1.511788003951574183e+03,-5.027629422305346374e-01,-2.325454663010024792e-01,8.325575235517036488e-01
1.942397617726168392e+03,2.471005288555072639e+02,3.819041983890139136e+02,3.077375738196840849e-01,-7.848852295127509704e-01,5.378222402916142952e-01
1.896853303442613878e+02,1.277433626758439914e+03,6.869323484941641027e+02,6.519817715185309837e-01,2.794640199897923671e-01,7.048543332765309088e-01
3.359915971905163019e+02,1.893594582682149621e+03,1.946174081169230021e+03,-3.421634213454690099e-01,-9.237002604393810268e-01,1.723427455896617833e-01
1.805784324207341342e+03,2.354015162609877052e+02,6.644239484844041499e+02,-1.241421915042465463e-01,8.025174236022879493e-01,5.835704765521203541e-01
1.966060034601269763e+03,9.487853766338070045e+02,1.150807654393314579e+03,5.024387800054610498e-01,6.667659768030381739e-01,-5.504347413858561300e-01
1.537868905518286738e+03,2.654209028506002710e+02,1.862816567922147669e+03,-2.892186121384025532e-01,5.378581974469525129e-01,7.918719301956922418e-01
2.681636040629089734e+02,4.967973222293588833e+02,1.760163071527510283e+03,-8.488973513098138080e-01,5.258536598226941639e-01,5.339677321955682565e-02
4.346559974838513085e+02,3.547488174321516112e+02,9.026985075901372966e+02,8.586449353895063696e-01,5.125706189972740745e-01,4.852532348813554650e-04
1.806039255127265335e+02,2.813417127232280563e+02,1.779987576214425189e+03,6.636481028886735967e-01,7.049411345525750106e-01,-2.502582513085094829e-01
3.400005902709169163e+02,2.391569344832431625e+02,1.965604247363179638e+03,-2.088229536512730897e-02,-5.575374283610909920e-01,-8.298891165190593888e-01
4.598435983873874306e+02,1.759942306333080523e+03,1.042386115747090116e+03,-3.131742171667467600e-01,2.846927371633604098e-01,-9.060198425577825621e-01
8.502308769422284058e+02,5.970514758534930024e+02,6.562701748429043391e+02,-9.082001760126263701e-01,1.400113974803328942e-01,-3.944226779309714104e-01
1.840832031523272008e+03,1.078402400876983393e+03,1.776792341089125330e+03,-5.043409768083770839e-01,-5.369338237411626080e-01,-6.762708392609177999e-01
5.251457783464475142e+02,1.120186936634164340e+03,1.036014786294687156e+03,6.095877462742756991e-01,-1.071181891443285655e-01,-7.854479442628194974e-01
1.135686348419845444e+03,4.627052415510424055e+01,1.039681070232065395e+03,7.131529530991482790e-01,-6.917564452284601373e-01,-1.135160163626633967e-01
1.764798659524104096e+03,3.851990012268304895e+02,1.686531877844393648e+03,-6.763140986205352645e-01,-5.132677206793936353e-01,5.283516697387005134e-01
9.090230523536748706e+02,1.341132542319403228e+03,7.527294169779708000e+02,-1.345318090798390542e-01,-4.733502367970070512e-01,-8.705404905401719073e-01
5.691193224424586106e+02,4.319174388087399166e+02,1.798067858957479757e+03,8.558184926407007564e-01,4.215434924175442410e-01,-2.997929146171049997e-01
4.733579180409923879e+02,7.858500689647084982e+02,1.129973423935237179e+03,1.926465688988703295e-01,9.796700743596818972e-01,-5.598075468934204935e-02
1.008928349086433627e+03,2.578368656307246169e+02,1.800731824311938908e+03,5.222341273770555459e-01,7.086523053111973836e-01,-4.744295800009215025e-01
3.912074905991835863e+02,1.825933523367792304e+03,8.604101846506245010e+02,3.910379014930828179e-01,-7.658188487485623197e-01,5.105005881459028227e-01
1.235098833970298301e+03,1.642712311518182332e+03,4.590786448262775821e+02,-4.868959282569615965e-01,-1.094429346374668904e-01,8.665763665740779942e-01
1.988213361354976541e+03,3.624214984849429584e+02,1.860222819573356446e+03,-8.065067099545539797e-01,-3.216172016221878760e-01,-4.960940459418899384e-01
7.192925359213094225e+02,4.937736520566111835e+02,1.552784016848475858e+03,1.192829984468243565e-01,1.671007929024706240e-01,9.786975484248954249e-01
1.322718745137609403e+03,1.956978642220056599e+03,1.926528266789906411e+03,-8.806486341173701271e-02,-6.827071340196714244e-01,7.253658035714936059e-01
3.124704453875848387e+01,1.867001759940638976e+03,1.139258089594485455e+03,9.903615722992691328e-01,1.240656267826094616e-01,-6.157658941479127179e-02
6.876925872453158490e+02,1.925442474256200057e+03,1.277296252038421244e+03,-6.734189953855197475e-01,6.191713814966118834e-01,4.038980774768983206e-01
4.165092203619078646e+02,5.635008923540500518e+02,1.073814678001936954e+03,5.504041172048830255e-01,-5.172135529126151710e-01,-6.553971684768120642e-01
9.690567002106135988e+02,1.866803475594320844e+03,7.344824182124139043e+02,-3.810880470024797795e-01,-9.123689830736358974e-01,1.495150131492331280e-01
5.154697298097645444e+02,1.043195344562219589e+03,1.598942925111193745e+03,-3.732772247643293406e-01,-9.102733775706719488e-01,-1.790711913131795008e-01
7.797376093064945053e+02,1.883505217902803452e+03,1.347285450043625019e+02,5.297798028332436626e-01,1.808632151507508223e-01,8.286264887844840832e-01
7.544846672712770896e+02,1.402371535189201495e+03,4.618893430276822301e+02,6.457643997994337859e-01,4.079018771645160912e-01,-6.454489898956703442e-01
7.474811121396469389e+02,8.346225923889072362e+01,5.647499613230663726e+02,-2.021613784306976191e-01,-6.292028455878138082e-01,7.504895443476864436e-01
4.294278315846455740e+01,9.770533431634630972e+01,1.985337648894766971e+03,-8.262824149556298181e-01,-5.501415513542442515e-01,-1.208372633281546982e-01
1.225957159593734787e+03,1.503816552449255823e+03,1.121498267632128545e+03,-9.574133112813585367e-01,2.884767185738646433e-01,-1.187157201552469128e-02
1.969640150584015601e+03,7.643505106965556024e+02,4.130498011285839084e+02,-1.214706544310322905e-01,5.081630471418844275e-01,8.526518619176126634e-01
4.720573041140723376e+02,1.190752854631492937e+03,6.339981375013037450e+02,4.001481337168579788e-01,5.440384290702805076e-02,-9.148342434342207063e-01
9.265562554684572660e+02,8.804615776377415841e+02,8.817751087483483161e+02,6.805416918873891108e-01,7.326825284371847324e-01,6.270416728111350736e-03
1.539343660184875034e+03,8.820318266303115706e+02,9.294135192388376936e+02,6.464932778593847074e-01,1.345082022843348546e-01,-7.509686978835168336e-01
8.624678764960507351e+02,2.209480864659178962e+02,7.138527179294216012e+02,-9.702972627807708861e-01,-2.350542437932946205e-01,-5.720772950315455851e-02
1.050392892541294486e+03,3.520101130318544733e+02,6.164476454492266839e+02,-9.554908202628442648e-01,-2.665480915622254754e-01,-1.264492280639646360e-01
7.873378738327514839e+02,1.822900901461514422e+03,1.336177772910566091e+03,2.435530382752499057e-01,4.595839015641915437e-01,8.540869715491099523e-01
9.556232013900909124e+02,6.403494673049760877e+02,1.029379615800476415e+02,6.287812872961098254e-01,2.604779604384974134e-02,7.771458068261740681e-01
7.395063088727935110e+02,1.706559895047507780e+03,6.745585812902920964e+01,-3.346876470760196121e-01,2.454662657683556182e-01,-9.097969505688929814e-01
1.303290298270076164e+03,5.756223540666658209e+02,1.276714109742894834e+03,4.651457461911899793e-01,8.643244909379054208e-01,-1.912658076216758041e-01
4.918448722507433786e+02,1.785057684080824629e+03,5.580679467624274821e+02,6.430257015864765391e-01,7.583301151787321670e-01,1.070204817417235305e-01
1.790460997537948515e+03,3.364528017255861414e+02,4.351943399107747155e+02,-1.785781708908851795e-01,6.235421119592615691e-01,7.611209309266496748e-01
1.196147150935139962e+03,2.967650967915700448e+02,1.462618562372295514e+02,9.481403309301691396e-01,-1.706688169046496062e-01,2.681456093244800609e-01
1.709892629694306152e+03,1.259961933798471364e+03,1.727363774327868214e+03,-5.483937171079804607e-01,7.653359306906682979e-01,-3.369350742062051651e-01
4.463084185029657647e+02,6.083571432055307469e+02,2.493551116034791164e+02,-7.152238757487456855e-01,1.208086173533088892e-01,6.883749599833832722e-01
1.821264405449916467e+03,4.351512019977024011e+02,8.854155369987037716e+01,-5.780889347314427384e-01,-8.157764740783269852e-01,-1.794234882613321772e-02
1.333504890394618087e+03,8.402779006124671923e+02,1.663641854165348150e+03,2.863330130371783966e-01,9.307559225399334446e-01,2.273913329524426541e-01
1.580342679263182504e+02,7.258644873997023979e+02,1.224888983870671382e+03,-2.020186520621083393e-01,2.627410112121820185e-01,9.434805908158412358e-01
1.323295862912744042e+03,1.635355344892847597e+03,6.129873197567953866e+02,-1.899661407565246818e-01,-9.814969361726709751e-01,2.401311411983053645e-02
1.585902204762343786e+02,6.620413112231875630e+02,1.732596304650560114e+03,8.977818015501244364e-01,-4.357936084927919174e-01,6.381040355807421349e-02
1.587960128715008295e+03,4.688593039884128189e+02,9.801626229012661042e+02,-2.766253196269939374e-01,9.599758934447261138e-01,-4.387159156291597917e-02
1.308602230166983645e+03,1.861134368896625801e+03,1.075856969897056615e+03,-4.448472583763365962e-01,3.998285663708816551e-01,-8.014037897519965536e-01
5.162055514428120659e+02,8.821995252009371598e+02,6.320899368576025381e+02,-7.668612306372919463e-01,2.888655729147873163e-01,5.731322131324236846e-01
6.046461472423396799e+02,1.962639741423999794e+03,2.504928694157655400e+02,6.881313764926906273e-01,6.817293761000001728e-01,2.484356384429968756e-01
1.606659524589785178e+03,1.101520680872771891e+03,7.399396463321202191e+02,3.321296999669315908e-01,-3.452299520353014906e-01,-8.777847928835287306e-01
7.994871667043091179e+01,7.264509158628907244e+02,1.007418864394144407e+03,3.414095046861074234e-01,2.068791813812775326e-01,-9.168645234826131585e-01
1.782504217797462616e+03,6.806051888916160806e+02,8.083951080431717173e+01,1.593695321126248898e-01,-9.862821744129748325e-01,-4.299796122396371684e-02
1.600155546250940461e+03,1.550590815842113670e+03,1.435024570722163162e+03,-2.405565537011547239e-01,-4.756945375470131299e-01,-8.460775682048051749e-01
9.950731417282894427e+02,5.386405962335778668e+02,1.743361833842121541e+03,-8.023580397904437334e-01,-2.782326556850676647e-01,5.280228833053273174e-01
1.911195941710525403e+03,9.916484479376064201e+02,8.916940301391987305e+02,-8.583119061011935669e-01,-4.821568101482167079e-01,1.755718720998112048e-01
4.337424557348310827e+02,8.461471459765770078e+02,1.638397503967938064e+03,-8.278243391354656033e-01,5.446959346196413865e-01,1.342132718614861553e-01
3.717920000451932765e+02,1.438523327328749133e+02,1.813325588091981444e+03,-1.945638182788321791e-01,-9.734566030195854758e-01,1.205286797999991499e-01
1.204081488812071484e+03,2.217662279629777231e+02,8.853743526311068308e+02,9.244519541063309642e-01,2.095633374552850064e-02,-3.807222302741622433e-01
1.568372327005691886e+03,4.875527896945563811e+01,2.863185860504278253e+02,-1.456422212767953805e-01,6.875731139289418259e-01,-7.113589504488007087e-01
4.164578321328153834e+02,1.488763302454425457e+02,1.401564585293011760e+03,-6.763431949939830989e-01,-1.406642117942328851e-01,7.230307476903303776e-01
4.644235863943635536e+02,1.949093780099335618e+02,1.963161571698586840e+03,4.788795193312076481e-01,8.777051492171021874e-01,-1.755212246128690437e-02
5.057222032565555878e+02,1.237974324418891456e+03,9.255900592233712132e+02,3.557997053623199735e-01,-9.050514835985578044e-01,2.329986731724796034e-01
3.228718349865460482e+02,9.141014073087166025e+02,1.138109249536538755e+03,4.651326308012011523e-01,-6.639311715084139642e-01,-5.855314127042361427e-01
2.479601632500265680e+02,1.546585466986603933e+03,1.507840044496434984e+03,-9.793337979949284788e-01,-9.798385438475530618e-02,1.769307106884945302e-01
1.928503940764596507e+02,8.898904496708115630e+01,1.608634059529200613e+03,-8.929870379198121544e-01,-4.147894147421734012e-01,-1.747108798130367902e-01
1.762128229962334217e+03,1.345301788290277273e+03,8.989626910440468919e+02,9.580262157755417562e-02,9.939503324230707371e-01,5.370841996312258892e-02
1.211028850884121766e+03,1.319751936758277679e+02,1.503742420254858871e+03,1.508976689160947682e-01,-7.616449294169395923e-02,9.856109087924216361e-01
1.262484565774419025e+03,1.983411911686559961e+03,1.597518979701339276e+03,6.458275144227437758e-01,-7.094127333207119745e-01,-2.822062993927971775e-01
8.852172817802102145e+02,7.486445617406185420e+02,1.072432465007886094e+03,3.354261733700494297e-01,-6.380151786184511398e-01,-6.931276318765480227e-01
1.484717701003821730e+03,7.103008482527883416e+02,5.427902162625595111e+02,7.331247148604552732e-01,-9.452176131044749685e-02,6.734937186786131846e-01
1.854390733545116973e+03,3.775372599497801502e+02,8.026219221283561183e+02,-7.146300233743977381e-01,-6.407477608896962051e-01,-2.806175985335710443e-01
1.396418322316647391e+03,1.090222200498218626e+03,8.129843131739822866e+02,4.614357559835066680e-01,-8.871665913987174523e-01,3.533016545511191708e-03
6.726395567484146341e+02,9.683303751324173163e+02,6.244993585892055421e+01,6.295714869355837351e-01,-1.235325609165134758e-01,7.670589607267006560e-01
1.774314574452636407e+03,3.387220385623006678e+02,7.087173797223181282e+02,6.560858271519306451e-01,2.254099449802799970e-01,-7.202372832021084470e-01
1.082298638194542036e+03,1.604127039808965037e+03,1.739541190974634446e+03,5.888925269621761993e-01,-6.238308636037581678e-01,-5.138488545316530764e-01
1.226647356290925245e+03,1.569327813976066864e+03,1.912320220269965375e+03,7.282362003093350022e-01,6.840835083567431418e-01,4.125275934227845553e-02
1.189136765758461024e+03,1.366091587663163637e+03,7.818519697980315186e+02,1.187944953021861372e-01,-9.152846816794106832e-01,-3.848919580465651191e-01
1.730076375458741722e+03,1.275973840066632420e+03,1.339233483317906121e+03,-7.655966371065023868e-01,6.427521584620640160e-01,-2.704537009494490177e-02
1.203252563013297276e+03,4.418307542428008219e+02,7.215849340869298203e+02,-2.803531142326768921e-01,-4.964673462950350835e-01,-8.215365514709649375e-01
9.928856610038478721e+02,1.966851314933012418e+03,1.807356048059826890e+03,3.630752283235503253e-01,-8.018343627425172926e-01,4.745924918317852570e-01
8.026684667595637848e+02,7.392111736827193909e+02,1.923264012281943224e+03,-2.288433876634769493e-01,7.302246716227253076e-01,6.437411225610701893e-01
1.380592540735425018e+03,1.141717286397238240e+03,7.478729664875042999e+02,-1.079250448665001610e-01,-4.931331960479360954e-01,-8.632333610595177564e-01
7.583905079528268516e+02,1.294531486096708193e+02,1.205381390458448720e+02,-1.536214098123775129e-01,-8.893302722227718338e-01,4.306879721508694026e-01
7.510245454703876931e+02,1.192527370065256036e+03,1.336111041053791496e+03,8.425452052981121653e-01,-2.333327393970103525e-01,4.854620579969652905e-01
1.229998633335124396e+03,1.729744981394524530e+03,1.748547346557367746e+03,3.683600512005215377e-02,7.922000142646740128e-01,-6.091487881674277904e-01
1.203754497688739775e+03,1.565030885480776533e+03,1.098653162639876200e+03,-4.156122579099458259e-01,1.471272374482448797e-01,-8.975633833194425204e-01
5.467829833412642984e+02,1.591083119663097477e+03,8.766721984269607901e+02,1.685123979767495783e-02,9.801091298921352779e-01,1.977425832221342272e-01
4.544194562933381576e+02,2.058377258658070730e+02,1.864379609600946651e+03,-5.558706357153321287e-01,-1.031358588675080484e-02,8.312048281233628266e-01
5.800490867257790342e+02,1.693118991003184647e+03,5.113105385507525966e+02,-4.325697565033630454e-01,8.962391709451028587e-01,9.817715733436127579e-02
1.211148013192407689e+03,5.284135079012417009e+02,1.384904835595878012e+03,1.787264714314515390e-01,-1.416815096522109074e-01,9.736442873207509230e-01
3.267411312632506792e+01,1.032689414240504448e+03,1.764097327765734690e+03,5.850817424159977520e-01,-6.955953162929742195e-01,4.169250659803716008e-01
7.801942984706848847e+02,6.818993959436536443e+02,1.422177806068560130e+03,3.771148778425287285e-01,-7.503293958214714010e-01,5.429458229657913027e-01
6.173700315468357758e+02,4.906134721661970133e+01,4.185867110694201187e+02,3.041333648049248106e-01,-9.414722910040748127e-01,-1.453713234581475444e-01
1.603436440924230965e+03,1.265694675777765269e+03,1.131518555051013891e+03,-1.296341476061374787e-01,-7.526870096015293443e-01,-6.454899328041743267e-01
1.313693094069532663e+03,1.084623141326243285e+03,9.766183740685754628e+02,5.774842684666140480e-01,6.936554940345980302e-01,4.305275545992353070e-01
2.146843995090921169e+02,8.132310306723989015e+02,1.020302588770155126e+03,-1.365158822714260950e-02,7.750495035374812547e-01,6.317530381447962196e-01
1.702449001464166486e+03,4.116583474461985475e+02,1.480228882552030427e+02,5.199861633032508701e-01,7.695641514588829057e-01,3.706553746575578234e-01
5.467921869292973724e+02,8.692116079817057539e+01,1.494408694023933094e+03,2.172346908715426239e-01,9.029530631265644258e-01,-3.707895021063836172e-01
8.988047383381303916e+02,1.717608938418973139e+02,4.229686362761038367e+02,1.455507879861750453e-01,-5.246731404229745266e-01,8.387687785291588760e-01
5.391019038347883452e+02,5.505135882793325663e+02,1.022405662734984276e+03,-6.455191919275571344e-01,-1.403445641600289673e-01,7.507385538014718085e-01
1.876098558757736555e+03,2.531482621799576691e+02,8.997738782496529666e+02,-6.192048519972112031e-01,-6.946614169370149972e-01,3.661022631481132272e-01
1.126759155548777017e+03,1.194611332727269428e+03,1.302653099577222235e+02,-5.265053014616861704e-01,4.046254479938196646e-01,7.477101138600038555e-01
9.370241929111144827e+02,1.643056731476556479e+03,7.745361893970392657e+02,-4.464744711953738676e-01,-4.462912282103783518e-02,8.936827110149530018e-01
1.533527553345144952e+03,1.859879821384424758e+02,1.119230538196349926e+03,-3.528458445171397395e-01,6.254304407551376510e-01,-6.959429385975698379e-01
6.056964251884797932e+02,1.986809930300771612e+03,6.280293554379230727e+02,-8.692168522643334283e-01,-3.617987835685936848e-01,-3.369921422644301945e-01
1.917425207372302111e+03,1.952170553570480934e+03,1.198211008823378734e+03,-5.932467093986228956e-01,4.448959563771358594e-01,6.709142492054998019e-01
7.022774812654362222e+02,1.781056667781595252e+03,1.583181224642655707e+03,1.352813902331005680e-01,2.565280577022988062e-01,-9.570226230701579517e-01
1.077359424018038453e+03,9.291554520903722505e+02,7.217597903310036145e+02,1.726505469877648302e-01,4.831582687493131134e-01,-8.583413516567823809e-01
1.320897244779236189e+03,7.570776994474015282e+02,5.884006729288169026e+02,2.803266750177035305e-01,4.112832724178978605e-01,-8.673309778295388295e-01
7.908097699845708348e+02,1.159168464849871498e+03,4.022823200008118647e+02,5.145999045439504371e-01,6.452927751601099660e-01,5.646097524569699821e-01
3.775464248544824386e+01,7.238905076221180934e+01,4.018475510681935816e+02,2.649557735474063480e-01,-9.468626540874144348e-01,1.823445978317779215e-01
4.481267347293580201e+02,3.459196013601351183e+02,1.154150750580709655e+03,-2.837294735361062248e-01,-4.553167025132785067e-02,9.578227669308390091e-01
1.454845535730539495e+03,4.894337771180985328e+02,9.674769055479347912e+01,7.360322815531397111e-01,4.213031826633578669e-01,5.298680107247514259e-01
1.912218424039115234e+03,1.676653264332423305e+03,6.949512016998015724e+02,2.583126401858394372e-01,9.430271447221837411e-01,-2.097007015661762619e-01
8.066248993460718566e+02,2.586224885535819453e+02,4.791070188079052059e+02,2.772342361447282522e-01,7.031736862864812476e-01,6.547426557232469690e-01
2.195496654692969969e+02,1.447476669786413368e+03,1.643566781190153506e+03,7.710073146740634709e-01,6.303250877736205071e-01,9.076345323018153444e-02
5.792093193098801294e+02,4.912149157400949093e+02,6.899921557373744463e+02,-4.559040574664622869e-01,-8.194023291862104763e-01,-3.474641180177169275e-01
3.083096907270248721e+02,1.575305903224188796e+03,3.935010205350373553e+02,-9.715949249752586780e-01,-2.090154855858073757e-01,1.109767027247197252e-01
1.866571519968633538e+03,6.215359347750344341e+02,9.418088355930387934e+01,5.516066265249229827e-01,-2.148701876789222420e-01,-8.059534304292146345e-01
5.691372129467813465e+02,8.097358471444357519e+02,4.732073485707586542e+02,6.409641146379525534e-01,6.908864755380684786e-01,3.344261976355493715e-01
1.501002678257367506e+03,5.387860673649869341e+02,1.950122211225102774e+03,9.425217072211751201e-01,-7.332465038793856138e-02,-3.260005016290128399e-01
9.215135704997434232e+02,1.540131016862991146e+03,1.393264671676794478e+03,-1.927824033930660430e-01,5.038986634936729603e-01,-8.419745137896298415e-01
7.354630630665515127e+02,9.896673766867876338e+02,2.439819321564018537e+02,1.363134482156862504e-01,8.702501836813038016e-01,4.733743356353474763e-01
1.411827319537676885e+03,3.198357291596580581e+02,1.290660207164245776e+03,4.320970357915438487e-01,7.573140323893785553e-01,4.896607070271215001e-01
1.113486784211378563e+03,1.932014251643317493e+03,1.629792396354428774e+03,-3.916025900945301896e-01,-8.983895937780911334e-01,-1.988555989216593822e-01
4.486231414302022245e+02,4.702579273910161533e+02,3.920913558155965006e+02,-9.966476952707796766e-01,-3.403536137588508009e-02,-7.439735000291358702e-02
3.705546112542390347e+01,6.512700758569161508e+02,8.300552426273926585e+02,9.007708107789341723e-01,2.788025534462205135e-01,-3.329881118606623502e-01
8.185616530783122471e+02,4.822025454408707219e+02,6.956920300141302960e+02,7.696425548440329889e-01,3.744091822940810027e-02,6.373762745939703933e-01
1.485641563902470807e+03,1.517533879906840468e+02,1.089135301659559673e+03,2.659888139083821934e-01,6.684288153219074546e-01,-6.945882735282560283e-01
1.107675788108889265e+03,1.860073463677558436e+00,8.534461951898955476e+02,-1.725608999874229110e-01,-9.128231613325797911e-01,-3.701035151553220826e-01
1.567975626526131236e+03,1.857384132348273624e+03,9.872601231471991241e+02,2.260024724282541086e-01,-1.239616705911682076e-01,-9.662072172575419948e-01
1.835410708147337800e+03,1.580936814951189263e+03,3.860090470771104947e+02,-8.727874938697052221e-01,-4.133167061019523691e-01,-2.596368444610120396e-01
1.549000348308418779e+03,7.723680553357593226e+01,1.099609890423409979e+03,-5.848312481883674030e-01,3.186471423906984124e-01,-7.459466534469325616e-01
1.656772945068936906e+03,2.769939059781891615e+02,1.408844411104545998e+03,2.717079812141674489e-01,-4.388474844843235911e-01,-8.564973194974419002e-01
3.845740162954159018e+02,1.222536379429588578e+03,6.673836260680721466e+01,6.595858235533551550e-01,-3.120943265011653089e-01,6.837716524785348859e-01
7.521098763325801428e+02,5.002731568733915992e+02,1.867589090943127076e+03,4.816445801344148014e-01,-2.598448606216058332e-01,8.369582706656775173e-01
1.279472131223163160e+03,6.756168938694573356e+00,1.479888800274668029e+03,1.349920447311199201e-01,4.335823718367263768e-01,8.909452703122398010e-01
5.438533645981202653e+02,1.545838627476419106e+03,1.221715254481437341e+03,-3.964678073344442000e-01,-8.837526014989487144e-02,-9.137850355203112063e-01
1.533199130395397560e+03,1.216194691731719104e+03,6.811419488675380762e+02,6.677917530828832993e-01,3.373152551454757231e-01,-6.635304010824463194e-01
1.249365180107318793e+03,5.913699802802681234e+02,1.715318764203421324e+03,3.560888710606496810e-01,-4.257041140756547271e-01,-8.318513828598315119e-01
1.394365104708694844e+03,5.523346245992954664e+02,2.357263592587148651e+02,4.676445083933504498e-02,-9.261941469260763782e-01,-3.741356549937111531e-01
1.569840380546816334e+02,3.671683835581698077e+02,1.860452939761079278e+03,1.694879951003226692e-02,-9.965243867189095273e-01,8.155908821014423715e-02
4.788693918600830557e+02,5.984275426223420027e+02,1.420772248769440921e+03,-3.303605301685886425e-02,-9.978647381347749423e-01,-5.634344317029715832e-02
9.231305839463841494e+02,1.658210300903852612e+03,1.112356512863485932e+03,-2.739497648252714468e-01,1.164339753825574010e-02,9.616735192600160964e-01
1.118399127290058914e+03,1.551801952324376089e+03,1.664019127611351905e+03,-4.929640223510329267e-01,4.449345221774055337e-01,7.476762291542069505e-01
3.571363401812477179e+01,1.847826066011407647e+03,3.868141079995164091e+02,-7.149818091714722490e-01,1.031270474958606020e-01,6.914953540181417724e-01
1.898111498163154693e+03,1.059837364515224863e+03,1.252983578451574118e+02,7.042575527978480743e-01,3.699120820062355430e-01,6.059590340221014948e-01
1.603124232085084714e+03,9.384303289928477625e+02,1.782998686735245883e+03,-2.726207415368158138e-01,5.443719617939671851e-01,-7.933076947165609294e-01
1.654799373977777805e+03,1.062506745062377377e+03,6.219853027032604587e+02,3.844053142418274449e-01,-5.725411177818980901e-01,-7.241748565310016650e-01
1.421454260720585580e+03,8.140762505756065366e+02,1.216443272475634558e+03,-6.622626112497130846e-01,-3.221906391984877271e-01,-6.764624348428975864e-01
8.395097315514951788e+02,1.067575730332072908e+03,4.347693094997888466e+02,2.204734749208979439e-02,-5.328706180139315407e-01,8.459094626057883648e-01
1.944745063186059497e+03,1.800434267764939477e+03,1.252229878153580103e+03,4.076102990086371003e-01,-3.782378875921983408e-01,8.311377410104061614e-01
1.724026861459517704e+03,1.036003495092225819e+02,4.268652887919219552e+02,2.556334102023408161e-01,-8.614712827736458189e-01,4.387696303809678899e-01
9.270704564274809627e+02,6.634090013681342271e+02,1.758835538855307732e+03,-1.664805365712483665e-01,-9.739079677410841240e-01,-1.542319724096812283e-01
6.299429235972826291e+02,1.983086605804822284e+03,1.657339714058722166e+03,-6.906220114583210279e-01,5.732076489363695515e-01,-4.409923224843064760e-01
1.854131635746301754e+03,3.703930979548948130e+02,1.964213560155812957e+03,-6.472491579182196864e-01,-6.893200473123838323e-01,-3.254326350374353027e-01
1.416416630477327999e+03,1.447742110912911585e+03,1.838597548151158662e+03,-2.042923698329448534e-01,9.788886563368905946e-01,-6.451830980139795259e-03
5.180062545697450105e+01,1.241825889214265999e+03,7.992998979824706396e+01,4.508346100430963288e-01,-4.843999708508019975e-01,7.497365021306028332e-01
1.159532529918959654e+03,2.575879485029197724e+01,3.565573505366839413e+02,6.048754285981349232e-01,9.155120794577373267e-02,7.910398802853699785e-01
1.051345140020309969e+02,1.088486331330512030e+03,1.266177606057110779e+03,5.203987201877260382e-01,2.780975273850657126e-01,-8.073703842037367462e-01
1.209223974187494605e+03,7.908130406694366457e+02,4.790925257801115436e+02,1.147540087306448270e-01,-4.549296227198747489e-01,-8.831028002742373761e-01
6.350417913394398965e+02,1.893558633570878783e+03,3.591021093787736049e+02,-9.544785387258442055e-01,-2.949570381238836303e-01,-4.439667524672374910e-02
5.225005674356315239e+02,1.715445417285971644e+03,5.048626510148677085e+02,7.428198814462403377e-01,3.542718967057820190e-01,-5.680757404894889451e-01
1.186624936939166872e+02,1.781254998846936587e+03,1.024061575169099569e+00,-6.173881480043317271e-01,-3.475430834199162433e-01,7.057235151748585400e-01
7.496658346117785641e+02,1.065309083892874241e+03,1.319743182575935634e+03,4.220636991296486396e-01,8.860022336789865616e-01,-1.919955098246934888e-01
9.698800020640170487e+02,1.143957077850051519e+03,1.852798866427570374e+03,-1.507118810430601585e-01,6.522995488268422681e-01,-7.428265123922009883e-01
1.517428436149880099e+03,7.319901469331067574e+02,8.959337656262249538e+02,2.166979705213566698e-01,1.579483100566348927e-02,9.761109121843827285e-01
4.320066763326764203e+02,1.339449639481002350e+03,4.297713015970201695e+02,-5.264908927513339831e-01,-8.087416609499058495e-01,-2.621912769218133210e-01
6.632720657336874410e+02,1.838969505169306785e+03,9.077098744799548058e+02,1.321875614121777454e-01,-4.145724839856174126e-01,-9.003644285120868673e-01
6.116592371867426436e+02,1.991449879054228177e+03,8.500029586928192202e+02,1.534159427787832597e-01,9.627489202164142279e-01,-2.226613238158474672e-01
1.616842767122010969e+02,5.393125811294918748e-01,1.616241087214546496e+03,9.596997307934095334e-01,1.194485345066547965e-01,2.543786042875260112e-01
1.955230945654070410e+03,1.595346118676713786e+03,3.417209021224050502e+02,-1.350631338696133277e-01,-1.134053903648598038e-01,9.843257424783284915e-01
2.178698358924004879e+02,1.273454313482962306e+02,5.904522943019557033e+02,-6.346804420926662749e-01,3.314597895309390752e-01,-6.980796117558250025e-01
1.029753093838841323e+03,1.943433199253807288e+03,6.059740417277409961e+02,-1.479180456801826027e-01,-9.034258325579359594e-01,-4.024201993304457048e-01
1.957957899160801389e+03,5.504812327614570222e+02,1.704857793516923039e+03,1.938530677726778284e-01,-9.736270295462631230e-01,-1.202971132323702591e-01
1.403474488693884723e+03,5.288104151459640434e+02,1.251171845326359062e+03,9.324936702400805633e-01,9.806337446108481792e-02,-3.476192306986036762e-01
1.986047251484579590e+02,4.690263200847599734e+01,1.874396424676178867e+03,6.248260628521223881e-01,3.472106087768276339e-01,6.993119363585469372e-01
1.024084020368754864e+03,1.777770615817331077e+02,8.264680046726042519e+02,-4.587430813470205065e-02,-3.454571571018803522e-01,9.373125948477643021e-01
2.484218588399185137e+02,1.104136823448849100e+03,1.856580785988823891e+03,-3.071662885472981608e-01,-5.126079422992269041e-01,8.017992072032937845e-01
1.417573866286497378e+03,2.809454411819189801e+01,9.594895483129106140e+01,-9.128731742328214382e-01,-2.012542387884947992e-01,3.551891033460294889e-01
5.524441000054360984e+02,1.156391762197132721e+03,9.234058953118178579e+02,8.177043146626290504e-01,3.594901215201173339e-01,4.495848154815411668e-01
1.614259080385793141e+03,1.403879671759700187e+00,6.762780813191142215e+02,-8.541574736442778537e-01,4.154851956327778595e-01,-3.127092298407854742e-01
9.494201797931106057e+02,1.477290508812197459e+03,1.040380495614505890e+03,5.181651532902187274e-01,-7.510997877421454749e-01,-4.090892112601212105e-01
4.197176899734371887e+02,6.483763840223950865e+02,1.831061582125571022e+03,-3.350603841497191704e-01,-2.965438659530694743e-01,8.943132977536734085e-01
8.575398882985252840e+02,1.739152862846903872e+03,4.844073198266756322e+02,-3.308066612499481196e-01,8.129234752615535076e-01,-4.792936221580050837e-01
2.835399108429830335e+02,4.743792349848134791e+02,1.622337949341354886e+02,4.341166443299675493e-01,9.007475262287548690e-01,-1.402259278689865947e-02
6.107918141168669308e+02,8.520630218920306334e+02,7.596259106644372423e+02,9.297497580195602795e-01,3.553050671342804501e-01,9.655929127367102183e-02
6.482858185568373983e+02,8.918575090041405247e+02,1.965153022902091379e+03,1.693901868124441934e-01,-2.527542938928963867e-01,-9.525871254275635192e-01
1.091851213218989642e+03,1.544713313740176545e+03,1.531785372224790990e+03,3.016271073076718379e-01,-7.661486172175975273e-01,-5.674833781466814830e-01
7.474669376087991850e+02,1.925409607550021747e+03,1.518712085461166907e+03,2.156314530245490302e-01,9.621324780504212359e-01,-1.667458279750277939e-01
8.513052947400572066e+02,1.926795140397430714e+03,4.101067934557909211e+02,3.135211678369608790e-01,-7.177926734392502395e-01,6.216736726571926441e-01
1.679879233708946458e+03,1.942727822370315607e+03,9.375545141430606009e+02,-9.305297404886648804e-01,1.901679208137827815e-01,-3.129705480703591225e-01
1.186103417493745155e+03,1.025807889462534604e+03,1.694050071403257334e+03,9.396066937465441526e-01,-4.070479195194137700e-02,-3.398269868312953079e-01
1.637627656403168999e+02,4.080239580619591493e+02,1.106672757010475607e+03,2.412765338213302413e-01,7.342359880211574152e-01,6.345732015471179377e-01
2.144525736583633488e+02,1.942804300234413859e+03,3.817442319807518061e+02,-2.380232081454931176e-02,-9.805562938171501486e-01,1.947891274671565143e-01
8.065120847550524559e+02,2.133188513037000860e+02,1.716991466059331742e+03,-4.248106288593873070e-01,-9.050644228432814797e-01,1.985749509504297627e-02
1.866087505846283193e+03,1.167159735772355816e+03,8.959547562623737349e+02,-5.021786382642594582e-01,-6.728258288304124202e-01,5.432513408448456094e-01
1.464898039309301510e+02,1.976204050208820490e+03,1.781816853336140127e+02,2.737979583052914112e-01,-9.491323583805427733e-01,-1.555070554760875634e-01
6.568155118451146564e+02,3.079327508338031976e+02,2.462862182670166931e+02,-1.382234861906162515e-01,9.517290979816369623e-01,2.740547243168274250e-01
1.857877604850398939e+03,5.593027548891777769e+02,9.840265779388467990e+02,-6.015233682696540241e-01,-7.617206954325395074e-01,2.407305954283723015e-01
1.160025580488939340e+03,1.654748323157057030e+03,1.050344367605794559e+03,3.468568556857591634e-02,9.173524474235349446e-01,-3.965619629045231687e-01
9.576501609164571391e+02,1.757980794538407281e+03,1.162257001348453514e+03,-7.006463169083215758e-01,-5.367701893941005942e-01,4.700771238643988714e-01
1.931984151350116008e+03,1.561373574613789117e+02,7.692483280103243715e+02,9.849156460557599579e-02,9.237835204646422937e-01,-3.700316459703107963e-01
8.496557607999468473e+02,1.978246537628631586e+03,1.446839837493057757e+03,4.741212793335043418e-01,-5.310565380117022727e-01,-7.022734267492873883e-01
1.806532924979981090e+03,4.632319604598793603e+02,1.652273092714547602e+03,-1.059534537262356718e-01,2.812350163825036997e-01,-9.537718444176339627e-01
7.567432269754770005e+02,1.127505917655903204e+03,1.325563369511979772e+03,7.983232979077911073e-01,4.227268520271352248e-01,-4.289311373552364692e-01
8.225498035913632293e+02,1.848485572218149855e+03,1.238720355429103165e+03,4.159022380469089564e-01,-8.889198438574811290e-01,-1.919553062146595046e-01
3.413197828282663409e+02,1.895106932971042397e+03,1.754013546948380963e+03,-7.236043901007612744e-01,-6.899476448790783367e-01,1.920765349330100583e-02
1.608421291215439624e+03,1.303796951614009231e+03,6.978382301759753545e+02,-6.632249030130192846e-01,-1.779198868006491574e-01,-7.269644020887235936e-01
1.079279143662053912e+03,6.768217097930433965e+02,1.105285652940767932e+03,-8.804044875819411198e-01,1.001128941365662106e-01,-4.635357016165858046e-01
2.110077786386555090e+02,1.830440306992744297e+02,3.118674230098969815e+02,5.527445734483559248e-01,-4.384698467971558933e-01,-7.086731474897816074e-01
1.420828565235568703e+03,1.581112072741861766e+03,1.047136762061067429e+03,2.691806327906551277e-01,7.904860173200520812e-01,5.501578349454860906e-01
8.157675598126481873e+02,3.411625724326070781e+02,1.380951131081188578e+03,-4.075989467404964040e-01,-9.065677017992472830e-01,-1.095358419444023568e-01
1.083472432797791953e+03,5.924330400072997236e+02,1.861050392491688626e+03,-2.443310198870135008e-01,-2.331219678905492587e-01,-9.412526232674252036e-01
1.527002163879060845e+03,2.103869450134789929e+02,1.745134956516970078e+03,4.571606229537762411e-01,-6.217280811697210030e-01,6.359704064699331916e-01
1.723344187736405956e+03,1.600690169142499144e+03,1.903787485253945533e+03,3.255046816905985962e-01,-9.269940074097233751e-01,1.863566806528920428e-01
1.765961858575107726e+03,8.318256628277398477e+02,1.122558390443330836e+03,2.933649574356962941e-01,1.897034438879660334e-01,-9.369896504902268664e-01
1.261458458599861387e+03,1.617667261903991857e+03,1.626496954357576215e+03,-1.863397355001598088e-01,-9.797120938324027639e-01,7.376798880449308982e-02
1.121183305947158260e+03,1.058006081024311698e+03,1.462059287298941172e+03,8.047064181065614052e-01,5.910742244752550389e-01,5.548731223517688882e-02
1.519160450523594818e+03,1.240157516023206199e+03,1.784794954396914136e+03,-6.756232925251427490e-01,6.009253255512371217e-01,4.271087914204356739e-01
3.966551210630804007e+02,1.159688212432773980e+03,8.211399167521405218e+01,7.880188508243768375e-01,-6.154258475334899448e-01,1.665283558779639961e-02
9.587032045144161430e+02,4.948954692495892687e+02,1.438775302269636995e+02,3.386760063350620076e-01,-7.726339314990807727e-01,-5.369686868237353305e-01
1.576292047498588715e+02,1.065848975033849456e+03,1.393634068443174101e+03,-9.845826723232571354e-01,-1.186338211107479668e-01,-1.285417358271496724e-01
3.098653643742879353e+02,1.154974307137408232e+03,7.051217246053640793e+02,9.771317779989067143e-01,-1.736560441453663672e-01,-1.227072400328439589e-01
3.369225544219500534e+01,4.898091278122802805e+02,1.423959529706890407e+03,-2.403779254860443360e-01,7.655876786112132404e-01,-5.967360884827725975e-01
7.352162135707320658e+02,1.284402795290620588e+03,1.362885008075615815e+03,-8.644232024185540819e-01,4.537318910812234707e-01,-2.165638430955367788e-01
9.713704071876037460e+02,1.573986209712016262e+03,1.999639758608348984e+03,5.025873732283248074e-01,4.230631847625203612e-01,-7.539386407195522999e-01
2.357882819171708206e+02,1.467957236349466712e+03,4.974071652182781236e+02,-2.572783793804231389e-01,4.427864899217396899e-01,-8.589225575371555177e-01
6.940624432685460761e+02,9.718399219883400519e+02,5.130938844583982927e+02,-5.155705826870299324e-02,-2.836875217426444371e-02,9.982670402466229387e-01
3.777822999152016337e+02,3.057387696212207970e+02,5.584471248289562482e+02,4.692201836155799888e-01,4.288857075452049417e-01,7.719387729290518863e-01
1.890892946365913758e+03,4.826202279843188307e+02,5.416481533140493809e+01,8.377900831152185201e-01,1.646946723480866570e-01,-5.205606991830556973e-01
1.093022492544122770e+03,6.831121013156606523e+02,1.927743843024239368e+03,-3.055169888013006263e-01,-3.277779896968413542e-01,8.939915877814976763e-01
1.972546424157830188e+03,1.159927207164476840e+03,1.547400534650124655e+03,-7.790594175062678373e-01,6.126605190995796368e-01,1.330921197194952221e-01
1.335492233737701326e+03,1.317259261901493339e+01,1.989092108523558124e+02,2.472464527424870218e-01,7.885887140563069275e-01,-5.630248943601672273e-01
2.088728505597552498e+02,1.864568017024636674e+03,7.789493081868164381e+02,1.169631411558974821e-01,-9.930051249172426875e-01,-1.613832392279213393e-02
2.168683727146782871e+02,1.469178157861730369e+03,8.694152957165755424e+02,-4.721660717344486682e-03,-7.668463674601113667e-01,-6.418133331688444798e-01
2.195603979255629099e+02,1.866337516606599820e+02,9.923474309929425772e+02,5.276737567635462200e-01,4.697573633801858106e-01,-7.077347144044454641e-01
