x,y,z,nx,ny,nz
5.128488311472378882e+02,1.576840319859204328e+03,1.954582739558841098e+01,1.049295883740559432e-01,2.650078896072951551e-01,-9.585200049709650116e-01
1.977638055695417279e+03,5.553611721274547790e+02,1.298127735169997550e+03,9.110511719690065346e-01,-4.116990172341556953e-01,2.212874289990551802e-02
4.703424348248641422e+02,5.995748808802457006e+02,1.842769937414394917e+03,-6.984981473831789467e-01,5.530989849962775207e-01,4.540725172242363605e-01
1.389743605256270257e+03,7.194135873056430910e+02,1.379438648647039827e+03,-2.975591112565445506e-01,3.710260756474871857e-01,-8.796580167871150824e-01
2.892016288466052742e+02,1.492960611316258792e+03,1.216689934611844365e+03,1.057565615218873795e-01,-4.986116995389285877e-01,-8.603498839297698542e-01
3.582370166279693535e+02,7.485201036825075107e+02,1.578861814652227395e+03,-2.580099265751725768e-01,-1.951057645427535514e-01,9.462370836269637930e-01
1.246110923778106553e+03,4.293197293921396067e+02,2.392257253541196604e+01,4.385607043088057821e-01,1.816898217955507933e-01,8.801439185110950802e-01
1.280703748053468416e+03,2.713102950776957556e+01,1.886388610479544013e+03,-6.297589155513149128e-01,-4.137602735749542071e-01,-6.574238695809661026e-01
1.412136541161576361e+03,4.423185180966968915e+02,1.160977873102656304e+03,8.818771519405290693e-01,-3.427933843848637308e-01,-3.237057066337138966e-01
8.220527684791689182e+01,1.599963408238245393e+03,1.975589088661775804e+03,-3.712508638801412797e-01,-3.992285917009493201e-01,-8.383253113420383595e-01
1.147833503334927173e+03,1.652974474311928134e+03,1.910061118531980128e+03,-2.719919751908707606e-01,8.820271374384253127e-01,3.847707034766887357e-01
2.384662574692899568e+02,1.231783787467755076e+01,1.795614659084185632e+03,-8.873000864237958751e-01,2.894346795420356666e-01,3.590628397797850369e-01
3.740764726691381270e+01,9.654951475666599663e+02,1.524726302262277613e+03,-6.874189776015766640e-01,-5.920512699772886300e-01,-4.206310056944007614e-01
4.365683620560562872e+02,4.319426839161908447e+02,7.862325822799029993e+02,1.974413762668794370e-01,1.142695018178313399e-01,9.736320577570076740e-01
1.000810248333440882e+03,1.651875381176435894e+03,1.986871678596627817e+03,-2.593842290561831909e-01,-8.710270368758131765e-01,-4.171710952933704863e-01
4.970124698425868246e+02,1.703102171185144925e+03,5.417191150464544762e+02,-7.931840042857013495e-02,-7.292205678675898195e-01,-6.796660612038258886e-01
1.512070175395203250e+03,7.170735353070267593e+02,1.698797413843293043e+03,7.115968673674597511e-01,-6.641052941508532870e-01,2.293339413031281193e-01
1.898252927817473164e+03,4.511506692756961456e+02,1.018114414631892828e+03,-1.814824446497940655e-02,-4.700194027088408499e-01,-8.824694908607684241e-01
1.352784726235044445e+03,7.282655500468033551e+02,1.701124191911943853e+03,-2.977040273822095240e-01,8.734682085897613746e-01,-3.852604322577206641e-01
1.138497599657528667e+02,9.226023125231234872e+02,4.564549339086978534e+02,-9.456368038781894914e-01,1.945453879178683232e-01,2.606206576442642309e-01
1.327864330557829589e+03,1.568516187132735467e+03,7.004771936109468697e+02,9.881231952858400558e-02,-9.947724353713277567e-01,2.576678743612847988e-02
1.338010261632250149e+03,1.055930501859391597e+03,1.777654693555031599e+03,-1.220222828359513075e-02,-9.069169355016934997e-01,4.211327317190296515e-01
2.388683494624410741e+02,1.199937613622685603e+03,3.929882271382001591e+02,-6.335929437964633593e-01,-1.261011606222271764e-01,7.633206920168342791e-01
1.714570409818263670e+03,2.443472762966558776e+02,9.379836264068302398e+02,4.430239318278871297e-01,-8.188119615268618645e-01,-3.650709074800297937e-01
9.892004338631372775e+02,4.615504427697399024e+02,6.531735305264121507e+02,7.214267311719216869e-01,8.847738566728320653e-02,-6.868152763124002469e-01
7.455164410653172808e+02,4.315702146873347829e+02,1.516868697979607987e+03,-1.049925627870370998e-01,-1.077188270962626537e-01,9.886218771848089837e-01
8.173503961766914472e+02,1.625302688860387661e+03,8.816136884763911894e+02,-4.969564622343903282e-01,5.790703342150905764e-01,6.463062916880062403e-01
9.565404725223795595e+02,5.483813457123644639e+02,1.815230562784791346e+03,-1.825672174237247536e-01,2.599521071914946413e-01,9.482057335245659413e-01
1.374596983608898654e+03,1.153964349697880834e+03,4.094664287091111987e+02,9.630769571400722429e-01,2.385580986402804637e-01,1.247910581690603454e-01
5.755447859045872292e+02,2.048624991081087217e+02,7.930553209458402080e+02,-4.165889828626827968e-02,9.930507291255553648e-01,1.100671866487796940e-01
1.618603762256219852e+03,3.261708180100573031e+02,1.681681075661479099e+03,7.165214099826186511e-02,-9.522445894721851545e-01,-2.968100613377429031e-01
6.883057907060912157e+02,6.961286702072322896e+01,1.264011806721378434e+03,6.585007497407181498e-01,-3.207537978641218923e-01,-6.808037630232768311e-01
3.132918430041025317e+02,1.564606418236657646e+03,3.665127071247335948e+02,4.019552458751596280e-01,8.014805898462891154e-01,4.427875838515398232e-01
1.287891560994017482e+03,6.123831192403888508e+02,7.731564006109501861e+02,3.763818718408212249e-01,-7.550573456880375067e-01,-5.368659900497843029e-01
1.515764511241665332e+03,1.742512168466925004e+03,7.398544386137026549e+02,9.977304863034132110e-01,-1.968649739427370121e-02,-6.439191347599537707e-02
2.950159686354869564e+02,1.012539260526328576e+03,2.614255591996588350e+02,7.034996871398838114e-02,-9.231014898739887675e-01,3.780668212027645247e-01
1.874110955102658409e+03,5.535062748106797699e+02,1.723237202950887877e+03,-9.232121443706132746e-01,-1.402322078135249672e-01,-3.577908109193950192e-01
1.658860888551863013e+02,6.025621518359025686e+02,1.049187189779670689e+03,-1.993651091515680485e-01,8.631054566535292238e-01,4.640070300630005917e-01
2.939485352110386884e+02,1.548834502400693225e+02,3.811275661953897043e+02,-2.964967487077296848e-01,6.862528077544504113e-01,6.641887998565458862e-01
1.043082916685046939e+03,1.885794296934721388e+03,2.829760140162851201e+01,9.264584100761212859e-01,3.252699893508317341e-01,-1.894049852219719388e-01
1.423059549630230549e+03,1.022761872691753069e+03,1.023504219227441695e+03,3.377658128906313451e-01,3.318580260973340024e-01,8.807862999372277901e-01
7.998650371386048619e+02,1.545701637588582344e+03,3.334896389685746385e+02,7.920951473130307674e-01,-4.339932889548255013e-02,-6.088528359583864624e-01
8.907925929940812466e+02,5.774003443313895332e+02,3.726153996836933970e+02,-9.292282335528631032e-01,-7.724793682927841298e-02,-3.613414537855375031e-01
2.061607225881241163e+02,1.341791690430333574e+03,3.140425602603033894e+02,-2.396837102820298382e-02,9.788824388698768031e-01,-2.030140095225361208e-01
1.921548147655086950e+03,6.395714620789825631e+02,1.625572532611541021e+02,-4.014471345757068543e-01,-8.940823746415385020e-01,-1.986376235668911860e-01
1.491360539632931705e+03,1.300069876491343166e+02,1.722092810941088601e+03,-2.098079877485350131e-01,-9.215632080375211199e-01,-3.266525093558951820e-01
4.107781534845868805e+02,4.554860364046655832e+02,8.139419411452841757e+01,-6.888278958292051168e-01,-4.729390734606964825e-02,7.233805473300005673e-01
1.819058458218526766e+03,1.789500534480567694e+03,5.234684728629257506e+02,8.360617294139539579e-01,3.530378632959471075e-01,-4.199583928066930039e-01
1.197244244658897514e+03,2.027214578192029251e+02,1.373601562507321887e+03,-5.462787423362085448e-01,-7.825905431754431874e-01,2.985491205881123378e-01
1.782601075798773536e+03,3.648137912677344730e+02,1.766079626835229419e+03,-4.826383193428055995e-01,8.729702879823459938e-01,-7.059128134530423537e-02
4.905844191013146656e+02,1.147298423386111381e+03,2.873786198228262947e+02,-8.120027378030790777e-01,2.443945015710801694e-01,5.300215857888501692e-01
3.818029124552184612e+02,9.748663705644348738e+02,1.428982833631728909e+03,-2.899235551216435280e-01,-1.899944552681318288e-01,9.380013001872615774e-01
3.694654491755160279e+02,1.267648010357872181e+03,1.506352625851965513e+03,-3.448587137523339563e-01,-2.112243807897365988e-01,-9.145800831578818624e-01
9.956465593363221842e+02,4.124103153027984945e+02,1.942955843501910977e+03,-5.174700621366994276e-03,-6.171118335196639215e-01,7.868584417819242116e-01
1.143715462220823611e+03,1.336262775162585967e+03,3.274349485759795471e+02,-2.582456007692878752e-01,-9.646063680237918492e-01,5.332695801617371584e-02
2.263553945804588352e+02,1.923727639970287271e+02,1.183488308674763857e+03,7.973161553156510317e-02,-3.365549114439294054e-01,-9.382822928456528988e-01
1.453328767165961153e+03,7.126482848267386316e+02,1.284266408249637834e+03,-5.258298205082405641e-01,7.250589345958394771e-01,-4.447387336707001038e-01
1.528596857372196382e+03,1.960882525662539592e+03,8.831719250213457144e+02,5.019114878686560255e-01,2.936658574860149251e-01,8.135387037458485793e-01
2.357741063612084247e+02,9.393241211257235364e+02,1.873795296174927216e+02,-7.995019997743958440e-01,2.943718212575224813e-01,5.235855070628590013e-01
1.547479136392187002e+03,1.002483558386032314e+03,7.501651859122431460e+02,-7.014213117453641511e-01,-5.612424332041220376e-01,4.393348092292816975e-01
7.230520680585154878e+02,7.959833577923774328e+02,1.838736667942104987e+03,-1.683247417042895155e-01,2.683087839344735492e-01,-9.485131405488214096e-01
1.773514459149069353e+03,3.327504052621121673e+02,1.613116625880737956e+03,-8.475637208552823099e-01,-5.271742858123391606e-01,6.101648521669678776e-02
1.658093737248791967e+03,1.871765605464173632e+03,6.217604838915467553e+02,-1.063937850983800171e-01,1.247231469846000473e-01,-9.864707289619381037e-01
1.516972770325342935e+03,7.373383755723292552e+02,1.249247646519102318e+03,4.748871752656227962e-01,-1.518322875365197000e-01,8.668501180882801638e-01
1.207971326639621566e+03,1.594765450955112783e+03,1.685676452945804385e+03,-4.855683015460153240e-01,-2.517615239396764903e-01,8.371616090082545369e-01
1.248159609745863918e+03,1.939763810333689435e+03,5.282783959118695520e+02,-3.479438906966807465e-01,9.216201578540029749e-01,1.719050132021135990e-01
1.936066258957204582e+03,1.875100216953911968e+03,1.299657186285461876e+03,-9.206104853467220739e-01,-3.891463422184029408e-01,-3.227163782194142350e-02
5.016018241762445768e+02,1.613114455081277811e+03,1.177382184241922005e+03,-1.355349194155874848e-01,9.807693707058600108e-01,-1.404340667510619867e-01
1.620485405597089766e+03,2.014479979881862448e+02,9.258989606734045310e+02,-5.825262570336582346e-01,-7.052889054987546702e-01,4.040182169738453233e-01
9.675186259023336106e+02,5.357810913245601796e+02,3.400961023237776431e+02,8.941161372190836731e-01,4.447769396299087186e-01,5.224755628617949732e-02
4.366601484729067124e+02,2.987748650025341135e+02,1.877253907009623617e+03,3.860716530615809217e-01,8.992846684060785689e-01,-2.055134153092388616e-01
1.409991119751614633e+03,4.489120711758059201e+02,1.983652558128208341e+02,2.832794964622694089e-01,-9.568256622296614777e-01,-6.509515329771532743e-02
1.188118759882548375e+03,5.416530596261533219e+02,9.259599762734537762e+02,9.479689493240716081e-01,8.880515458072458720e-03,-3.182389158519348116e-01
1.231016354331954290e+03,7.356885745673839665e+02,7.849660753132529862e+02,2.057532058611614423e-01,8.514038797752432330e-01,4.824697418300112339e-01
1.032607644283620175e+03,5.825622028013967793e+02,1.794763852826353741e+03,-9.951992666817691680e-01,5.857663872962494411e-02,7.840406233868346675e-02
1.532077617389945317e+03,7.382167177017986432e+02,1.047544451801376681e+03,3.504696080035943906e-01,-7.009356455321638091e-01,-6.211765245791374124e-01
3.339880142560640479e+02,1.483684002314558938e+03,1.420645075991719978e+03,-5.912223448372053713e-01,5.051206241925277896e-01,-6.287362674289973530e-01
1.752820321190816458e+03,1.287773615328045025e+03,4.284448037759071894e+02,-2.468027387384131299e-01,7.017445732770045685e-01,6.683135207576557102e-01
1.259575945807249582e+03,2.448545622272111473e+02,1.570116879302156576e+03,8.674291698990845845e-01,4.975123015565547924e-01,-6.938660395548579274e-03
1.160899843003868682e+03,5.218608367806585875e+02,3.187356595086998823e+02,-5.972560919996129369e-01,4.844378193853551839e-01,6.392223085269412852e-01
1.380622610350610103e+03,1.809829960400456912e+03,4.705313702147124673e+02,7.769186690759902758e-01,1.972571737027381256e-01,-5.979021567648001856e-01
3.372898563764867959e+02,1.294917774990194062e+02,1.839700427584472891e+03,3.698111409533623162e-01,8.850815892694756659e-01,2.826133407378208506e-01
5.646278042980914051e+02,1.015597483592487265e+03,1.993881968292721922e+03,-7.793163256441952846e-01,1.983212362621334518e-02,6.263168139663066736e-01
7.022453478464996124e+02,1.848973163776470756e+03,3.165523741524569346e+02,3.639756883314017033e-01,-8.766379286549207395e-01,-3.146865747808322844e-01
1.421421691014262478e+03,5.885095992591160439e+02,1.387565162962555178e+03,-6.050350882699649935e-01,4.891108552330316050e-01,6.282540196889854212e-01
1.266302162958675353e+03,5.896521711228133427e+02,6.860569113517633468e+02,3.625184317794847844e-01,-1.883756766144327466e-01,9.127403744111453054e-01
1.723890171799418795e+03,1.935846462173963801e+03,1.009463652613366662e+03,8.044098738890007594e-01,-2.218608293328243053e-01,-5.510921222424010057e-01
1.678335849729420033e+03,8.616007271734951019e+02,1.806890716253164555e+03,-4.592098396533995652e-01,2.192782963441985145e-01,8.608387490801543418e-01
8.913315565799298383e+02,1.541663058036820075e+03,1.197461421175494024e+03,-5.081000693328253659e-01,4.096692522417966220e-01,-7.576314561260146796e-01
1.218615510383370975e+03,7.624087109013593135e+02,2.696431724774166696e+02,2.953969776981428264e-01,-8.566631888371876169e-01,4.229288432562907651e-01
4.444947022138874217e+02,1.890348389481005370e+03,3.020590019961799726e+02,2.446307911953507497e-01,-8.687171684496237667e-01,4.306811549626994307e-01
1.505253035452968788e+03,1.681132948062049081e+03,1.798385105536494393e+03,-6.030232346156908507e-01,5.033166893570263367e-01,-6.188984478315585624e-01
2.796519656461786667e+02,8.083494077280006422e+02,1.502315510821485987e+03,9.152852126424674273e-01,2.796622381688389503e-01,-2.899000035536889452e-01
1.500170187431674094e+03,1.679025762602090026e+03,1.498887612107236919e+03,-7.699133667591550045e-01,4.763148825388797136e-01,4.246852250285571007e-01
1.794765575659660726e+03,3.854523985639446551e+02,1.665319684481481318e+03,-6.667108558380845373e-01,-4.698727709437034439e-01,-5.785466392896383425e-01
9.137312732264529131e+02,1.680883818201998110e+03,1.132917278267949314e+03,1.809074002911537915e-01,9.380052544007793092e-01,-2.956664594377007571e-01
9.840007126403531856e+02,1.947077830823115164e+03,6.531289777463235851e+02,-2.498133573777339134e-01,6.378887554490316747e-01,-7.284855675628378879e-01
1.528823688454451030e+03,7.843393903157265186e+02,2.920549150196556525e+02,9.667332246912879734e-01,-2.700749708888236858e-02,2.543569684104953765e-01
1.671408522429321010e+03,1.986268448511086035e+03,1.690560158751928839e+03,-2.381255346303637888e-01,-9.601959911482087495e-01,1.460133156253651254e-01
1.187832221192662246e+03,1.680182869502575841e+03,7.264297778501072571e+02,2.600902693816002365e-01,8.813893170104425412e-02,-9.615532125117181028e-01
2.041206608040240269e+02,9.251160341855968454e+02,4.845115395627308885e+01,5.772783224763893273e-01,5.502896920927643487e-01,-6.032669336001239557e-01
2.593672716632697757e+02,1.569045806639011289e+02,1.922782734520323629e+03,6.884680066816989408e-01,-6.585165207172715141e-01,3.039207063004226161e-01
1.312574616199100319e+02,7.368894371368880911e+02,1.669815328058034765e+03,6.847913532668576941e-01,3.687875172111902966e-01,6.285352572769102864e-01
1.473599133864426676e+03,5.622211145020095273e+02,4.607361186423111121e+02,3.238156234271932221e-01,-1.178369796495956634e-01,9.387533692357747928e-01
7.724041958967120536e+02,3.648140187392774578e+02,1.966929931724946982e+03,1.532906259862182319e-01,4.203105248881370826e-01,8.943383289633806132e-01
9.489275669977623693e+02,1.375184970633466719e+03,1.802208142322599997e+03,4.369653850885266838e-02,-8.745919370528220105e-01,4.828866908132143365e-01
6.740674335207119157e+02,5.987795934180267068e+02,3.195628890196537668e+02,-9.559218328468082060e-01,-2.750924430839579160e-01,-1.026527994985928643e-01
2.005534094202954236e+02,1.726845399489794090e+03,9.621671861094749545e+01,7.588779820942727072e-01,-1.055167706223992946e-01,-6.426277455961146856e-01
8.616882277051722667e+02,1.026491341308822939e+03,7.319221839059583772e+02,-5.825301228616257543e-01,2.820986634422547601e-01,-7.622853796596866793e-01
1.050103911178523504e+03,1.853192075935023468e+03,1.617342963480412436e+03,2.207374986066492906e-01,-9.529985473290784048e-01,2.075300592626183882e-01
8.051702163763110320e+02,8.572444099764849170e+02,1.242478001062185740e+03,-4.873664834472238860e-01,8.327853043446716841e-01,2.625691293351894995e-01
3.270677274064801736e+02,1.599138338421673780e+03,4.489679722059947267e+02,-9.308952822028713214e-01,-1.591475476356777052e-01,-3.287948169512200369e-01
1.776325893835145052e+03,5.237111254745648239e+02,1.909608848778155789e+03,-4.892966928642114022e-01,-8.299874630918134821e-01,-2.677864026842314282e-01
5.443638671830259455e+02,1.712111960299447219e+03,1.639844435281411279e+03,4.769680473063608872e-01,4.197559593384389554e-01,7.722087907092380910e-01
1.283175879666245464e+03,1.732191047673729599e+03,1.121680785749894312e+03,-1.993239356218217961e-01,2.107814534767537828e-01,9.569958973571699445e-01
1.281176897145415069e+03,1.252908791440543382e+03,1.187253321250135286e+03,7.656330573080737389e-01,5.869423252129263302e-01,-2.632579123801133125e-01
1.582555091993252745e+03,1.108777822175833307e+03,1.526277601364332099e+02,-2.213319504138589189e-01,-6.137207868957904600e-01,-7.578647395531796782e-01
1.338811819348802828e+03,9.676291442569777246e+02,1.365498828033732025e+03,4.896526819012739784e-01,-8.467125699869159083e-01,2.081299472277882145e-01
3.459426376455227796e+02,5.002057284288297296e+02,1.731751419640395852e+03,-8.004358244786754506e-01,4.560667185999494055e-01,-3.889802553814494246e-01
1.165322112124672458e+03,1.163437426550964119e+03,1.465319634768467495e+03,-9.822751524593406058e-01,1.293662616818227751e-01,1.356462133620006671e-01
1.113832320631488528e+03,1.252440850730321245e+03,1.727170084605417742e+03,-5.886996868051773283e-04,8.296666596395418924e-02,9.965521490476574318e-01
6.177140145808914440e+02,5.337940064039202070e+02,1.793455500366002525e+03,-7.108081657164949663e-01,-2.747871406521714688e-01,-6.474903697221723320e-01
9.252033256464964097e+02,8.276651647534328049e+02,1.582682236498007114e+03,5.918348903997744381e-01,5.777868621019257578e-01,5.620443082959716286e-01
1.751815788560429041e+02,9.765581171326931553e+01,1.437232347013225990e+03,8.484895176745327339e-02,8.653734852488478291e-01,-4.938920797221053594e-01
1.385502899092495909e+03,1.717003320225028574e+03,1.449302492062186275e+03,-5.759423065550667298e-01,4.252693722779782859e-01,6.981664704941965560e-01
9.755788211760963122e+02,1.985691127587767596e+03,8.305722984810940943e+02,1.375051284071874581e-02,5.571296869907598204e-01,-8.303116494848155060e-01
1.750155768035899086e+02,1.297293658624225372e+03,1.408976506174965834e+03,3.002846943110337730e-01,-2.820443105741985979e-01,9.111970748610060955e-01
1.954248169789138956e+03,1.566614868820312722e+03,1.027445045451324404e+03,4.818315525207846339e-01,-7.224928504673597263e-02,-8.732802504383376796e-01
4.471195633105073739e+02,1.910427502444832953e+03,1.610446998387517397e+03,-7.165426759429356640e-02,-2.811177552997629059e-01,9.569945002928428313e-01
5.718549822534115492e+02,1.828805920079763382e+03,1.751330338143735162e+03,3.072499496624090387e-01,-9.090295526148354233e-01,2.815363935716293509e-01
2.529024892016791171e+02,1.272187586881227389e+03,1.671797352995231449e+03,2.796991178839751749e-02,-9.896652005352306603e-01,-1.406430762039534432e-01
8.970932496505619156e+02,4.145954290187416973e+02,8.705731999533343242e+02,-1.598529979771736165e-01,-9.597211965002369061e-01,-2.310459781642248966e-01
1.854842608170529502e+03,1.965079802630786617e+03,6.317472981556271350e+00,8.258383601968473098e-01,3.933287415189168357e-01,4.040835358221459561e-01
1.570807883378937504e+03,1.273708535778342593e+03,1.644621849022344122e+03,-4.034904093083791499e-01,8.232737029047924038e-01,3.992692070540730942e-01
1.613099587795872367e+03,4.321221461132229820e+02,5.728647382934354937e+02,1.568791254904428056e-01,8.003200399097463169e-01,-5.786853840423274997e-01
1.088976207430527211e+03,1.199002099798978179e+03,1.639700846640329701e+03,-5.317338279230647835e-01,-8.056213841959527500e-01,-2.612150867933966669e-01
1.197743651978704520e+03,1.608351865530471287e+03,2.891679753500822017e+02,-4.501726685040698950e-01,4.942927960979604518e-01,-7.436526072418391253e-01
1.301682526752144213e+03,3.535977786917878802e+02,1.511379291738062420e+03,-9.906369687022106296e-01,9.320420996767421473e-02,9.975656111152386707e-02
1.870798393236061429e+03,7.684071810851773989e+02,4.945666312378081102e+02,6.732720925075099672e-01,-7.090128547691080252e-01,2.097747869090056394e-01
1.454383925829797363e+03,1.624024120552629711e+02,1.677823134377356382e+03,2.095900091625016171e-01,-9.315954953069669475e-01,-2.969879815464417927e-01
1.664170118491463768e+02,4.536321647386694167e+02,1.782307958248869966e+02,1.282673188326897140e-01,-2.048187854603753244e-01,-9.703590881946795310e-01
6.920237238819648837e+02,1.870563171354107453e+03,1.664921925393218999e+03,-7.194984072072084791e-01,-6.678238446051890098e-02,-6.912757446576998088e-01
3.410968052672540693e+02,4.831512928826375628e+02,1.831410055824478832e+03,-4.615774066488478322e-01,-4.616401817340514135e-01,7.575187392268762920e-01
7.331073473327732017e+02,7.626635423377088046e+02,5.751771740356490454e+02,7.289095083147968668e-02,-5.790658403378072805e-01,8.120158014723308781e-01
1.729597498267947230e+03,5.646378292542326562e+02,1.649373558616801802e+03,2.006675336761851169e-01,8.685111381229231320e-01,-4.532338732759741973e-01
6.152202268288167488e+02,1.782050401908706817e+03,9.855120100764229392e+02,-8.903004909091322139e-01,1.625088272885218555e-03,4.553706127705910434e-01
1.659127505600122277e+03,7.872439884575792348e+02,1.812483557685929014e+01,-3.499558562580037252e-02,-7.029700503759365171e-01,7.103579500935852664e-01
1.283585479028804002e+03,1.261427405650479386e+03,1.096381806857174013e+02,-8.948929294242932153e-01,4.460044678960299325e-01,-1.570539662619863108e-02
1.785280123649353072e+03,1.177299268258706206e+03,1.913058952065023277e+03,5.723963963212099770e-01,-1.272668059191515155e-01,8.100404468849868866e-01
6.746839444370659749e+02,1.397930222001809398e+03,1.619952835589747338e+03,4.389841973044361079e-01,8.809105767552599664e-01,1.768881858058788392e-01
1.630385682106757713e+03,1.941311755050107877e+02,1.600241980167478687e+03,-1.325815736171844783e-01,7.348962769244037352e-01,-6.650936689668915935e-01
1.611568533899401700e+03,4.973528655469887667e+02,1.641304993465061898e+03,-9.773241195407685877e-01,2.122401038898676442e-02,2.106824784999210554e-01
1.561861616550913141e+03,1.116066650599072091e+03,1.186363432596385792e+03,-4.165026943268800019e-02,7.377683383112970672e-01,6.737678636159281087e-01
5.625419805538056153e+02,1.768048073924834171e+03,8.569006831834838067e+02,3.750064723589815324e-02,9.953542261767915900e-01,-8.867731327058381297e-02
1.926639858501256185e+03,6.031382034232610749e+02,1.618088858168883007e+03,3.903200301376555936e-01,9.039487118794207188e-01,1.747197766850554501e-01
1.125025969369276709e+03,1.968049001775703346e+03,1.815198298879708773e+03,-7.941755855098747707e-01,5.997304949245131356e-01,9.802281794381519087e-02
3.095002838846339088e+00,5.174972455862512106e+02,1.332260744678613491e+03,-8.469791897081011545e-01,-2.572640274025082552e-01,-4.652327077990645599e-01
1.794755618403333074e+03,1.094780168272091259e+03,8.812634672229793296e+02,6.354180552795837267e-01,1.322548786990905278e-01,7.607578734952407107e-01
1.170749627487418820e+03,1.310219810006841499e+03,4.584078847487486996e+02,5.379075867467097982e-01,7.651077243859741861e-01,-3.539288038649115453e-01
4.451990438037314561e+02,1.741649190580902768e+02,1.446996438177367281e+03,-9.496334982881547981e-01,2.437678468658301678e-01,1.969097655358880428e-01
1.218934594230216817e+03,3.114453096645453343e+02,3.894410786876689912e+01,1.751599935894460613e-01,-4.774000906207316319e-01,8.610505967253390125e-01
6.068611530423191880e+02,1.164828531615820566e+03,1.569716000661222324e+03,-3.322236541644669194e-01,-6.532872555362908562e-01,6.803258082473939705e-01
1.033274832096981072e+03,1.937296941604614403e+03,8.357990267987094057e+02,-9.521922113449479141e-01,-2.751142875934084464e-01,-1.328236478041071589e-01
1.598337619052417722e+03,1.624887476410408681e+03,1.955233418450882709e+03,6.028249722435359559e-02,-8.954275274869077927e-02,9.941569875822342528e-01
1.486589816172578935e+02,1.479692633853111374e+02,1.333753158049529247e+03,5.488969782962724864e-01,-2.451986009267317357e-01,7.991181097439818970e-01
1.587952276795386069e+03,7.466198237030334894e+02,1.250943431346136322e+03,1.274647817083615908e-01,-6.387832536335947831e-01,7.587546931000284101e-01
1.285748809501354572e+03,1.771518857552019199e+03,1.472105500266210584e+03,-6.616929608923947104e-01,-5.000328768406674812e-02,-7.481056721655306996e-01
1.611221190425728082e+03,1.231119155209139990e+03,1.526210138529583446e+03,-4.913931150924031807e-03,7.424826440761045365e-01,-6.698472785093634307e-01
1.146963862728248159e+03,8.939416521981224832e+02,1.339239511807057568e+02,-9.939830354802384749e-01,-1.809476925007937401e-03,-1.095191808349056523e-01
5.883347501769255814e+02,4.540685116263642840e+02,1.074698004648616006e+03,-6.897170126719177619e-01,4.769892197818819679e-01,5.447675895671448831e-01
1.246757653962282717e+02,1.605053084138044142e+03,7.518790442283947186e+02,-7.191291596258432561e-02,-8.235947656512816462e-01,5.626012748915246720e-01
2.581958903770713505e+02,8.292130906749841870e+02,2.189599060349112278e+02,3.539689841032490625e-01,2.818742065916332029e-01,8.917695273731049976e-01
1.467463880689325151e+03,1.112053408688433649e+02,3.344313820055979818e+02,2.665280270501140247e-01,-3.304496618450733503e-01,9.054092068138308580e-01
1.456188195701953191e+03,1.335507290145112620e+03,1.493365337056242879e+03,9.255001976541139819e-02,-1.730961507440315073e-01,-9.805468966036359202e-01
6.943034269745133997e+02,7.129616672143108644e+02,1.244675902168660059e+03,7.146182523243891360e-01,4.728747982677213302e-01,5.154708319663662275e-01
1.356051750575398728e+03,1.457228876273344440e+03,4.379081773032169735e+02,-5.122669909353306794e-01,1.170252112548813284e-01,-8.508158613523917335e-01
1.415435069360957641e+03,4.912913099312144141e+02,1.242157993137326230e+03,1.160787529518791661e-01,9.740239940351166359e-01,1.944298900812722053e-01
1.813551335057317374e+03,1.679214566144582705e+03,1.971760373890056826e+03,-3.882641240986873243e-01,-6.029178343255663375e-01,6.969512572555185415e-01
1.865106307591195446e+03,6.477818638898573909e+02,9.303687429741191863e+02,-5.104771871383829707e-01,-5.706446874905301003e-01,-6.432555340221486340e-01
7.061140203994049216e+02,1.229120887434823317e+03,1.171467428480142644e+03,-9.067308014059606291e-01,-3.619429028352922906e-01,2.164176260586618827e-01
3.977041538323344838e+01,2.379446780637750436e+01,1.220216405804532798e+02,6.593471690257330931e-01,-7.486903888621576630e-01,-6.873145075715038355e-02
1.882563942157968086e+03,7.426247234795860095e+02,2.627949747504858351e+02,-5.996646577279660800e-02,-9.227295721847666998e-01,3.807547236718638040e-01
1.552896997190881166e+03,1.335048371938631135e+03,2.850812982844974499e+02,2.097165266966038721e-01,9.758288000214770941e-01,-6.145837191918412934e-02
1.342560292337958799e+03,1.303666699737403633e+03,2.673474882009885505e+02,8.556254955400848239e-01,-4.573577885284942912e-01,-2.423403900593328608e-01
6.705844524109289750e+02,1.381955933875460914e+03,7.306882878493775024e+02,4.556287415802434682e-01,3.944202744804986005e-01,-7.980194840508167964e-01
1.091155581598355866e+03,3.200768749457738593e+00,1.053949382911060411e+03,2.236669468532542782e-01,-9.339792065428277335e-01,-2.786681514471532339e-01
2.461993447625663407e+02,8.438574323935637267e+02,3.647151178968315435e+02,2.550854379314156373e-01,-8.090874304440053288e-01,5.294421113331038153e-01
8.595112978213237511e+02,7.418814949289252354e+02,3.092837804702251105e+02,9.765481727864009365e-01,-1.677018665761673966e-01,-1.350175920923304407e-01
1.617610339782261008e+03,1.450591712742228992e+03,8.883524604744615090e+02,-2.114942495985732696e-01,5.848901313323578988e-01,7.830540956132938657e-01
1.791013705680334851e+03,1.799644767272969602e+03,1.199723103034119504e+03,-1.131403186363150737e-01,-1.474390064450133431e-01,9.825787539313988184e-01
4.235772894063520653e+02,7.844269488710831411e+02,1.149754364608444803e+03,5.329899519531612340e-01,6.075895703398037639e-01,-5.888604462275077722e-01
4.324476566882356110e+02,1.584713301151319911e+03,1.749135942582394364e+03,4.736380748122208106e-01,-5.397533565655409094e-01,-6.959405780412615261e-01
1.138780460662954056e+03,1.413796336632230350e+03,1.907356684345379108e+03,1.257514705316065962e-01,-7.912179050339641639e-01,5.984653660929791785e-01
7.571289170800409920e+02,1.227533150949472656e+03,1.597769787158969621e+03,-8.919864825248445817e-01,-1.478123160186258812e-02,4.518203516723071633e-01
1.533765790960681898e+03,1.246901547492785539e+03,1.788382901401730507e+01,-3.039017839303532198e-01,8.850995347024436244e-01,-3.524805234242975871e-01
9.160550766410843835e+02,1.838502844201181460e+03,1.351999092554156960e+03,5.184815738662857942e-01,-1.222738380333745489e-01,-8.463013447311349413e-01
2.354352892184166137e+02,1.402974952681457808e+03,1.046749494472129754e+03,3.772781863519731327e-01,-8.310346811191691163e-01,4.087083665404058763e-01
9.254122666263892825e+02,4.180422973324786540e+02,9.180772980578622366e+01,9.366211066078703462e-01,3.491706854174319585e-01,2.864847468486209428e-02
9.960152000856445511e+02,3.900923350171474340e+02,9.214464044744153171e+02,-6.725737549026189477e-01,7.336675110163779490e-01,9.683247128533345460e-02
7.290875881243552570e+00,1.313915901403821863e+03,1.689494912900353484e+03,-9.494224267560242847e-01,2.010187365052665542e-01,-2.412229739194173828e-01
5.998436413826826765e+02,1.116980655685941656e+03,1.440076581153297411e+03,5.369948315875396755e-02,-9.714391950232743600e-01,2.311325504575579004e-01
1.954455244429337426e+03,6.446384183463038653e+01,1.054756763166780047e+03,8.856375585449423049e-01,-2.890698646340634781e-01,-3.634346272096238284e-01
1.840259512794315242e+03,1.687082857434636480e+02,2.002331944011870490e+01,9.216249950876387320e-02,-9.730150140946766668e-02,9.909785524963496961e-01
1.923005535825689549e+03,4.525200352465792548e+02,1.728087107225146895e+02,2.015216864621079684e-01,9.782310344707382255e-01,-4.952830588438450476e-02
1.601219565421260540e+03,1.313452266252066011e+03,7.399938773253633144e+02,-5.672205871753007722e-01,6.528944510197851603e-01,5.019856983142849671e-01
2.586431027516575796e+02,1.094384578400815599e+03,2.303241111795462075e+02,-5.422021098367116876e-01,-3.075793088513483764e-01,7.819282837032723865e-01
4.943034950040959075e+01,7.625789473437860977e+01,4.501607646252119252e+02,-6.801618702309900621e-01,-7.989753199170672449e-02,-7.286948707555969129e-01
1.153721172993973141e+03,5.474355960848819791e+01,1.600575844674433711e+03,2.842553555025686407e-01,9.574597765666729154e-01,4.969576566474232654e-02
3.842201915012610414e+01,1.106644254920600588e+03,7.280542567888466010e+02,-5.050470169440809398e-01,-3.608752573841482181e-01,7.840258664634796038e-01
1.496348919894657683e+03,2.149682239516939148e+02,1.821121780017615265e+03,-2.458935332004227176e-02,-8.087364629155143758e-01,-5.876569554205965940e-01
1.001632890676145621e+03,5.429130840841560257e+02,6.399699748168035285e+02,-8.611909817314464255e-02,8.903164243531805355e-02,-9.922987793881004048e-01
4.456941443763320194e+02,1.793823232981903402e+03,1.310658828019210432e+03,-4.756559771847042595e-01,7.568277007795950473e-01,-4.482892176944877072e-01
3.233611891123411510e+02,8.626781275297192906e+02,1.729071793273180447e+03,-8.770979199166796247e-01,-4.066109240723113083e-01,-2.556693084883188138e-01
3.596812105902254189e+02,2.560803720677431556e+02,1.740987405372351759e+03,5.709061279855061066e-01,-4.895419658397198726e-01,6.591015526535948243e-01
1.969405830497414854e+03,1.135490928531412237e+03,1.434104434847319453e+03,-7.080829122657884556e-01,7.061069257513029607e-01,5.621277723422580565e-03
5.734095628440989003e+02,1.584803191776839185e+03,3.458508813002725333e+02,-5.554154131278765671e-01,7.971334588188839776e-01,2.368374288228802804e-01
1.093492999486476123e+02,1.093593622406771829e+03,8.622029913177424305e+02,-3.406203323649700798e-01,-1.340744574499364294e-01,9.305921926596432137e-01
1.930158957130262479e+03,1.201700094288644550e+03,1.650585101888065310e+03,6.002113248216291996e-01,4.286585446521678500e-01,6.752764009296861047e-01
1.309338308297926915e+03,1.488420607885749689e+02,1.595394773987781946e+03,2.973060118341657732e-01,-9.502795604747263924e-01,-9.261691136732987106e-02
8.599419550071894491e+02,2.366316712882463662e+02,2.788283291264559693e+02,-4.526988487800160388e-01,5.445789455365505072e-01,7.060435711707506723e-01
1.320423320208151381e+03,1.888198697326050024e+03,8.775288208832379269e+02,9.135271762381315108e-01,-8.959703933786197089e-03,4.066790159078836897e-01
9.273780001918265725e+02,2.095221835470539986e+02,1.065541925219758923e+03,-1.624102685627930864e-01,5.017657124550434222e-01,-8.496199588462149954e-01
8.794617219601177567e+02,2.888185897805624336e+02,1.956316097835235951e+03,-1.482833094577257760e-01,-2.530868097885662915e-01,-9.560120955549205046e-01
2.969170729604093708e+02,7.624233766332573623e+02,9.196417215936851335e+02,-1.178581849305583434e-01,-4.115358877972476459e-01,-9.037409259847677401e-01
8.601671509842565229e+02,1.343150172468243682e+02,1.046356344607601613e+03,8.871929639403749457e-01,3.793110704302512515e-01,2.627008880528376444e-01
1.424038677237442471e+03,1.715535169832530983e+03,8.801643145523696603e+02,6.399622950635210916e-01,-4.776777470865737896e-01,6.018905472221059982e-01
1.895325702173224045e+03,1.468613596952336366e+03,1.796674221805899379e+03,-4.120855624526383321e-01,-8.662005986989075312e-01,2.826340602824562453e-01
1.738818881551669392e+03,1.169641258148977158e+03,1.382330398739539532e+03,-3.346794468889754404e-01,-6.758663841268156558e-01,-6.566538651659892256e-01
1.896977239196845176e+03,3.308485858094629748e+02,3.955414480378915982e+02,-5.275336084166150075e-01,-6.659287765642650792e-01,5.274913805310628145e-01
5.408832870726689634e+02,9.426806344480054349e+02,1.165982918573103007e+02,-1.145939864585079765e-01,-3.624867198396501400e-01,9.249170753140187884e-01
2.553979222464526231e+02,1.765720687637990068e+03,1.475669321818872277e+03,-9.491279620789260241e-01,1.928181800939434420e-01,2.489523268121116573e-01
1.686051851123184406e+03,1.653870861286159425e+03,9.723216038702904598e+02,-1.262078047888046117e-01,-9.246988367274522336e-01,3.591707830062011997e-01
1.507339105419557200e+03,1.128331775723338978e+03,1.010519118276420159e+03,3.973899040883517864e-01,9.141821645948873254e-01,-7.970090379197070085e-02
2.602081144045778274e+02,2.700979284980815578e+02,9.911037621428955617e+02,4.566542177292438609e-01,8.319849207634492094e-01,-3.150682736365715275e-01
5.510954419303440091e+02,1.350887154754120502e+03,7.070309313259051578e+02,1.142094811412412009e-01,-9.813603282292362451e-01,1.545577581205621609e-01
1.963409139498683942e+01,2.612788683242204115e+02,1.083458525367667107e+03,-6.567919758720028867e-01,8.817052383902094712e-03,7.540202649912068900e-01
1.731788183304451877e+03,4.286684416351449300e+01,2.515803557349143205e+02,-4.605063521270006538e-02,8.107683392694367552e-02,9.956434532486464484e-01
1.524108274891426618e+03,4.566926908368387217e+02,1.086355786422716619e+03,-3.263346035186670546e-01,2.819540172619969254e-01,9.022237298453947840e-01
8.227909457925197501e+01,5.562627776853125852e+02,4.433316872239780650e+02,-2.690487481362729416e-01,-9.505605876627669648e-01,-1.550720487661123859e-01
4.562543702266825676e+02,1.771306730563499514e+03,1.445486600086572480e+03,3.254830696890039787e-01,-9.448766720220195259e-01,-3.562086487462146067e-02
1.435628122802455664e+03,1.420132374182402600e+03,4.054423312549864136e+02,-2.115199405839018054e-01,-9.529229494782359700e-01,2.172490899706647216e-01
1.665099967435433427e+03,7.577253674719446508e+02,1.519839377738732537e+03,7.214506555844223401e-01,6.652809204474968707e-01,1.921204009087493780e-01
2.171912219897538137e+02,1.826371940166272452e+03,4.295258111914914707e+02,-7.761666056844155337e-01,6.270356267302390485e-01,-6.627007643989492325e-02
1.536997986273002653e+03,4.196343837652569846e+02,1.630471623700261944e+03,5.967349064347944598e-02,5.345738958934741492e-01,-8.430123512402980523e-01
8.343391210286799264e+01,1.937700769364016935e+02,7.452774584062946133e+02,9.829472893450564852e-01,-1.496269754063550041e-03,1.838814497061322939e-01
6.769628552814481282e+02,3.305630504160621399e+02,9.993293786995951677e+02,-1.658339643892230708e-01,-3.257205396672763764e-01,-9.308089096553664454e-01
3.922345197983849516e+02,1.052859591491181845e+03,1.522128551154124807e+03,-1.791658201050949362e-01,4.341454325625589972e-01,-8.828461656999690987e-01
1.388335727086278666e+03,1.810406437296275953e+03,1.259577437902397378e+03,6.460936966542185633e-02,5.448793990128373288e-01,8.360215726181030593e-01
5.185835462961593976e+02,1.049235846361972790e+03,1.732607357713468218e+03,-7.302016882933530795e-01,-2.687419410255258434e-01,6.281586292867189503e-01
1.934496023162950451e+03,1.631792986897641867e+03,2.378221700894640378e+02,4.282486151997828006e-01,-9.019584383485769186e-01,-5.544455853611562901e-02
1.199187091829409155e+03,7.815898668378378034e+02,4.159548622568643168e+02,6.347248328670729300e-01,-4.609204507570903164e-01,-6.202231248637437577e-01
1.329511349390094665e+03,2.902621055675422781e+02,1.265254019310548074e+03,5.242079500279970272e-01,-8.187022332460581753e-01,2.343772139209830130e-01
1.904539702898011456e+03,1.084585496766896085e+03,6.537430567238837966e+02,3.601691643937335319e-02,-6.744918052059124536e-01,-7.374032725993753257e-01
3.581901135282117110e+01,6.845832931555706864e+02,7.862602824453450694e+02,-4.886721032010492571e-01,-6.646622212611705827e-01,-5.651758197067794365e-01
1.578802030917197044e+03,8.105991563275969156e+02,1.718463895457947729e+03,-2.694348717207791788e-01,5.123887885661516650e-01,8.153910590952777593e-01
1.798167568112179197e+03,1.289393124311186796e+02,1.640484525265307866e+03,-4.228551223060736941e-01,-6.828948230122720842e-02,9.036205465495712463e-01
1.946519232494401876e+03,1.199480090465460762e+03,5.355751325124724644e+02,-2.796914593555072104e-01,-6.916499089263105082e-01,6.658776847483425243e-01
1.450614580018314541e+02,1.389731024439563043e+03,1.476894274867835520e+03,5.891155413394291163e-01,7.804090420008652496e-01,2.095342600045236314e-01
1.278271619635674597e+03,1.707747486072242282e+03,5.163378113070657491e+02,-3.820495738365912164e-01,-7.997142702474335785e-01,-4.631362748629108683e-01
8.149470225584753962e+02,1.319478961337191095e+03,1.945934090142158766e+03,2.941803689464682070e-01,8.879720992539181790e-01,-3.535017135363129892e-01
1.471514869350969775e+03,7.531962988405472288e+02,1.975965551022710088e+03,-9.921859339085530305e-01,-1.241003247546639821e-01,1.289115781454741767e-02
1.722748097896892205e+03,1.332100681888315137e+02,1.213114305590454023e+03,-7.314762222535055036e-01,4.902740565198349110e-01,4.738922723376337576e-01
6.934568177030022298e+02,9.065203005477437728e+02,7.802822742289645248e+02,-1.074458985761517077e-01,-8.597632974055421373e-01,4.992619065315444526e-01
7.640196803104453238e+02,1.606874028381550943e+03,1.522083096748151320e+03,-2.862877361403638465e-01,-6.924806065962080259e-01,6.622008317903060881e-01
4.501693378056570793e+01,6.549733857442134877e+02,1.387734021200573352e+03,7.890514730418628497e-01,4.792221272711569835e-01,-3.843747203240264199e-01
1.957213966760533140e+03,3.712133457489679245e+02,9.801495141979512482e+02,8.790647371073523342e-01,4.577281541766529127e-01,1.331545149381574700e-01
1.727980773831443230e+03,5.726991498050921336e+02,1.024519680034985868e+03,-4.113236389492003764e-01,-7.832311281166984829e-01,4.662208317853588913e-01
1.727723297410046143e+03,4.570525949704214099e+02,9.195985463381657610e+02,-1.944881077004270709e-01,8.103782034482885921e-01,-5.526857546011396671e-01
2.157337470690894179e+02,1.846992723743556780e+03,1.637206659618627327e+03,-2.905939147030536795e-01,3.102636402727685927e-01,-9.051473085980228372e-01
7.808570658673863818e+02,1.448370698450351256e+03,1.150699082258030558e+03,3.293497087781519506e-01,6.345518374521446070e-01,6.991943470265284954e-01
9.266975806877416062e+02,6.168819907933145714e+02,4.330624119232480211e+02,-7.870733903577602497e-01,2.733192018004571011e-01,-5.530027957595708976e-01
1.330913820810161951e+03,1.695223066602871086e+03,3.167801747075471752e+01,9.225391696434439570e-01,-2.698440885169767767e-01,-2.758725219481401592e-01
9.272097755679977809e+02,8.927737672510133962e+02,1.531031457056785257e+03,-6.813694694214148528e-01,2.935485186752362918e-01,6.704960203639944716e-01
6.190324868255822821e+02,4.915938188016542085e+02,1.663426654450469186e+03,-4.000673096573548748e-01,-6.378622752514444549e-01,-6.580865182896369348e-01
7.653965693910070058e+02,1.559898395100110747e+03,1.216488244847233091e+03,5.662053873545117577e-01,7.618169158317553702e-01,-3.147164534677515668e-01
1.018484939086709687e+03,9.577902218846286360e+02,1.153542034237321786e+03,-8.686716989665959066e-01,-4.530068591277362500e-01,2.004850742517034767e-01
1.635161769179101157e+03,7.253027637872446576e+02,3.626044209092582804e+01,2.448857308419301881e-01,-9.508866000558272580e-01,1.893294817620408133e-01
1.207058315403949337e+03,3.835574785759541214e+02,2.344883176451864131e+02,7.034403970562032038e-01,6.867778888986475483e-01,1.830511925919307004e-01
6.704282610803921898e+02,1.926988102381319322e+03,6.019546981466428406e+02,9.287977262921317742e-03,8.607032441171286186e-01,5.090222579068757192e-01
1.159476342691849368e+03,1.136896755329633606e+03,7.629124144423728922e+02,2.733123669428952907e-01,-9.100487204456816359e-01,-3.116274642762568714e-01
4.725684787174682242e+02,1.916367377465747950e+03,1.344448820928878376e+03,-9.554268456992457415e-01,5.629294467733883534e-02,-2.898113988385271345e-01
6.673165587966125258e+02,1.849607505218020833e+03,5.890610225272931757e+02,2.858104756918699030e-01,9.064800324138519994e-01,-3.108155768615352699e-01
1.342383546880270160e+03,8.863883440092026831e+02,5.114333622432349671e+02,-3.774255789727937738e-01,-4.756152033088458797e-01,-7.945691352667410001e-01
1.461166285147743622e+02,9.126225128054012430e+02,1.651325559791909654e+03,-7.906308910746538965e-01,5.099926047749157032e-01,-3.388367411503592219e-01
5.155137740986904191e+02,7.916632826548088815e+02,5.013432498531438455e+02,4.571473971105911027e-01,-7.526431016604767654e-01,4.738613920102681121e-01
8.625708419035806855e+02,2.005766342598347478e+02,1.184242039737311643e+03,9.670557916099822293e-01,2.101018917675815667e-01,-1.437368811031953797e-01
5.335183916542240468e+02,1.329236588131362168e+03,2.233366169086536956e+01,-6.962847562674935320e-01,-6.441305471621985301e-01,-3.166755064763360217e-01
6.573557990565254840e+02,5.710439380888878986e+02,6.808995545760609502e+02,9.521330553568926325e-01,-1.500317867336330435e-01,2.663327014586496233e-01
1.586273371493734203e+03,1.035707608444343578e+03,3.978892352774676624e+02,-8.146004227907027717e-02,9.966592054035935400e-01,5.889804425420752665e-03
1.019676452834390403e+02,1.895520838530302626e+03,5.564358447496564963e+01,-2.416543550623603265e-01,-7.005656486164720809e-01,6.714245636391155125e-01
1.222763682309934211e+03,1.789063049978607296e+03,1.677367160914131091e+03,-1.762541407328790388e-01,-9.273814501687562828e-01,3.299971571959507965e-01
3.465249932613421038e+02,1.379572784719040101e+03,1.661936120118416056e+03,-4.252728602263278201e-01,6.289657325697106671e-01,-6.508034277782850374e-01
1.914154847271033987e+03,1.083232223662855176e+03,7.712774289609480860e+00,7.021981943692599815e-02,-6.280977508912146678e-01,7.749596068722828246e-01
1.123742899121192750e+03,1.545621571085742062e+03,8.165876534623686211e+02,-8.094467644691845098e-01,3.405205518468231718e-01,-4.783740056277135388e-01
1.999775072641441966e+03,1.791049747005713698e+03,2.711328409165487869e+02,-3.732935129421481868e-01,6.246535874153746892e-01,-6.859007573435191851e-01
1.403134569528535849e+03,9.135735294564750575e+01,4.015025023127993791e+02,-3.061702846260213606e-01,6.558649517306229804e-01,-6.900006680456249875e-01
1.766630443314924833e+03,1.761828175899623830e+03,1.004751224473212687e+03,-6.853934735806608280e-01,-7.245143288973929785e-01,7.290249375293189615e-02
2.372882129134263778e+02,2.421654102545689469e+01,1.518247647642266884e+03,1.256571341848785883e-01,-2.315612364841167226e-01,-9.646707616520728834e-01
5.462708057445100849e+02,7.020490264308141377e+02,1.708217057857187683e+03,4.429162195987634831e-01,-8.722132788483013544e-01,2.075312473268429159e-01
1.962721365061953520e+03,1.339814658880811066e+03,2.180330880941616556e+02,-3.539223740407627661e-01,9.324313100759038520e-01,7.287527113832359404e-02
7.194650348514090865e+02,1.526346767826750465e+03,1.637154866756846559e+03,3.130908321744860223e-01,7.076317204659967608e-01,-6.334283534849237673e-01
2.485319939757868468e+00,3.008689010893015165e+02,7.827569605092337497e+02,9.587250749746731859e-01,8.699235907981008042e-02,2.707001294357591625e-01
9.434875823907762538e+01,3.238486667340809504e+02,1.928197084538722265e+03,-4.349388890738700719e-01,-9.004370474667353630e-01,6.425443220199111849e-03
1.361059598838903185e+03,1.443062542870406560e+03,7.474385073772759824e+01,-8.222898130742113398e-01,5.655554823728176084e-01,-6.313841677163112287e-02
1.040641780358380174e+03,1.899832342691889608e+03,3.521949404367732654e+02,3.128832707179238920e-02,4.929998988466453014e-01,8.694665837893058580e-01
1.353694534281291055e+02,1.976708636730655144e+03,8.727505838514650804e+02,9.525463078684460738e-01,2.972135002336023235e-01,6.572417093491589313e-02
1.467343300845484237e+03,9.682750879331114220e+02,1.509014544897884434e+03,2.320792581020041656e-01,1.333821229856002322e-01,-9.635083949954341698e-01
4.980453829439906031e+02,1.040250103839592612e+03,1.048223229529424998e+03,6.676342195992777118e-01,4.838715498884016419e-01,-5.658028561510269894e-01
3.396067106517351135e+02,4.542505272842587374e+02,8.053041397910029673e+02,-6.362487727568389984e-01,1.823404189743955128e-01,-7.496262207084662954e-01
6.307396042712470035e+02,1.583022374722686891e+03,4.263313654699540933e+01,3.570877949118855810e-01,9.270759764252909374e-01,1.140983814962357457e-01
4.372090167519118040e+02,7.766708999053581692e+02,1.345800576756609871e+03,7.847144985350935631e-01,-4.409940247123349533e-01,4.356000757080205621e-01
1.352500665819655069e+03,6.236190405739852167e+02,1.087279458143208757e+02,-1.158768920378670103e-01,-5.399257937787090844e-01,-8.336981966539662725e-01
1.548047331146988654e+03,5.762039724467373389e+02,2.259403149710335015e+02,1.511371351324829471e-01,8.835479525852389937e-01,-4.432838615000300742e-01
3.966966048529641142e+01,1.755996984308122364e+03,1.388907050440752300e+03,-1.349820493088467743e-01,-4.465768135853885323e-01,8.845049439840939609e-01
1.990849370044232046e+03,1.689264700435830662e+02,1.873175981081515374e+03,6.028829697286404166e-01,-7.797359476155352187e-01,1.689496280175801779e-01
3.933527362968274588e+02,1.500494574653034306e+03,1.951848048606653720e+03,8.984088964887144702e-01,-4.237803977527493382e-01,1.152025572218424720e-01
