x,y,z,nx,ny,nz
8.060670328274139820e+02,4.983961620327721675e+02,8.928929467933622277e+01,9.314584361129623069e-01,-1.398728105912604505e-02,3.635787916842339040e-01
6.648661182922885473e+02,1.128360537908679817e+03,4.792694484292408106e+02,5.172587150770721065e-01,6.886788417189629863e-01,-5.080992763677625312e-01
3.011257370710976033e+02,5.108351605299346261e+02,9.495338492230775955e+02,3.170771682868084862e-01,9.438228436637946528e-01,9.306185646980891235e-02
7.145359659621452693e+02,4.368012942261694320e+02,5.724960250783184392e+02,-9.557105800303837828e-01,2.353685965575016970e-01,1.766887403671764389e-01
1.139796384081523456e+03,1.205305244887442541e+03,5.314526631940767629e+02,3.158607416336554619e-01,2.336553816140414519e-01,9.195853166169161153e-01
3.037505140285570064e+02,5.870848458545485471e+01,5.284909827637194439e+02,7.337173309330454751e-01,1.985629796145016723e-01,-6.497935221399939731e-01
1.736101830942212928e+03,1.506714407575057066e+03,8.473061044378666793e+02,-2.803774056939876691e-01,6.755728842587515048e-01,6.819015973222386506e-01
9.912944693776322538e+02,9.732030173518353422e+02,1.225591878021923264e+02,3.855067085170508362e-02,9.100897173945954322e-02,9.951036191471769321e-01
1.309151842457603607e+03,4.523830911774284402e+01,6.132637509703506566e+02,-7.068161696628797452e-01,-6.576704170672341698e-01,-2.605389122908619015e-01
2.051219179338299341e+02,1.051922551254706150e+03,1.633309624493604360e+03,-8.973915991944761972e-01,-1.512415844786162700e-01,-4.145048863639345105e-01
1.539377298211728203e+03,1.980160156303899157e+03,2.602388066524141550e+02,-5.349500331026870725e-01,-8.382305004433395768e-01,-1.058210291480041892e-01
1.795441103213674978e+03,1.468167879022988018e+03,9.489998532447355046e+02,5.486659178684216709e-01,-2.839129911903570669e-01,7.863581397829786379e-01
2.212484688416087693e+02,8.250921423050288013e+02,1.123005571288107831e+03,3.804258929644782072e-01,-3.033421623348592222e-01,8.736473387541401348e-01
1.190634388818201330e+02,3.569110592438522644e+02,1.342101906412862604e+02,-4.888789289510178659e-01,3.193453911244833465e-01,-8.117979514603720359e-01
3.531905290862311517e+02,1.182868300952250820e+03,1.950446522023081116e+03,8.722886601698187636e-01,-4.563447804204260883e-01,-1.756756520471054739e-01
1.375357268984914072e+03,4.624221908768786307e+02,4.991807244172963465e+01,3.625493437816977305e-01,-8.800793072209170953e-01,3.066241776589236356e-01
1.355942568034114174e+03,1.889236988459752524e+02,1.761424423131102458e+03,2.686305680305138832e-01,5.215259916016968811e-01,-8.098445887968075407e-01
2.894875444633342454e+02,1.305245093486999849e+03,8.071164196880333748e+02,-3.750301513141011123e-01,9.154024935833807719e-01,1.462554626215755160e-01
1.298819089515797941e+03,1.866817795682984524e+02,1.971696798792911977e+03,-7.407229681285540934e-01,6.679178512747520058e-01,7.221653851676457236e-02
2.141619921945576834e+02,6.772567618602196262e+02,9.043106399989384272e+02,-6.221202898267036430e-01,-7.817483949509640428e-01,4.284614308814593819e-02
9.757617736705359590e-01,5.910246727840509493e+02,1.110347266330772527e+03,-7.920255336709826066e-01,3.468703081002920685e-01,5.023709220999996727e-01
7.295346207411026853e+02,6.452718733122926551e+02,5.443668451377716337e+02,2.216390435443095219e-01,-2.600829325871117370e-01,9.398047683182138012e-01
9.082131583142976297e+02,9.856561794064253945e+02,1.446167950499603876e+02,-5.854042136294284049e-01,7.061030402484559376e-01,3.983972931845771726e-01
7.054779609908481461e+02,6.662696202335793316e+01,9.601058121441330968e+02,9.716482344270139793e-01,1.386992072726411507e-01,-1.914738583640267500e-01
1.744382595812040108e+03,1.889357582431929359e+03,6.139377879123761659e+02,-1.973122535857978754e-01,-1.033708865466204524e-01,-9.748755481595892114e-01
1.800470319067827404e+03,1.934046615836680985e+03,6.200747898919327099e+02,1.586229660327038160e-01,-6.347810024864743994e-01,7.562353030170267942e-01
8.167464909778352649e+02,6.983687078949465104e+02,1.618788620065134864e+03,-9.108063196535530759e-01,2.828065946718389401e-01,-3.007528521714597503e-01
1.360351425162026089e+03,5.391453514010017898e+02,5.377000377993823577e+02,-5.675025188282415423e-01,5.612121234468914199e-01,6.024797454021442178e-01
6.101980022718836381e+02,9.391426750409655142e+02,1.812932156531533565e+03,-2.133745712264882854e-01,-7.591095886343428578e-01,-6.149991258508511471e-01
3.565367577511722175e+02,1.756771996640045245e+03,1.158018295047578022e+03,3.911951498045364572e-01,8.917172630960903401e-01,2.276108026123196126e-01
9.511770171192854377e+02,1.778066476659209002e+03,5.699345584082060441e+02,-2.901623851837198398e-02,6.670880627653253958e-01,-7.444135775348608153e-01
1.435228776574804670e+03,2.071318119768486099e+02,4.935785840568218532e+02,3.717645362014160848e-01,-5.788435033305293631e-01,-7.257625839590970962e-01
9.350387394795593536e+02,1.931990251500741124e+03,7.882517386359979810e+02,-3.847828772550660470e-01,-8.123328624823294986e-01,-4.382436056607985631e-01
1.719614338734676494e+03,1.244691802030771669e+03,1.967351370704294141e+03,-8.140373526671289550e-01,-5.798882508049754136e-01,-3.275370270730237898e-02
1.071090930928634862e+03,1.606337376400848825e+03,1.934073200207899617e+03,-9.082937588689981023e-01,3.568246490586404196e-01,2.183543391458122596e-01
8.469051663290020997e+02,1.462243281572028081e+03,2.135981581072536812e+02,-6.864542736460721439e-01,-3.735660394816292529e-01,-6.238821558107374710e-01
5.416818935152356573e+01,1.609019191663900529e+03,1.257472267855426480e+03,8.284757240295000935e-01,4.669082316199520410e-01,3.092324011796385719e-01
9.956177981492588742e+02,7.035752222688557822e+02,1.700096925536209483e+03,-7.536598627645203496e-01,-4.550984654784042127e-01,-4.742174585324396840e-01
6.024142370761875753e+00,1.133024668927413131e+03,4.260835975367305082e+02,1.829012997035265112e-02,-2.656796376794819392e-01,9.638878572054774274e-01
4.726291835112772333e+02,1.217182710202088629e+03,3.340445019698345845e+02,3.928191879144266041e-01,-9.159539643361094274e-01,-8.198427180389922242e-02
8.328504753122973625e+02,3.671236738640308772e+02,7.232585815707333268e+02,-9.508859769779032245e-01,-2.062979700900946234e-01,2.307747956850678683e-01
1.697660251679751582e+03,1.597033818936042167e+02,9.784207780376740970e+01,-3.387333973463476245e-03,8.884206351103096644e-01,4.590177568229210081e-01
1.684128644028591225e+03,1.714709598481833609e+03,8.066900743549402932e+02,3.067568643902416348e-01,-5.863656046246952247e-01,7.497170158550374719e-01
1.725877465384066909e+02,5.840407456604115168e+02,3.153951324073396449e+02,6.933638128330263939e-01,6.956002815935294903e-01,-1.881139848619723942e-01
8.327634558453200952e+02,1.528537238820269067e+03,7.811119661466972275e+02,2.525148368289676371e-01,3.611681777796028614e-01,-8.976601832211346110e-01
6.650283525256642179e+02,6.878879367010970327e+02,4.404798491732235561e+02,-7.366846758042805421e-02,8.401411229078812326e-01,5.373414654420742842e-01
4.531149808682583853e+02,1.343573465759311148e+03,1.354622576863015411e+03,-4.616968056310404300e-01,3.694231804177789402e-01,-8.064506019838453277e-01
1.739319612691960629e+03,9.052855053765684943e+02,6.928447448610075980e+02,4.505095476771074359e-01,-6.263669543262698758e-01,6.361647475141958274e-01
7.987809795854187769e+02,1.322258950887568744e+03,6.663279874935290081e+02,5.074096383630841700e-01,2.235094768809830212e-01,-8.322132975629705776e-01
8.949063868781721567e+02,1.432282692521083163e+03,8.184461626517974082e+02,-1.048462982939099702e-01,9.342929880069518189e-01,3.407401741725011868e-01
3.109250226780013548e+01,1.934913193238661506e+03,4.021416791969409701e+02,2.510106449951562957e-01,-6.149572699519826324e-01,7.475434517352954611e-01
3.703890433936918498e+02,9.666562341654991997e+02,3.104614843628916674e+02,5.834081767031887855e-01,-5.300971453298543024e-01,6.153307369772783586e-01
2.261631096675504864e+02,1.779217617736692318e+03,9.004288806969595953e+02,-8.526893927990970568e-01,-4.470450325911003442e-01,-2.703174767630263653e-01
3.869418976111742836e+02,1.414077295875744312e+03,1.696598312682336882e+03,5.144891486521173674e-01,5.411146360449260451e-01,-6.652036279044085676e-01
3.778839559175859222e+02,9.998143891361740998e+02,1.800614285649940484e+03,-6.793018436206406108e-01,-1.482258713084806390e-01,-7.187336755213579176e-01
1.253181814825280753e+03,1.093105914494502258e+03,1.180146436357801122e+03,-6.730136386286659222e-01,-6.727347830107794913e-01,3.073768923443058743e-01
5.617302228066794214e+02,1.212600284747321211e+03,1.495023923224759756e+03,3.588278845435318720e-01,4.028260874711105805e-02,-9.325341069937018723e-01
1.407396428219343079e+03,1.847445680014305253e+03,8.442770779406400834e+02,4.859621523836051837e-01,-5.841030058186419405e-01,-6.501264992632752593e-01
5.434288372356481887e+02,1.391889401843480755e+03,2.283308772474315163e+02,-6.861033943671973612e-01,-3.667001143782218642e-01,6.283256785718764892e-01
1.052118270131593135e+03,1.276996585553911245e+03,1.897654989928430723e+03,-5.741762992683808742e-01,3.073277477258442095e-03,-8.187259201491146055e-01
8.219673859689702340e+02,1.901065788152005553e+03,1.616764072537025413e+03,-4.678553120581426250e-01,-4.221134851225912255e-01,7.764867111912721054e-01
5.773198189953603787e+02,5.613470708183876923e+02,4.160565600504708641e+02,8.885650817397243717e-01,-4.023790099234852979e-01,-2.203252774555670701e-01
8.455861726086228600e+02,2.175395119052438986e+02,1.406427820453565573e+03,4.520530867152779964e-01,7.317174552559401191e-01,5.101348571357975370e-01
1.306169714669233826e+03,1.903624741642770232e+03,1.209566942542497827e+03,5.151038322845571393e-01,7.627851200443702684e-01,3.909308156242718990e-01
9.675279365615001552e+02,1.500544496663367454e+03,8.409418792797247306e+02,-5.440243221194666079e-01,-7.298521427881292656e-01,-4.139485313538762701e-01
3.478098352764047263e+02,1.061928934474469770e+03,1.792767240282475086e+03,-9.799568277583772247e-01,-1.610480135394340429e-01,-1.172525183727004539e-01
1.734654761880984779e+02,1.316767601514799026e+03,1.850194683850751062e+03,7.267983459204869767e-01,-6.236073101476551361e-01,2.878855451349555672e-01
1.235781057296516565e+03,6.584574912179410831e+02,1.250186576809617236e+03,9.696482030293755994e-01,-6.921556992010702465e-03,-2.444063305454858004e-01
3.874427711721164656e+02,9.250435488385415965e+02,1.673914827072516118e+03,-1.332438254257175270e-01,4.557800668839138702e-01,8.800628464020145980e-01
1.646938593254687930e+03,3.236244331074560137e+02,2.823632586309421413e+02,-2.408872154172191082e-01,-1.676889499684649509e-01,-9.559569893604062951e-01
4.555237182488203018e+01,1.631613042192157536e+03,1.759333098667796548e+03,9.263170748068274563e-01,1.452775886272639205e-01,-3.476076799553916019e-01
1.554460328873196886e+03,1.583287764785152831e+03,2.696213288173434535e+02,3.910751743553401716e-01,-3.036042701285555645e-01,8.688409838184703027e-01
1.362248968342625176e+03,9.154670092948673528e+02,7.879677093738355325e+02,9.003032897737950346e-01,5.386133304207743611e-02,-4.319177505329139799e-01
1.344420769899627430e+03,1.968301232399527407e+03,1.080074421900222887e+03,-9.897940632789647974e-01,-8.887179688388766041e-02,-1.113980072368696561e-01
1.707108082199755017e+03,7.888336627230005433e+02,1.457731869833136216e+03,-8.430346152229482026e-01,4.787629140895619667e-02,-5.357242744703849535e-01
1.710071198476585323e+03,1.855781023563388771e+03,1.538183698328002947e+03,-3.886852576023999140e-01,-5.542912116198033257e-01,7.359925429266294117e-01
1.650368723825451980e+03,8.404350098031170546e+02,1.149390408119728363e+03,-7.543400551375845087e-01,3.723723430768870468e-01,-5.406569331160520075e-01
4.459050930201415781e+02,8.102952296661214859e+02,8.098231232428811381e+02,1.198841998863082320e-01,6.851331197239998172e-01,-7.184847854164200243e-01
1.311486553404726010e+03,1.360219882605018029e+03,3.610053765906793046e+02,7.537930959067370429e-01,5.150769876777205880e-01,-4.080339021799317401e-01
9.026468145878141058e+02,3.969156048626820734e+02,1.618387013429747185e+03,2.723468849284350624e-01,6.302633055267371498e-01,7.270456244117617928e-01
6.127399678819651854e+02,1.917390009347852583e+03,1.278333675061548320e+03,-1.329280198885427200e-01,-5.797405208022416989e-01,8.038849855971045288e-01
7.061763458564016673e+02,1.014198746475864823e+03,1.161086588731898473e+03,-7.528709929248015298e-01,5.823042626010628275e-01,3.067686649073793070e-01
1.939391229914243013e+03,1.421732177501703291e+03,3.565767544126965163e+02,-3.772105488957789854e-01,4.540596294899678642e-01,-8.071815500054360104e-01
3.873087580482041972e+02,2.235016994022778078e+02,5.391819359928016411e+02,9.206543846765592731e-03,4.999514880898910107e-02,9.987070264326594060e-01
1.025259733847185544e+03,1.584383674848087367e+03,1.716877584640196574e+03,3.840821604691156861e-03,6.864460973433230695e-01,-7.271705463861430907e-01
1.077618125783801588e+03,1.392946120051940397e+03,1.892068517985629796e+03,9.439854059276511222e-01,2.702193693095497062e-01,1.894018105656780637e-01
7.492163520004737620e+02,4.692920849229127498e+02,1.353543076908641069e+03,9.172095284619818933e-01,-2.454053354578993873e-01,-3.138517201280641711e-01
4.958327575190031098e+02,7.748738258042686766e+02,1.602987596710484240e+03,8.775165022331260500e-01,1.050360524831329273e-01,4.679019298820006334e-01
2.158662527092081120e+02,1.564792662396645710e+03,5.952474938143075178e+02,-1.407883628498817104e-02,1.485768263299147296e-01,9.888006437328966669e-01
2.047611157459261335e+02,1.523047823973146251e+03,3.137295884585515751e+02,8.203199797118368997e-01,-2.358830404815335374e-02,-5.714181680675749497e-01
1.893397186551542973e+03,1.533281792857861092e+03,1.343731420235385031e+03,-3.872618040779181228e-03,2.264572437700082541e-01,-9.740134083130485010e-01
1.102955713860460264e+03,8.019261121308460361e+02,1.468500750256518586e+03,1.264609515196681300e-01,-9.656739091783959061e-01,2.268954139528946978e-01
1.071428211810565578e+01,1.878580054377842089e+03,8.874608361284236935e+02,8.648511204246378536e-01,5.005353682105732060e-01,-3.868959382772852590e-02
1.965540336005618428e+03,1.587754357131829693e+03,1.323063587633793531e+03,-4.876272874372580279e-01,8.532916521113577124e-01,1.846970085942147843e-01
2.619129534899799978e+02,2.110816836833166974e+02,9.960538081243237230e+02,-8.421434880535147993e-01,5.342215361177387045e-01,-7.349623035954590267e-02
2.939614672764472516e+02,2.761236471100773997e+02,7.716042477193954028e+02,2.379812591516990497e-02,9.956627409543049589e-01,-8.994084432718252309e-02
6.751043155652503174e+02,1.530380123151292992e+03,9.320954154054454648e+02,-1.838314290509232840e-01,-9.244798885770996177e-01,-3.339804504900980575e-01
1.009240482911179129e+03,1.358483829048607276e+03,1.721566253624635578e+02,-1.143142456679365204e-01,3.059439585778517268e-01,9.451616514898837362e-01
1.264427900176630146e+03,1.391213001632156647e+03,1.669295506655458667e+03,-9.701496697598177565e-01,-2.424813417291999396e-01,-3.523801657804082055e-03
1.467740092044657786e+03,7.136823650180848517e+02,1.477716398095125669e+03,9.375264654179257806e-02,5.794421114614700663e-01,8.096031625009150190e-01
3.310338599486684075e+02,1.227407829379458008e+03,4.386490688460991123e+02,-4.367903387736321585e-01,-8.054808544333080800e-01,-4.005181557625119848e-01
1.680287395509578801e+02,1.459073459258739376e+03,4.311369766763120310e+02,-4.455796289072803257e-02,9.250475393710366756e-01,3.772288931757732944e-01
9.365794640308198495e+02,9.177465855040422582e+01,1.878340703187054032e+03,8.293201130037003432e-02,-5.655283424062202968e-01,-8.205485820089801763e-01
9.695705304454107818e+02,6.376887664355248262e+02,1.844024133329014376e+03,2.757027235271620746e-01,2.864201094743041853e-01,9.175791677716058636e-01
1.373424427741576324e+02,2.339929199290413635e+02,5.861834482964045634e+01,2.439921011708923726e-01,-9.466210177876586140e-01,2.106573123555657567e-01
1.113438838862595048e+03,8.112218848691263702e+02,1.170704539948939100e+02,2.983077927153233722e-01,-9.443817096371485142e-01,-1.384039280805575700e-01
1.258214782846071103e+03,5.379528236144337825e+02,1.981435182352198353e+03,-8.299367985946760617e-01,-5.444817853366201721e-01,-1.214269153650329169e-01
1.751577186597048239e+03,7.262192800659834120e+02,2.021746382815523475e+02,-4.775823670712133762e-01,8.774438917647433556e-01,4.480289574791052054e-02
7.394306362597573070e+02,1.668769503009391656e+03,1.247783613494683976e+02,-9.923385429720411599e-01,1.130990204254616882e-01,-4.972753473607594704e-02
1.838787883022665937e+03,8.479549245162750140e+02,4.109900238282904184e+02,-7.161616521327123230e-01,6.957406611918491857e-01,5.529394522795994665e-02
1.649070509843781110e+03,9.262940530844842613e+01,1.638017102293613789e+03,5.890182246873724159e-01,-4.987180298015783109e-01,-6.358756621675090148e-01
1.493924281580487730e+02,2.553608031498810647e+02,1.073641393058270296e+03,5.935713314379446048e-01,8.018043185993241062e-01,-6.915857987596020495e-02
1.243515017955030089e+03,1.646753587233442602e+02,1.926225852331765282e+03,3.060639082831682622e-01,-1.390148167605745159e-02,-9.519094667318119818e-01
5.794475013112787565e+02,1.777803957494579890e+03,4.658482191471588862e+02,-4.850829630837627526e-01,-8.466680722198680620e-01,2.187411584713064017e-01
1.404197323523688283e+03,1.757329681486857680e+03,1.007260615497445770e+03,-9.349012068098387918e-01,1.346711044272637381e-01,-3.283647775536349123e-01
1.312167239862493950e+01,1.073386442869534221e+03,8.100265600750897192e+02,8.634063024869162994e-01,-5.031433048998479318e-01,3.709948194153734474e-02
7.574682441376259021e+02,6.783026250578694771e+02,1.025550557640121042e+03,3.262575252086459821e-01,7.891548185016024064e-01,-5.203755371656442197e-01
1.561942806656932589e+03,1.754966213033147596e+03,1.172182911092172617e+03,-2.380717838707617218e-01,7.796427226733233518e-01,5.792055340784658668e-01
2.378231840512519000e+02,1.321659829831464776e+03,1.705955106509953566e+03,-6.673358737966661458e-01,2.128859001678582996e-01,7.136822998041640886e-01
2.084959977033673511e+02,1.968310530342620837e+02,1.426548181182309690e+03,-6.457666081768154154e-02,-9.099976776547695767e-01,-4.095535148677937887e-01
1.309904826394767724e+03,1.904869038416192097e+03,1.759979268800454747e+03,-7.234504406413841959e-01,-7.094132523352417348e-03,-6.903398679053154297e-01
1.293625560903583846e+03,1.773679841398306053e+03,1.554826009967869140e+03,9.424473565546365172e-01,3.341766155657697190e-01,-1.090732470341926330e-02
1.809874680235825508e+02,1.699164092151825798e+03,1.475188434759956408e+03,-3.418088879777086975e-01,6.373699834719889212e-01,-6.905984276468916105e-01
3.334304692342438159e+01,6.078554361407697115e+02,1.839864820416230486e+02,9.987566485714851616e-01,-1.451836658803633273e-02,4.769039699845700753e-02
1.206485159637884863e+03,1.938302944121550411e+02,1.776658862925009089e+03,-6.958868481906934633e-01,-7.065658502298538535e-01,1.284764328746199891e-01
1.658802611065197198e+03,9.728002779496827088e+02,9.292559646655003007e+02,-8.145465600196801770e-01,-2.891930601215053076e-01,5.028730212863532500e-01
1.713485145684999225e+03,1.340998911005719947e+03,1.646213606298221976e+03,9.269754175999900259e-02,-5.514868718502095035e-01,8.290171264386061445e-01
3.961214119040408264e+02,4.868663005105851198e+02,5.433533153569401293e+02,7.748973530913205732e-01,-6.241516708720550310e-01,-9.984379760249195712e-02
1.649770361258245885e+03,7.970174052895177965e+02,1.872437862261283499e+03,-2.664860953388225595e-01,9.637792364276250856e-01,1.071188228332964516e-02
6.366441790835137908e+02,5.281167627601656704e+02,1.508608622303989023e+03,-3.349605622481345302e-01,6.686435404266191651e-02,-9.398566805087205100e-01
1.568732926407671584e+03,2.468626948339018838e+02,9.349790608950170281e+02,7.869208051160420103e-01,-2.970809203529016784e-01,-5.408313722758631981e-01
9.155165495264985793e+02,2.469063745176192128e+02,1.332232847223426006e+03,-1.429365059342720123e-01,-9.823307862733338114e-01,1.208113471943574879e-01
1.400044231145178173e+03,1.315069627861664912e+03,1.074368999351368075e+03,-7.176618935509244956e-02,-9.709158832646735959e-01,-2.284118247592006323e-01
2.197796482573839398e+02,6.915678372311662088e+02,1.437824201272903338e+03,-7.517682124497118701e-02,-6.661702675751507430e-01,7.420010917420227781e-01
6.414691705668747090e+02,1.007601290005509100e+03,4.802993531185295595e+00,-3.407379689373306597e-01,-9.341476589067702063e-01,-1.061404158813372689e-01
9.650570111441434165e+02,3.912747771798503891e+02,9.579065768698295642e+02,4.417943635266640134e-01,4.572153232696578584e-01,-7.718626098752887632e-01
1.977813316939789274e+02,9.996046205966799789e+02,4.902245182392035190e+02,8.285019639855640827e-01,5.580562197681779857e-01,4.645160115770008424e-02
8.450510398783048913e+02,1.764501836893428504e+02,1.284800967160206028e+03,9.426111070120561930e-01,-3.114945936702821494e-01,-1.202306909723633854e-01
1.172687960855857455e+03,8.527934420840639405e+02,1.358830867071083048e+03,6.501670235848372448e-01,6.940623079738073020e-01,-3.091283780129310266e-01
9.565589025224508646e+01,3.232039951493277385e+02,1.109652085736444633e+03,8.475423617737570803e-01,4.932314669054700396e-01,-1.959455665567355620e-01
5.128938573459129913e+01,6.940369805485833012e+02,1.670204567371444682e+03,6.546454661520699769e-01,-6.929915110099191811e-01,3.019968200407550096e-01
8.560127042862666258e+02,1.424401383103855551e+03,9.808439091904541840e+01,4.426229112421861678e-01,-8.809270100276501703e-01,-1.674889890328203901e-01
6.508007561764155753e+02,1.277516791375929415e+03,4.503664149198711470e+02,-1.536331035123545685e-01,5.409468099880040404e-01,8.269059307254751356e-01
1.637222362227412987e+03,4.252706152649203659e+02,1.636136002407604337e+03,4.764373904478057531e-01,-6.928019426729686847e-01,5.413251159994756367e-01
1.843522135709734357e+03,1.423907791343503277e+03,1.744289823463640232e+03,1.682626504130858569e-01,-9.652477095205479474e-01,-1.999613456178459814e-01
6.569206131951177667e+02,1.042609932932466108e+03,1.601458237716865142e+03,5.340047563300631683e-01,8.293848344869225730e-01,-1.641941428308884010e-01
1.977886913029994275e+03,1.707609182325866641e+03,2.425582147006806224e+02,-7.109196785393889773e-01,-3.125156557067965135e-01,-6.300215675701928975e-01
4.015480791329306953e+02,1.913693322169522844e+03,6.605028648143962755e+02,6.754611007825309654e-01,-6.825094728625787921e-01,-2.791650421927798220e-01
8.587644927694757371e+02,1.276841147462952449e+03,1.892630562142700455e+03,-9.586499635469255542e-01,2.768989952773216467e-01,6.570535599088023204e-02
6.720596333624779390e+02,8.011909472707613986e+02,1.307918098428302756e+03,-2.145276363374581385e-01,5.425011265169443764e-01,8.122009732666599646e-01
1.419163252670021393e+03,7.688683605492881270e+02,1.528049654981438835e+03,8.088141292444128716e-01,-3.578107681907114479e-01,4.666810029360262679e-01
3.661331910619240944e+02,1.146388118845135978e+03,1.203770849274379998e+03,1.546633867032681520e-01,7.496152783350076287e-01,6.435496649833674088e-01
8.618410245723734988e+02,7.260984977640493980e+02,1.202068813603896160e+03,-5.625625689096406257e-01,8.246862620991869397e-01,5.844591659523468152e-02
1.702923670354892351e+02,1.816469902594046061e+03,6.680150614764369266e+01,4.537176768360545731e-01,5.648759725237328944e-01,-6.892426317283779635e-01
1.059254111416097658e+03,1.310556381128461908e+03,2.155559605569399366e+02,-4.033587390921863219e-02,7.341006717379092716e-01,-6.778415899234349062e-01
1.115251793540468725e+03,1.058420950442392268e+03,1.592192606996805125e+03,-5.004957032949610557e-02,-6.875584707869686341e-01,-7.244020912165549664e-01
6.499099615206081353e+02,2.025029925500996342e+02,1.782605927265169385e+03,-2.460744235363191978e-01,-4.255671328778233287e-01,8.708271892260928126e-01
1.324746911150547248e+02,1.692323679630374045e+03,8.265198453054645711e+01,-8.000565167638893360e-01,-4.532976885949068224e-01,3.929768129268538246e-01
5.866579452716409833e+02,1.601943459733544387e+03,7.860766673512196121e+02,4.540473452740216298e-01,-1.512513127934552726e-01,-8.780455845956232075e-01
5.737476528156444147e+02,1.009998364255572142e+03,1.802538110796082492e+03,7.526939545570272561e-01,3.894191331324969862e-01,-5.308526627263334685e-01
4.276134163988803039e+02,8.225266104297630818e+02,2.218222226417689740e+02,3.161583018919392196e-01,-9.244777594320124914e-02,-9.441913666561250196e-01
1.302942062191050354e+03,8.770655061827348220e+01,8.948085677165638572e+02,-7.417272525653507698e-01,6.686375584638475367e-01,-5.257849573125251280e-02
5.828743261896440941e+01,1.722034806327557590e+03,2.688475463336148508e+01,8.695330548254093239e-01,-4.838612698467371076e-01,-9.894714805538762370e-02
2.023850976813790226e+00,5.755836649072183491e+02,1.114679724681617614e+02,-9.128676966668034520e-01,-2.202164012767609744e-02,4.076611531018523582e-01
1.845754878664366515e+03,1.621389644015495151e+03,4.005395357760370416e+02,-8.880681967934903054e-02,7.910343696969223126e-01,6.052916443637996746e-01
8.703189946017397460e+02,1.838707088396442487e+03,1.090444282129155454e+03,4.434636172173422181e-02,7.775354503854834398e-01,-6.272734838934997947e-01
1.174204126006023444e+03,1.381316782421714606e+03,1.437549082779407854e+02,-1.573207918181180887e-01,5.142723986208773690e-01,-8.430741773286913876e-01
1.516027541572587779e+03,1.929777792021661526e+03,1.441586994713135709e+03,7.598042929937341705e-02,4.745320526549627327e-01,8.769528524194163399e-01
1.552483715671540722e+03,9.491050274654104442e+02,4.716452981709722394e+02,-1.430098523738470295e-01,-9.760275761564519703e-01,1.640681343411081461e-01
1.935420624316904878e+03,5.916822343085403872e+02,1.615239794960132713e+03,4.265589823004180547e-01,7.692186538553882347e-01,-4.757626479451032009e-01
1.071376456906699559e+03,5.570872275985271926e+02,9.183326248630359032e+02,-7.000701227596979326e-01,4.815376785902765466e-02,-7.124486212073122271e-01
1.262638995815653061e+03,5.884268716956357821e+02,1.215648773131198595e+03,-2.155272060138433421e-01,7.846115399690961612e-01,-5.813198386561306830e-01
1.023749280416948977e+03,4.158562565350385398e+02,2.421133074140779939e+01,-9.970487977705798643e-01,5.759790489586732315e-02,5.075604610140493911e-02
6.583099270426115481e+02,2.482780475020400672e+02,4.011959891863947405e+02,2.409589621011557492e-01,7.743680347447715606e-01,-5.850580529730824431e-01
1.684543725850641522e+03,1.976209893626954226e+03,1.390912735742139148e+03,3.176077880369455597e-01,-7.439871835089085783e-01,-5.878846517411049355e-01
1.035103490553565734e+03,1.935112315460817172e+03,3.307087665934105303e+01,-9.783870370317518939e-01,1.549527493657597010e-01,1.369249839591788476e-01
1.451829311303552231e+03,4.328101049857680209e+02,4.337554523555737660e+02,-6.391662236413436782e-01,-3.848765798564298124e-01,6.658352324968099811e-01
7.428361643852352927e+02,1.258221194919482286e+03,7.014146727352008384e+02,4.928678734043573373e-01,-7.159458724353577885e-01,-4.944722106535826556e-01
5.161888914615000203e+02,5.687948366496231074e+02,1.836995061361099260e+03,-4.290654071638748124e-01,-7.193156397656327306e-01,5.463404495036559005e-01
3.661838872436948691e+02,5.525644827063289313e+02,7.573506446338658407e+02,-9.806921438598616148e-02,-7.949455232546436267e-01,5.987019661293224715e-01
1.262601450925953031e+03,3.301996870004199991e+02,1.499547373309480236e+03,-1.572180957605657375e-02,-6.120603837698557204e-01,7.906547358507070022e-01
1.873749530439980163e+03,1.623777095323295271e+03,1.551903089648740206e+03,9.270918956558011903e-01,3.699274105528501111e-01,6.045103746831936853e-02
5.523613104610960818e+02,8.620662854112739524e+02,1.713111170091134227e+03,4.665837397787506724e-01,-8.399273037880716775e-01,-2.771673467877764918e-01
4.485879056326334080e+02,1.568575298366180959e+03,7.008406624965086849e+02,-1.032217383819706430e-01,-6.149990845594258682e-01,7.817425399173771883e-01
1.405042350675288844e+03,1.580688967142956017e+03,9.718765057657483339e+02,-4.268863676463332535e-01,5.151432591003953787e-01,-7.432331072558209240e-01
1.169074388404722811e+02,1.858484376422948799e+03,1.204510888656846817e+02,-3.039207787380282522e-01,7.365949472373475304e-01,-6.042019893675290021e-01
1.909551105987116671e+03,1.558593356735586667e+03,9.591218391464524302e+02,1.861268264750891646e-02,9.988699255494828400e-01,4.373145181026694139e-02
1.914007100286126388e+03,7.592804803117927577e+02,1.571883922313955054e+03,5.752034427023878793e-01,4.099464478250962607e-01,-7.078735123020964970e-01
5.643351578774862674e+02,1.148723468840708790e+02,1.507849885183869446e+03,-8.509390254041764301e-01,4.956674379366627914e-01,1.738291287831095211e-01
1.834611005585797557e+03,1.285914170502705019e+03,1.567656544146748047e+03,-5.537579338486188218e-01,5.046081906921379145e-01,6.623614757714370027e-01
1.300727569138568015e+03,9.557760148649153109e+01,3.924923755979410203e+02,-8.154390048655852929e-01,-5.150427863062897460e-01,2.641782686325231388e-01
5.995732374613194224e+02,5.031104993710902136e+02,1.634891478948514759e+03,3.560164281312435675e-01,8.104823245729219083e-01,-4.651566450729731628e-01
2.661403958165300310e+02,3.961196570748763861e+02,1.343779956860561697e+03,-4.115634054247985230e-01,-4.902391952289250621e-01,7.682975301121557354e-01
9.872151212703688543e+02,8.347033412067139579e+02,5.200840499609436165e+02,3.947678492607767931e-01,9.125495040260485080e-01,-1.068257828982945995e-01
1.752299545029471346e+03,1.691191652214753731e+03,1.051687026981095187e+03,8.915491600000172712e-01,2.577390503574917835e-01,-3.724388234651188623e-01
1.554159595677612288e+03,3.437521444320341857e+02,1.898781058057808195e+03,7.531120942366579252e-01,6.544593588310224641e-01,6.712019929173675126e-02
1.116944511082444933e+03,9.832170604260381879e+02,1.442780120208939707e+03,3.399207876880985246e-01,-6.735534992043308300e-01,-6.563379783366983800e-01
1.532786694226757618e+02,1.436987026058028050e+03,1.019623711272501737e+03,-7.331341783852343141e-01,-3.082255569368222980e-01,6.062270882552126539e-01
1.667384310475184975e+03,1.260650048480963733e+03,4.382046525172322617e+02,-7.459904012689785313e-01,-4.892317892546740321e-01,-4.518302530787625670e-01
1.168881660840351060e+03,1.576177496595969615e+03,9.933372902920374372e+02,8.360054455787585548e-01,4.349080437212869410e-01,3.345891338181570251e-01
1.129855463777833620e+03,1.344210892609819894e+03,1.642660901192475649e+03,-6.732909973140439597e-01,-5.781907397188092990e-01,-4.608412974542064888e-01
1.120215909356435304e+03,3.538691865815015944e+02,5.624922860460530956e+02,-2.155844321130190033e-01,-9.760560881310637038e-01,2.894590563089027846e-02
9.538621101313613053e+02,8.084836905663593143e+02,1.828587033488340694e+03,-2.371017869019194924e-01,-7.059973115374537089e-01,-6.673458913860219610e-01
8.510430175655847052e+01,1.454852249681129024e+02,1.839738621715812087e+03,-9.658698002777788005e-01,-1.323845764967239713e-01,2.226428818021064515e-01
6.718006339237092561e+01,8.373208558175084590e+02,1.795148295058765143e+03,-5.822610952275710794e-01,-5.845056025315378267e-01,-5.650886811763560225e-01
1.913307651620222259e+03,1.796377706681193729e+02,1.553215234699976008e+03,1.137750720761718098e-01,1.329528885659594095e-01,9.845703440567512565e-01
1.897090637428003220e+03,1.134072380382734536e+03,4.626703155848377378e+02,3.029629560918724596e-01,5.329166310430204501e-01,-7.900717129437246911e-01
1.583727665073156686e+03,9.428124818101240407e+02,1.608318003883926224e+02,5.625047379481451504e-01,-7.315106535270980981e-01,-3.853317837425904724e-01
1.535173727945807286e+03,1.345013547550682233e+03,1.758486029445410168e+03,8.994660476616556100e-01,4.360471811311772417e-01,-2.869991169802866074e-02
1.586692338098967639e+03,5.827868905475115753e+02,7.543850648690013259e+02,5.157572250655042545e-01,-5.757070539345091609e-01,6.344729094632637345e-01
1.488435075636303736e+03,1.328465593237747044e+03,1.421480157396126970e+03,8.495242127243421426e-02,6.950408029868515580e-01,7.139337282292688158e-01
1.961242608467754849e+02,1.805552284169144286e+03,4.657221359825784930e+02,4.554198872585467628e-01,2.637119400152326265e-01,-8.503227263708850181e-01
7.345300648045794389e+01,8.145229668978846576e+02,1.488187288092293102e+03,5.121923788560425184e-01,8.008928327225491861e-01,3.102090223308133776e-01
1.252341376839800205e+03,1.473131077095278215e+03,1.602380156620720982e+03,9.894282154458193812e-01,1.013435608595131265e-01,1.037366336065299599e-01
5.966961542815989787e+02,8.066123823611048849e+00,4.855199842404383048e+02,-3.400512267795354204e-01,-4.190314624978547231e-01,-8.418894206501481570e-01
2.296274652364518261e+02,1.021694440573959810e+03,1.056642493352912425e+03,-4.688461471116583956e-01,5.936051949994526344e-01,6.540765725878088244e-01
7.865939187844170419e+02,1.892740184918497789e+03,9.508181676477640849e+02,6.964050716030367738e-01,4.054299157501144446e-01,-5.921541688280378413e-01
1.728189265808465962e+03,1.844941749100688639e+03,2.129255907084635169e+02,-7.440732270403278559e-01,-2.481682314993405580e-01,-6.202963498814759724e-01
1.412604692467330779e+03,1.086398907293545790e+03,1.797739806184137478e+03,8.523822526869917482e-01,4.013350762088201962e-01,3.352232866444542214e-01
9.977319028704060884e+02,1.791321112058237304e+03,1.172900641134384841e+03,-6.159342551293348622e-01,3.018326573372245303e-01,-7.276826508327796095e-01
1.609224177883543803e+02,1.138586304431337794e+03,1.027953681079061880e+03,-7.024135823306938420e-01,3.927551612192218822e-01,-5.935979638551875937e-01
5.862827799017655650e+01,1.159292992074338827e+03,1.383476735405302861e+03,-4.417948302201607502e-01,4.257540821191658220e-01,7.896523219427686868e-01
1.603168791590763249e+03,8.901337484867636931e+02,4.718426152956895976e+02,6.407164711067864227e-01,7.149482641455905396e-01,2.798774432634286158e-01
4.102564797987582210e+02,1.705933771632949174e+03,1.606737033875898305e+03,-3.445893236280127558e-01,6.956773492394405789e-01,-6.303104186008463561e-01
1.422937171938863003e+03,5.264803992107971453e+02,1.360406995474547330e+03,-4.137339454607196210e-01,3.358926505221693226e-01,8.461680386889463001e-01
1.103492890414434669e+03,8.853075897097351117e+02,1.298215214494234033e+03,6.533899511031997231e-02,9.488945325249852347e-01,3.087555373789487856e-01
4.822417934181775081e+02,1.674850948169670573e+03,1.731180295272997455e+03,-8.691629019075509666e-01,-4.215647366028578147e-01,-2.585324405188025310e-01
7.983491776730415950e+02,1.441406643160433077e+03,3.816955969163486770e+02,-1.513567097524986804e-01,8.828021065015471125e-01,4.446926884594899487e-01
1.395114654574519136e+03,1.879205513436150113e+03,5.991214055514554957e+02,5.402339713403868648e-01,2.595901652431232276e-01,-8.004749854422947841e-01
3.313603829099160976e+02,1.242681484828921839e+03,1.290431700512618136e+03,5.279913920742925759e-01,2.375769590771955320e-01,8.153418169155088879e-01
1.085343153596263619e+03,1.718349227623800743e+03,1.758106207779435181e+03,9.972538175328984345e-01,9.658270963827582031e-03,7.342711500562872085e-02
4.674701045094133747e+02,1.994696539962147654e+03,1.634803380794391387e+03,5.940022453056037488e-01,2.805137103960343437e-01,7.539717440672104587e-01
1.985682918034262002e+03,5.304701931902048955e+02,1.331825033959897155e+03,1.315199726243553302e-01,-5.759326059123294483e-02,9.896390822594665071e-01
1.125485757662963806e+03,6.330832365534932933e+02,1.558217667540230195e+03,4.648045054084246064e-01,7.899802940982030286e-01,3.998598588112423080e-01
1.886530162509931870e+03,9.228553107484309521e+02,1.739193443982765984e+03,3.806819719035381966e-01,-3.801746738829422934e-01,8.429403618321003044e-01
1.322844608467277794e+03,1.410844144454987372e+03,5.198386957117157863e+02,-8.204595094073025008e-02,-7.613789803747943452e-01,6.430944799776077136e-01
3.713462479666445120e+02,6.732870579539986693e+02,1.920464542696928902e+03,4.662435049782965857e-01,8.813322471783500145e-01,7.661895424183941261e-02
6.039829567843668201e+02,6.042219131313790967e+02,1.820319902323633414e+03,9.910885947894045866e-01,-7.441818363893633326e-02,-1.104777408451360771e-01
1.605327648094509641e+03,1.496747937684474209e+03,1.757485919267535337e+03,-4.735134429931666111e-01,4.455521363082664554e-01,-7.597817536213258283e-01
1.421856374323745740e+03,8.384131949517105795e+02,6.000249130502693333e+02,-6.800814838497822867e-01,-7.326597896747220062e-01,2.643497528787275286e-02
5.098805405085540201e+02,1.514787155484986215e+03,1.886962026349993948e+03,-4.424160848275794367e-01,-8.022234410087072387e-01,-4.008809780745217211e-01
4.936534801349519057e+02,9.685745398225975578e+00,4.664442006305779955e+02,7.428145253617493005e-01,1.417208656260364741e-01,6.543254367345090472e-01
1.677365760488618662e+03,2.599734425244453178e+02,3.518441587364216048e+02,3.150298309620552240e-01,7.461681754910313158e-01,-5.865059756629973364e-01
1.429048966405619467e+03,1.628354474652466024e+03,8.014985609767358028e+02,-1.898221493360176260e-01,-4.830954242872665394e-01,8.547434484417886225e-01
1.012448956375616035e+03,3.140031538020433572e+02,2.464595852815867261e+02,-8.496905165246902980e-01,2.188920879734749247e-01,4.797001979889290446e-01
1.346890110164513544e+03,1.678330607998979531e+03,1.061534796872069364e+03,-8.109862403875360837e-01,4.115663649305451033e-01,-4.158298271648475097e-01
3.878037900194650547e+02,1.581969652844797110e+03,1.508837815069910221e+03,8.941485093288090713e-01,2.939827007052936425e-01,-3.377463766661168432e-01
2.975642178788837668e+02,1.995743541058374831e+03,6.324214011842343552e+02,9.557453681971199710e-01,7.337832486374694374e-02,-2.848971965638518733e-01
4.248328654247854956e+02,8.926139531510499410e+02,1.490607191620504182e+03,-8.458671411800741113e-01,-3.960334200945569427e-01,3.573042256118121873e-01
1.854814250016504047e+03,1.200645660942489940e+03,1.839463078847357338e+03,-5.331931885147034311e-01,-4.597697831469091945e-01,7.101526386816907621e-01
1.534046300787839982e+03,1.008080512713929352e+03,1.748787846596799866e+01,-5.858478939313963574e-01,6.561919181553893532e-01,-4.755990030726495732e-01
9.810238625666047483e+02,3.999800208364765695e+02,7.833680305303141722e+02,-7.913282011281305151e-01,-5.747144206295831115e-01,2.085737587035337015e-01
6.528892434269581599e+02,3.242945254701858744e+02,5.695211201435088242e+02,-2.133866319259098698e-01,-9.713468674197006658e-01,-1.046489773922842925e-01
9.367789015229612914e+02,9.023618820086837786e+02,2.921391817352181306e+02,-5.797597141570546286e-01,1.646423391608423104e-01,7.979796826963556633e-01
2.435891051488561345e+02,2.987105465314736534e+02,9.971844697783390075e+02,-1.091616904739932115e-01,-7.103348444081748481e-01,-6.953474916561317443e-01
1.774116466029640151e+03,1.063083947893760524e+03,1.034877013879428887e+03,5.880375402956828923e-01,-6.552278329724503525e-01,4.742239324425013280e-01
5.406481524133334915e+02,1.457353138001362822e+03,7.676698857822816535e+02,9.812199813193878128e-01,-1.843197052860470198e-01,-5.686470348858829738e-02
1.405255363836029574e+03,1.607114958657523630e+03,1.189866183364562630e+03,-1.279916396579154902e-01,9.854100381076729143e-01,1.121837643080008107e-01
1.202283005359725166e+03,1.159267093563260914e+03,1.540314794392979366e+03,-9.023688793464756941e-01,-4.231814600397383330e-01,-8.153439437207499196e-02
4.792681075068967402e+02,1.457429079844428770e+03,7.733653292375327055e+02,-1.034707930529274282e-02,9.062373478249600156e-01,4.226426473476527779e-01
1.044650099772735075e+03,1.911014675022815368e+01,9.751328054670620986e+02,7.869248480429342704e-03,7.195471091073978309e-01,6.943990442847252087e-01
1.558555402358630090e+03,6.246451247745459341e+02,5.736200843259076265e+01,-5.235044571426078486e-01,-8.268603238343561479e-01,2.055360995552055758e-01
1.593137049826237444e+03,9.141296527133226846e+02,1.451815146589430469e+03,2.172491245762841194e-01,-2.825659145913206882e-01,-9.343229215758375172e-01
1.819286182255023959e+03,1.795933373196776984e+03,1.253497739976271532e+03,-7.102125897028791490e-01,6.209912005307406391e-01,-3.316142431966988546e-01
4.669660716228163437e+02,3.884161154242133875e+02,3.392803531213228752e+01,-5.530077380956606170e-01,-6.793629897454113165e-01,4.823363657972488117e-01
8.483702637464127747e+02,3.834694177375275359e+01,1.963332230382099169e+03,9.920810543862971231e-01,1.250907339530399898e-01,1.129113842191920188e-02
1.707169314990183238e+03,5.821419178761277635e+02,1.730822862402178089e+03,1.358962606842696874e-01,9.803195663324657527e-01,1.431983037530801806e-01
1.749513398117146380e+03,4.288138232208353884e+02,1.361691762309121714e+03,-6.490029497627493038e-01,6.793545427624669841e-01,-3.424508379713060435e-01
6.029558844266720143e+02,9.431486835393503725e+02,8.540354829683693652e+02,5.082364988457257482e-01,4.313040015746760214e-01,7.454344501475032025e-01
1.005424992871548625e+03,8.188011817469380276e+02,9.998220945341187189e+02,-3.177940948584589420e-01,7.369788110414181581e-01,5.965476890819967348e-01
1.576568002039413443e+02,8.646183085294143211e+02,1.340279155757695207e+03,2.546777721450299015e-01,4.254497933767347195e-01,8.684075688816501604e-01
2.201058564950701850e+02,1.058172824070433762e+03,6.396749306334596668e+02,3.474002986817623650e-01,1.676767748162857063e-01,9.226036698729476182e-01
7.805519554572821335e+02,1.962430616351691469e+03,7.654935673179119249e+01,3.253660178013073057e-01,-3.805989398635574450e-02,-9.448218874104614695e-01
1.356009027077504925e+02,1.747446234417908272e+03,1.916230868570573193e+03,9.562125945636013036e-01,-2.143796918539799812e-01,-1.992456316172040165e-01
9.268552366988693620e+02,9.508572493559439636e+02,7.724478636750530995e+02,-5.973244886874831128e-01,-2.568818464788522604e-01,7.597467816080909486e-01
8.132535219853183435e+02,3.701540235002542545e+02,1.112690883199320950e+02,6.132852966243990123e-01,4.808560348647739624e-01,6.266247830069044955e-01
1.651938175084399745e+03,8.948302109780725289e+01,3.242847339210139808e+02,7.354412027330426982e-01,6.755010407391627281e-01,5.314678995841326525e-02
1.117817884954989722e+03,1.886943378172590201e+03,1.417493240814046430e+03,-9.447960834802556773e-01,9.842246262258563805e-02,3.125274059849398878e-01
3.145083113238156258e+01,4.434982791266732534e+02,1.345422689796299210e+03,3.765416162965529168e-01,-9.201961568830356875e-01,-1.070301081680813393e-01
9.112807055138114265e+02,2.201484386522898262e+02,1.443054001186886126e+03,-7.576479452648362534e-01,4.365854317753116165e-01,4.851419913773042936e-01
5.719102717120041461e+02,5.168870484126764495e+02,9.124440332642593603e+02,5.682716205524442898e-01,5.848258357424106491e-01,-5.788316742567649609e-01
1.383392367181366808e+03,1.287646523534868948e+02,1.178603909468660049e+03,2.464537305453106189e-02,-7.993233298900855877e-01,6.003955528486436544e-01
1.862825168475125110e+03,1.502384330312405041e+02,1.007447715690837640e+03,6.513977529929200205e-01,7.450419603345921349e-01,-1.435041627847872814e-01
9.049305152495159064e+02,6.087811933725826066e+02,7.932190015811335115e+01,-1.458902208526154931e-01,-8.915360274454389167e-01,-4.288117946446676765e-01
1.502431793141496200e+03,4.173423283375776691e+02,6.329725226660935959e+02,6.428504403301472658e-01,-7.444776032416798861e-01,1.802676056280205774e-01
3.439833481628951262e+01,1.231665232634408540e+03,3.740815290619223674e+02,2.984961789480136130e-01,1.412494513766159032e-01,-9.439007488286257352e-01
4.800281781330133413e+02,7.797820059220046005e+02,5.356144208958639865e+02,9.913533260671963943e-01,-1.171895079993379302e-01,5.903560036435862718e-02
1.345483820981245572e+03,1.762222157451701150e+03,3.112470242094200756e+01,8.928003459002438191e-01,-4.029570485841290073e-01,2.013284862029540712e-01
9.570967234943850599e+02,1.687705154696550835e+03,2.002341186639089301e+02,1.496628996748030072e-01,4.687533490736332520e-01,-8.705580475724650213e-01
4.229539212010147367e+02,7.238702239121020057e+02,9.817653077074213570e+02,4.155374827673099514e-01,8.228157190028423384e-01,3.876891705699854196e-01
1.880136520339574417e+03,4.290592668663668405e+02,2.272323310756085846e+02,7.248857164851802981e-01,-3.904345230965522995e-01,-5.675399379868650840e-01
1.352388269603975914e+03,9.581032272584029670e+02,1.346569817202649347e+03,9.411086474877551344e-01,-1.714200723334064758e-01,-2.914269589879734390e-01
1.509264092252635010e+03,2.297806423117771999e+02,1.955082226073938955e+03,2.794890515927300756e-01,9.483845707947382575e-01,-1.498418363417784172e-01
4.658628849772314879e+02,4.700830126179267268e+02,7.119463304232889413e+02,-9.052491622796515758e-01,-4.120608023292845479e-01,-1.035849862467313059e-01
7.513515455539916275e+02,1.790242717715110302e+03,1.142525078496728383e+03,5.996888536978761675e-01,5.079916832688579076e-01,6.183184684935424391e-01
1.057108596049284643e+03,3.435493302502528081e+02,1.682524351174299909e+03,-9.224883529670045990e-01,-3.417465105109017132e-01,-1.795120084948227390e-01
1.854248245885784172e+03,3.597709904516006532e+02,2.548839474346253908e+01,-8.883996254726499453e-01,4.452804461332506292e-01,-1.116755557471225124e-01
1.659070362478169500e+03,1.528964470800418667e+03,6.627509978084571003e+02,-3.876612819355406137e-01,-2.532657653900795003e-01,-8.863267921988313702e-01
1.675336535335111648e+03,1.507609351181034299e+03,8.607266772013834952e+02,1.209156995003720370e-01,-3.448816845403678277e-01,9.308254494173082705e-01
6.404598855336938641e+02,1.887293107300591828e+03,1.402622462807740931e+02,4.695599211354385960e-01,8.172515027821886102e-02,-8.791100501503115172e-01
1.233326255038624367e+03,1.399607710183895279e+03,3.352969378185051141e+02,2.795491149293545252e-01,4.841092888335591926e-01,8.291504621040020062e-01
2.080505483961912034e+02,1.727059938782860627e+03,3.822224054864062737e+02,-7.743364515882603660e-01,1.578154941146933665e-01,6.127783690365031788e-01
1.469459134867885950e+03,1.818881482231943210e+03,1.089350051329728558e+03,3.136038392707761746e-01,9.210941725270053171e-01,-2.307339535729855673e-01
4.417701066883727776e+02,1.630911814615619278e+03,4.690585674915128607e+02,4.482585991341587195e-01,4.598524306392718364e-01,7.665506965213946255e-01
7.738329796422486879e+02,7.737026181811446577e+02,6.283281880644442197e+01,8.671063545614731138e-01,-2.870014980863103138e-01,4.071323003340885371e-01
1.874870619596796132e+03,4.546636400663128796e+01,9.755829401902225300e+02,4.901169949498555001e-01,7.846889092034563529e-01,3.795374119035082039e-01
3.808018801479189506e+02,1.299022943268555764e+03,2.374215158919308237e+02,-5.431170660583787280e-01,6.920350219815201154e-01,-4.755117042799009153e-01
1.013139135801912403e+03,1.991024038710235800e+03,9.412866619826615988e+02,-6.621551565615585444e-01,2.075168176762836325e-01,-7.200606356553911347e-01
1.244959535845821165e+03,1.599205612995033903e+02,1.657291445387636259e+03,3.813335059911755476e-01,4.142475027711185476e-01,-8.264283173127420223e-01
2.987575075501134165e+02,8.381006015031769039e+02,6.952433104178492158e+02,2.527799703588115010e-01,-2.287450533343131365e-01,-9.400946692543685757e-01
1.142043996299602895e+03,1.464779385472596687e+02,5.202653667557035533e+02,-2.044357603141824797e-01,-9.772850240684932688e-01,5.585697482147322646e-02
1.409938750638172451e+03,1.238609780205481684e+03,1.105374200947331929e+03,5.548819856378209847e-01,7.980670415337550727e-01,-2.349361173429678207e-01
1.225489894635330529e+03,1.455476551590097870e+03,8.257204164802476498e+02,-9.568731058885765473e-01,-2.378332962431803088e-01,1.668208093292102845e-01
8.742891556837450651e+01,4.535499723461011854e+02,4.830573543876579379e+02,7.888978493920557611e-01,2.592663332070576088e-01,5.571545132994581984e-01
4.335539818069975695e+02,1.866510567867965165e+03,1.508503966671446960e+03,-6.043859765739366674e-01,-7.966840576421916342e-01,-3.479025659890222933e-03
1.658943322225552492e+03,7.966434239271089837e+02,4.098225794262791055e+02,8.125686705220120931e-01,2.624489327944346528e-01,5.204351192619038891e-01
