x,y,z,nx,ny,nz
1.418788787450425389e+03,1.048691193530394457e+03,1.392320927033937778e+03,-1.687904304834032532e-01,-3.764362064690864873e-01,9.109366460058518911e-01
6.177053697275943023e+02,1.185189374646745819e+03,4.702408145149286156e+02,3.460054535857505220e-01,-1.244512131335793054e-01,9.299419990722537221e-01
9.446479925768045405e+02,1.682953429796794580e+03,2.622212846958278192e+02,-8.990817220866667014e-01,2.128868281670485141e-01,-3.825326854043291647e-01
9.716504574177932909e+02,2.737522375949017714e+02,6.870730594087166310e+02,-2.916816426571829379e-01,8.897286888446659381e-01,-3.511476606551141022e-01
8.298035451465040069e+02,8.962413150054467224e+02,1.549800751628034277e+03,-7.974069696518666372e-01,-1.129262356990006766e-01,5.927814015650969548e-01
1.556427203087793259e+03,1.774577903705469680e+03,1.349837539733575341e+03,7.414977975985630465e-01,-2.983795914743436195e-01,6.009580979969271208e-01
1.751343449740166534e+03,5.531261449022683792e+02,9.515289988484885271e+02,-1.644830182904525873e-01,-7.878306127953579319e-01,5.935219138638047065e-01
1.317496517908291025e+03,1.385041400196709276e+02,7.141412567057578826e+02,-7.009893628785663910e-01,3.422931540486812141e-01,6.256591003274125651e-01
1.456322566294267517e+03,1.642455216613119092e+03,1.521030239960566178e+03,-1.477279440952495582e-01,8.090395616123205458e-02,-9.857134494420030091e-01
1.109990062254453420e+02,1.082884264190439353e+03,1.215541502887734396e+03,7.041354502131497162e-01,-2.695686601600303933e-01,6.569063899922507055e-01
4.608613488204389341e+02,1.318316794141121818e+03,2.649479776334970893e+02,-7.433798954065141684e-01,-3.779628774731666474e-01,-5.518427261073612922e-01
1.564460302647556546e+03,1.713951252223520214e+03,6.734840900569638222e+01,2.901234098340536582e-01,-9.547594848478960783e-01,6.528960988734722193e-02
5.485171863888424468e+02,3.382021267307666790e+02,1.753401860363270544e+03,1.860426266373975956e-01,5.437526887071594262e-01,8.183649275216973162e-01
1.438464283384673081e+03,1.690690317527946945e+03,3.365506107344886573e+02,3.355417152353806776e-01,-8.823563466363286700e-01,3.299379258095221368e-01
3.294333175580257489e+02,7.105760966072671181e+01,5.630676356969875087e+02,7.569835930477691877e-01,2.187190148852730109e-01,6.157416929071031220e-01
7.232332954241145444e+02,1.272445713971037691e+02,2.989726066484608396e+02,-2.973918791997058331e-01,-4.656575880602149831e-02,-9.536192638012757072e-01
8.541069860274552639e+02,2.691409172893752952e+02,6.627144219248112904e+02,9.159688820619584781e-01,-3.582617946876278658e-01,1.806917086126702821e-01
4.832058333076996064e+02,2.115981387669152269e+01,1.661280651987609417e+03,-5.039988631590862633e-01,1.341296061395692574e-01,8.532258755401131989e-01
1.732398068168782174e+03,1.219229596669118564e+03,1.745254366288374058e+03,-4.132444068812780175e-02,3.026862675049745710e-01,-9.521939477153382736e-01
2.412648566123163505e+02,1.821426908576476535e+03,6.087853333124626687e+01,8.458386617047990441e-01,4.067526554633770219e-01,3.451220590442254377e-01
8.361990853551317286e+02,3.628085781147339048e+02,1.042028206564352786e+03,-4.078981408089462635e-01,9.103413719002666493e-01,6.998352185583134322e-02
3.204048212383390251e+02,3.850164379197107678e+02,7.090220360912120441e+02,2.630771892008967328e-01,9.336064121704541474e-01,-2.432477331371614149e-01
1.656187139093895212e+03,2.137534885132828038e+02,7.389718313207680467e+02,-8.054593446090494435e-01,2.556878404217206024e-01,-5.346578087360525089e-01
1.003613782236846987e+03,1.845206306155913580e+03,7.650222778596676108e+02,-7.868194370013499306e-01,-5.392226936336897980e-01,3.002566572572654136e-01
1.233306603397372783e+02,1.489647347363619247e+03,1.892551854344855656e+03,-2.288610657882465260e-01,9.511699583022937832e-01,2.071191033909729473e-01
1.424097573562789648e+03,1.312900573077204172e+03,2.938606313870870963e+02,3.088319803216942327e-01,-8.891767505572835406e-02,9.469511365394016611e-01
1.187274658817744239e+03,7.925714773378867051e+01,1.977268669123877316e+03,-5.040354592155692481e-01,-5.827132867574267294e-01,6.374899852465976124e-01
3.760598571651723319e+02,6.153091801857030987e+02,4.927872885714417066e+02,8.222500884098807861e-01,5.357266637033114565e-01,1.920982402503008946e-01
9.245518842614552568e+02,8.896247299087574447e+02,2.094226071464875361e+02,3.791143031929071761e-01,-8.482419073766896966e-01,3.698080741202276478e-01
4.840452149282656933e+02,1.570841443171019364e+03,2.913588667668678340e+02,-6.608815466999323762e-01,-3.671462912655651945e-01,6.545526579591942617e-01
1.026486799687477969e+03,1.257702806129294004e+03,5.171789971852915642e+02,-6.337900318896810825e-01,3.419554776818155006e-01,6.938131209199481786e-01
1.670937122295069457e+03,1.986950283192612119e+02,1.292508218897584584e+03,2.356440496218489833e-02,-9.250921475767870383e-01,-3.790108670085150511e-01
9.151977493034339659e+02,1.790733569074124034e+03,1.145071196003353293e+02,-4.671112332036385095e-01,8.767359094245025242e-01,1.146352517359585654e-01
1.507037037405835235e+03,1.123481312137752866e+03,1.788290673912431203e+03,-5.098609509100395787e-01,8.375086479323170519e-01,1.965224551436617340e-01
2.314281012186108057e+02,1.052034851575771626e+02,1.465243818904161799e+03,-6.226273977608303145e-01,7.386758132114341624e-01,-2.582502014210315000e-01
6.545872930307732531e+02,1.777977193768218285e+03,1.287975958463244751e+03,8.747564999685100151e-01,3.433727303988274859e-01,-3.419009122264757838e-01
1.936826402433699059e+03,8.105352804679100700e+02,3.200669228906556327e+02,7.386292167828500954e-01,-5.396594204877438461e-01,-4.039735015982930388e-01
1.555720133134562730e+03,2.697292627937937368e+02,1.922787426875847132e+03,9.616785258530637925e-01,2.674414917646789625e-01,6.041077218312462804e-02
7.164510889182438405e+02,1.462842557800213399e+03,1.047416029599496824e+03,4.556710270240136862e-01,3.583372247149645973e-01,-8.148363937100855381e-01
3.224000184336939014e+02,1.055115862490065837e+02,9.402633006580040842e+01,3.715283743709576481e-01,2.400310817639467464e-01,8.968565921174371791e-01
2.372596407471523321e+02,4.295757024174211551e+02,1.526144145562167523e+03,-4.731229130290091622e-01,9.113848570593124920e-02,8.762696420566984390e-01
1.998416602794649862e+03,9.554642537187163498e+01,7.788958080610732395e+02,7.750345228550737930e-01,-6.270723920810648000e-01,7.811340136327182826e-02
1.218773282089248369e+03,7.972045819517312566e+02,1.668957438324533541e+03,4.676986979419598955e-01,-4.862525659913942144e-01,7.381167726113397887e-01
1.955746879558346620e+02,5.971588562687979902e+02,9.718441119749459176e+02,4.974698954977668786e-01,-8.674223636690229222e-01,1.010673440268239354e-02
1.329181511097715656e+03,7.483997949231882103e+02,1.550965106452713144e+03,-7.850490967461849490e-01,1.161244199175560238e-01,-6.084513413550916017e-01
4.239803482659556266e+02,1.870349372688539688e+03,6.320942210156567853e+02,-6.110905196509678339e-01,-9.404612601541929851e-02,7.859540081799964995e-01
1.585963364667713677e+03,1.039137902649791556e+02,1.653887056727979143e+03,-8.572424137973448655e-02,-1.659460751103317699e-01,-9.824017785994410001e-01
6.857504762521601833e+02,1.905502789590696466e+03,9.724669462617064255e+02,-5.522121791810544883e-02,-9.475327699405033943e-01,3.148527703237153919e-01
1.677591516221955999e+03,1.827839877445103184e+03,3.108413046988178507e+02,-2.080719099210751044e-01,9.737320530182664857e-01,9.247685778954672919e-02
5.654078571499865546e+01,1.025094006882774011e+03,1.585629710713277746e+03,6.866998768534122721e-01,5.550113652976123024e-01,4.694738155850535222e-01
4.756814602341465843e+02,1.615575262433662374e+03,9.942576637248916995e+02,-7.355295691702297411e-02,-7.310494621774606960e-01,-6.783484697254119622e-01
1.397802299971897810e+03,1.929692678053923146e+03,5.122889024119024270e+02,5.108765257633780532e-01,6.780257989854475698e-01,-5.284753460040366724e-01
7.988976447714311462e+02,7.133240974291468319e+02,9.206092018637224328e+02,8.922468483537465689e-01,2.389003252536709559e-02,-4.509155441418528643e-01
5.517690330162929513e+02,8.995672178597761786e+02,1.857750228023187447e+03,-4.980008646445341913e-01,-5.829622830406152589e-01,-6.419891863305564605e-01
5.625863671132640320e+02,9.417759934581364405e+02,1.939223283262648465e+03,-2.224524582442873044e-01,-9.226264983548738696e-01,-3.150797491977190834e-01
7.213822154339317194e+02,1.979828268106460428e+03,1.251738480955262503e+03,-2.187098701516014820e-01,-9.757879429802853721e-01,1.970541187844787601e-03
1.424653445687186149e+03,5.496047666692056737e+02,1.854416628691376900e+03,5.225868919356831815e-02,9.951007538606079228e-01,8.392567586751886743e-02
1.790193081241790424e+03,1.614110638144225732e+03,9.689379040773267207e+02,-6.805609258272489193e-01,6.699755633682763500e-01,-2.965966465193401458e-01
2.244255702633990381e+02,1.778047791138418233e+03,1.715217746853398467e+03,-4.876995134776250240e-01,6.769801927874591341e-01,-5.512231881254112675e-01
1.604785407480493404e+03,1.900890810676272849e+03,1.983617407166202156e+03,3.185657030376262133e-01,8.408790808157167174e-01,-4.375365862355496405e-01
1.115127801868136430e+03,1.313409360786549769e+03,2.151822646286729537e+02,8.418850697466410127e-01,-4.533753320723893365e-01,2.927120387103065990e-01
1.887547998600150549e+03,1.844679195063767793e+03,1.921555654965284475e+03,3.718997000542375031e-01,-2.167415716507973822e-01,-9.026149257673010684e-01
6.413314709323110492e+02,9.172284818959257109e+02,1.910560790015269504e+03,-5.879574577197093088e-01,7.811090308441162033e-01,2.101778053114598255e-01
1.809856977646334599e+03,1.644695136471941396e+03,2.750754404719517652e+02,-5.994474512316710912e-01,6.229121411715137224e-01,-5.026362676856628298e-01
1.126963505427235305e+03,4.472775198919613899e+02,1.149848992893994591e+03,2.843689257345019539e-01,-3.983270417470625713e-01,8.720492428123765016e-01
4.138095967408555111e+02,8.254984845279989258e+02,1.292255153318494877e+03,-9.866486384175790839e-03,9.738757067944570078e-01,-2.268672743302297956e-01
4.080271730595821396e+02,1.723733439045365913e+03,1.394503424686657354e+03,-3.015473556320507065e-01,-9.366994767995490134e-01,-1.779417951881143711e-01
1.052524422317140534e+03,7.347112169279064346e+02,9.764367171446142493e+02,5.134041959205396660e-02,-2.333668303682567280e-01,9.710324833907386655e-01
2.487437028483634549e+02,1.008547966169307983e+03,7.338018808041252896e+02,-4.503776960316381861e-01,3.480948377261813276e-01,-8.221860585449116687e-01
4.680394289304947506e+02,1.597525422503219033e+03,1.372434952487931923e+03,8.060325278098937618e-01,4.388946271230271257e-01,3.970932766931867253e-01
4.316828814173434381e+01,1.950290538200582944e+02,2.024376048562328663e+02,3.075521561628178913e-01,-2.418245693292818133e-01,9.202893832422001097e-01
5.076259094152386524e+02,1.921755698271586425e+03,1.139995294251050382e+03,-9.435706322542336544e-01,2.013205495887790408e-01,-2.629534146205707579e-01
1.167154559978790758e+03,1.450543644779565511e+03,1.030896511476400747e+03,5.812008935790761166e-01,5.008971240458223173e-01,6.413326690770616567e-01
1.979204594610929007e+03,2.981580997351129554e+02,9.900721327915533720e+02,-5.046403833544220729e-01,8.231566699226899875e-01,2.602905688834873388e-01
9.708208153842437014e+02,9.573973726354629434e+02,1.805327408852745293e+03,1.700313371212064661e-01,-1.836257733289776706e-01,-9.681791775111203702e-01
7.583368364527926815e+02,9.769123408619642532e+02,9.531173938313171448e+02,-1.592566015159615767e-01,3.550484892497056122e-01,-9.211828836637641071e-01
1.912358653727888168e+03,1.833970749957181852e+03,1.168697268393195827e+03,3.268037731365854848e-01,-3.767877693518602022e-01,8.667354098746287150e-01
2.339337021113412334e+02,1.214275093800330296e+03,6.460188783964499635e+02,1.950723268712669933e-01,-2.317614039522170044e-02,-9.805149941767390409e-01
1.073612891558151205e+03,1.236371404438915761e+03,1.337733603522072826e+03,-5.109489165888412288e-01,1.057833795301877100e-01,8.530774180881015578e-01
4.530793130075403496e+02,4.847964850100667604e+02,1.044224389445181032e+03,8.255013856192464639e-01,1.588320779243651282e-01,-5.415900971795297725e-01
1.499890288273105398e+03,5.541403655910308999e+02,1.725407876976161560e+03,-5.218788297124663522e-01,-7.507420487806772957e-01,4.050047694664073994e-01
1.476220614998791234e+02,3.575307990099669837e+02,1.818540444918776984e+03,5.119397786957551322e-01,2.742261083040710701e-01,8.140747536395813722e-01
3.086483087378133661e+01,2.704711067370919864e+02,2.195211473874205694e+02,-6.957156170452610811e-01,5.884118390768522389e-01,-4.120088443632345943e-01
8.727956255459106387e+02,2.476981547871790497e+02,5.446974943014672590e+02,1.567340369212736340e-01,2.791233291858692331e-02,-9.872463437974348111e-01
1.024376536383552320e+03,4.999231665582000232e+02,7.597848333849184428e+02,-3.300519774451393662e-01,-5.116649341996124534e-01,-7.932620546169213416e-01
3.230511989493181204e+02,9.947872625724394311e+02,4.167496795058796124e+02,6.464447917471527472e-01,6.397407153743694952e-01,-4.157414440674281342e-01
5.586304565513420357e+02,1.911353311810762079e+03,8.108638217937123045e+02,-2.011090281691675363e-01,-6.956951951274537027e-01,-6.896110166357749538e-01
1.762639292046761739e+03,2.630249518596834264e+02,1.579771918155313870e+03,-2.332658141103636229e-01,6.541258716198826706e-01,7.195181749233010571e-01
1.239283918083822300e+03,4.910262866356758309e+02,1.742711839263183265e+03,5.698011310156598785e-01,-7.187581417521077265e-01,3.983885098221735532e-01
1.037996725865512644e+03,3.885088900602324884e+02,6.280487631917261524e+02,8.591181025362631951e-01,-2.263023650439835444e-01,4.590243190398417550e-01
1.012870554664047091e+02,1.349053482392501451e+02,8.709435376439356560e+02,1.274523794842065683e-01,8.007059289767748389e-01,5.853425546338262286e-01
1.030804367326943975e+03,1.675404796154337419e+03,3.280664139667668451e+02,-2.406377121159540555e-01,-1.006808674951157126e-02,-9.705627878384806007e-01
5.843307517135721127e+02,1.544474194913167821e+03,1.366934142761044313e+03,-5.294484258720367764e-01,-1.650793022132482635e-01,-8.321257046398755630e-01
1.819368674950412469e+03,3.698380598791128904e-01,1.615100197371607010e+03,-1.682996111318195431e-01,-3.703854999152817462e-01,-9.135041446788214614e-01
1.904032584479991556e+03,1.263758184480392856e+03,1.398781281681591508e+02,-2.906055059318288572e-02,9.396880300160110888e-01,3.407959662963300218e-01
6.292417982120701936e+01,6.482716475430980836e+02,1.352871773960048586e+03,-4.397756405864816087e-01,-5.764094225880019851e-01,-6.887303997200326933e-01
1.467555329927736921e+03,1.750670384302155753e+03,8.263322321039587450e+02,-4.525918580226557381e-02,6.976230422841958045e-01,-7.150340530175183229e-01
1.091551403532655655e+02,1.417097659498695748e+03,1.260212955482444812e+02,4.250631433138714055e-01,-1.919248563020411191e-01,-8.845824855430792777e-01
5.073620936272613449e+02,6.834161836126006619e+02,1.651839399602438789e+03,-9.089277428318889851e-02,9.668868183267017580e-01,2.384709293167048827e-01
1.711119174633799275e+03,1.382705264097117137e+00,1.984787732908966973e+03,4.106432014594464941e-01,9.022101958412345191e-01,1.318670679709597060e-01
1.523903760548603827e+02,8.200001587397338199e+02,1.146264526536361018e+03,6.480008005673053573e-01,-5.696070332271500058e-01,-5.056113034360443237e-01
3.236562777934273072e+02,3.051990034575100594e+02,1.238663950270286733e+02,3.800888185221325544e-01,9.138294917288124486e-01,1.429970282247494673e-01
1.638944956246432412e+03,1.758370041536734334e+03,2.327006732071172905e+02,-8.179133106920191132e-01,4.673763918142008755e-01,-3.355251474443594617e-01
6.110315784913325388e+02,6.868486558536026223e+02,7.804894700694371750e+02,-4.892671091994812427e-01,-5.234725014320346093e-01,-6.975630696217163251e-01
1.832305151419509912e+03,1.642831750555608551e+03,4.603598077793997732e+02,1.725721655251031550e-01,-8.394108004871547735e-01,-5.153720556175804823e-01
2.042141139518282955e+01,1.259766105306504642e+03,7.898258246967479863e+02,-1.627038583165859101e-02,-8.211867673385474520e-01,5.704275306232645670e-01
1.398571942528734553e+03,1.825957173686211036e+03,5.693096373221835620e+02,8.818148221179972213e-01,3.440234073217930399e-01,-3.225686201534623265e-01
3.084351757883525806e+02,1.102639024314614289e+03,1.018390776866546958e+03,-5.933894737230126504e-01,5.036546409048643369e-01,6.278701578907207592e-01
7.661620919961724212e+02,9.609998923330476828e+01,6.029396263720319666e+02,9.040344788896741424e-01,3.392916742896531779e-01,2.600054244364900513e-01
1.072378177866868327e+03,6.001437063938528809e+02,1.667574486901631190e+03,-3.008907219975868186e-01,6.194665400557909374e-01,-7.250696374604843619e-01
4.798661647143660502e+02,1.465783854390685519e+03,1.618607650160468552e+02,-5.446570943470191439e-01,-8.361400849507653055e-01,6.494927186650679973e-02
6.552602430984857165e+02,1.101018153461883458e+03,1.179969917026546227e+03,-6.117467483812634166e-01,3.840623932086930648e-01,-6.915648877493436597e-01
6.448698862624357844e+02,1.570712121015265893e+03,4.032278466741361171e+02,-9.904937851111799141e-01,-1.135712453324397991e-01,-7.761207309282869282e-02
1.435305949660250008e+03,1.591820754416087539e+03,1.400331430668695020e+03,5.949750483075439966e-01,-5.181853458804051016e-01,6.144010410198217365e-01
1.654618609795134944e+03,1.039956371206669473e+03,5.188557324447422161e+02,6.859619948096519482e-02,-7.535060387290394290e-01,-6.538525911974648608e-01
1.414627378157897795e+02,1.174907450843816378e+03,8.909323910992993945e+01,-8.801125026759205605e-01,-4.220201374946265793e-01,-2.174878989335826684e-01
3.157055116170710676e+02,8.967327842918226111e+01,1.152047528499816508e+03,2.224132195202598028e-01,-7.375898264979294794e-01,6.375685121062575345e-01
1.153902234251105256e+03,1.437395759378125831e+03,1.746376781423722377e+03,7.092257799178028899e-01,-7.047825081326344332e-01,-1.674542714466609183e-02
4.385042824910763102e+02,5.882465628222064424e+02,1.459534845346635393e+03,-6.272796245979761487e-01,1.148378017015970892e-01,7.702808266240090962e-01
2.776275087908468322e+02,1.014858570406359718e+03,8.696822865459132572e+02,3.759519482773939214e-01,9.164868921977877836e-01,-1.367914800565896982e-01
1.344144619026941427e+03,1.272647629933500411e+03,1.485512638216510368e+03,5.988187690461150847e-01,-7.965142266949187810e-01,-8.355338718861760050e-02
1.763620008234970783e+03,8.203095063745788593e+02,1.400277238509241442e+03,6.892995600193908556e-01,3.964307745654359616e-01,-6.063899385168940448e-01
7.416754897796485011e+02,9.139703520573849005e+01,1.236907024955738052e+03,5.947395095636808654e-02,-4.955821743476389041e-01,8.665224507342588200e-01
1.870233854966363424e+03,9.110669579681139112e+02,4.678194945278704040e+02,-6.843383045794143582e-02,4.891283130326010142e-01,-8.695230326096805573e-01
1.528929586740617196e+03,1.381965090509266702e+03,2.557543264564407934e+02,-3.733231170864317883e-02,-4.475309654862855147e-01,-8.934888546777748353e-01
7.397961478969590416e+02,6.910161335262794182e+02,6.528672903760268298e+01,8.365329677836415290e-02,-1.381760385754047527e-01,9.868685364838212237e-01
1.636074948618809003e+03,9.177058254896815015e+02,1.690329592901571914e+03,-3.732982625944260002e-01,-7.047663483919281990e-01,-6.032850083652752105e-01
7.849549327127665492e+02,1.743360197708468377e+03,8.499021765241858475e+02,-4.996803755847774031e-01,-3.609296732575027478e-01,7.874320880035865500e-01
5.207139296124319117e+02,6.748117093370087360e+00,1.144196083863883359e+03,1.163985250274474637e-01,7.265906510378414840e-01,6.771391357733211880e-01
1.967792142918499849e+03,7.867747058372087849e+02,1.876893664823883910e+03,-7.567676677719624712e-01,2.562648879354452111e-02,6.531814296863460712e-01
1.311662138224705245e+02,1.032865212049006459e+03,1.519867158514529137e+03,7.984521354293839801e-01,2.677041053149086802e-01,-5.392668165442788819e-01
3.206314822968396925e+02,4.755339962563920153e+02,1.610803374801092559e+03,-9.718798111149875574e-01,-2.208237971114866971e-01,-8.177092011443433395e-02
5.976566560524431679e+02,1.106970984640076949e+03,1.491578026476642663e+03,-7.055580094592429630e-01,3.071690340642299066e-01,-6.386196675643169840e-01
1.920187761097996372e+03,5.388073737710093383e+02,7.857280853519104085e+02,6.221288749730607970e-01,7.705481360764835363e-01,1.386045919650962244e-01
1.948914493639120110e+03,5.468405168463499422e+02,9.611631172075125278e+02,-6.402144238623236339e-01,-7.296235528008016002e-02,-7.647234704065362099e-01
1.084752519527004324e+03,4.270029045786853885e+02,6.215144800519956334e+02,6.026677826266557680e-01,-7.568858438325684057e-01,2.528148792886429352e-01
9.802402435819142283e+02,1.618710640848482399e+03,2.105874345852696194e+02,-4.201962544459634241e-01,9.457647597512584825e-02,9.024912176535069275e-01
1.557089789473865949e+03,5.129452476744916112e+02,2.928732568656762396e+02,-4.093833395887822579e-01,-7.735533596167637471e-01,-4.837566341589059071e-01
9.026181454716144117e+02,4.711186429282836343e+02,1.091356331537478127e+03,1.035693013978678384e-01,-6.825754497522193986e-01,-7.234391164455464818e-01
6.387184354964739441e+02,7.089571324470442732e+02,1.196170479944639283e+03,8.203219895158120334e-01,3.145394059259930541e-01,4.776366774406499704e-01
1.628496489187527459e+03,1.585042418257908821e+03,8.772027639160577337e+02,-7.305584264405124983e-01,-2.226238305949183593e-01,6.455408705945793191e-01
5.714736780097629207e+02,1.185471916821672949e+03,1.104949606873771017e+03,-1.743214249019550688e-01,-7.774248402098764554e-01,6.043365441910659719e-01
7.947726613969241498e+02,1.556148361665524362e+03,9.162362551630716325e+02,7.708120487259987330e-01,-3.215825735246187755e-01,-5.499394820742657952e-01
6.174538550420136289e+02,1.022516541265797059e+03,6.018367172715782090e+02,-4.687429730532627348e-01,-7.545764070140875690e-01,-4.592324805486849293e-01
8.176634732770106666e+02,3.218803315153588755e+02,9.515907757804665152e+02,-9.015382128087592317e-01,3.853559330399248806e-01,-1.967985155343336956e-01
1.539194738252940851e+03,4.044552210801915066e+02,7.729304988318652647e+01,-4.316254580779978894e-02,-9.153988928208844911e-01,4.002272625167959674e-01
3.468118405376303599e+02,1.161062558812456246e+03,1.839260868500761262e+03,-8.432198548780385217e-01,-2.165257585980392419e-01,-4.920334055762916603e-01
1.483295562392050897e+03,9.341927812067320929e+02,7.579126980302390848e+02,-9.315379847405724778e-01,-1.863262336082731341e-01,3.122811516163412904e-01
8.324244849916040039e+02,1.912987015832452016e+03,1.602270428136729151e+03,-5.332105217308827916e-01,-8.456358946382027675e-01,2.421720906558655351e-02
8.263867460272338121e+02,1.789632738964153759e+03,3.762406841332082195e+02,1.540587267883371803e-01,-2.174240513803249453e-01,9.638426689982770856e-01
7.472483026010552294e+02,1.841551030064221379e+02,5.893676204383428967e+02,-7.720582525670585117e-01,4.142569875550681235e-01,4.819929490199004185e-01
4.315929527996500497e+02,1.647492260181742267e+03,1.720223166682165811e+03,2.552529065407295739e-01,8.586964746702310247e-01,4.443943272493775520e-01
1.285887941697993995e+02,1.026026933849146729e+02,1.478139264367448959e+03,7.225367394594121861e-02,-9.972419651507780092e-01,-1.696671870245358704e-02
6.905337461692485022e+02,1.789407192515987390e+03,1.994766801229026669e+03,1.105085666060867805e-01,-5.944699650130306212e-01,-7.964881150425751066e-01
9.097577333920803255e+00,1.233100290621661543e+03,5.598563749887559879e+02,9.365696613625080769e-01,-1.830619598435490603e-01,-2.988738668293964285e-01
1.090434807277829208e+02,1.361951594234185677e+03,2.599131640224072726e+01,-5.215179161578840095e-01,-3.625414243554427318e-01,7.723877127147122934e-01
3.289750646274902834e+01,1.675717401439664798e+02,1.052305817512346039e+03,4.042582573774909371e-01,-8.835318046420540528e-01,-2.365307834681766863e-01
7.993313666319645563e+02,2.399974782181064654e+02,1.005741859853697179e+03,-4.133404747470847268e-02,4.124475399836476930e-01,9.100431436370453042e-01
3.279122282065571881e+02,1.771805879447748794e+03,1.025266370471003029e+03,1.353042697989432497e-01,-6.493185943013120021e-01,-7.483836700975931011e-01
2.901223371853873800e+02,2.348318406238103648e+02,5.027769302501818629e+02,9.508453102110894228e-01,-3.082196817229978514e-01,2.989688693076764103e-02
6.492519508059114060e+02,7.451996416527673261e+01,1.191415724462349999e+03,5.254743468236262871e-02,9.873607731732948478e-01,1.495241475713413593e-01
1.963188607607360836e+03,2.887739032801701455e+02,6.296047468623022496e+02,3.879534811042731901e-01,6.043683256956665639e-01,6.958671018196601610e-01
3.440437155195446053e+02,1.539395100941314695e+03,2.548600629828459034e+02,-4.019557272520252744e-01,-4.119650123405040887e-01,-8.177508312050705275e-01
1.512692869310424157e+03,8.662058011603423893e+02,1.833200597035289093e+03,-6.680736163851926923e-01,2.571485706936241789e-01,-6.982494222555696295e-01
1.092372050961313789e+03,3.865245237056158771e+02,2.942457831907536843e+02,-8.230528796891938004e-02,2.422492924709882811e-01,9.667166699036791044e-01
1.832536703798205281e+03,6.053037274685065086e+02,7.331920405873681830e+02,9.026555691142339466e-01,4.114105537124416734e-01,1.263102523197563443e-01
1.265517169611078998e+03,7.417626208690793419e+02,1.590024525528039874e+02,-3.145864740803187565e-01,-8.479041996870607667e-01,-4.267245229404539320e-01
1.010792282182003646e+03,4.415283049963458666e+02,1.678992081758847462e+03,3.524176080800074662e-02,-8.105458206045282887e-01,-5.846139674996515545e-01
1.869706267498881289e+03,1.546741564044123379e+03,1.002479522069053473e+03,-8.889028942756539431e-01,-4.387686988828558010e-01,-1.316574093205984675e-01
1.115765324592107845e+03,1.391634351702154390e+03,1.753620942883060820e+02,2.157525102893008764e-02,-9.859467729380854140e-01,-1.656607058901240492e-01
1.941328557320516666e+03,1.067969628940454641e+03,6.219058622412652539e+02,-5.479063828566809180e-01,2.913388702522993756e-01,7.841685139719791753e-01
1.282748351029253172e+03,1.712016326611913883e+03,4.188773716819029573e+02,-5.941442271193434488e-01,-2.967916172393116891e-01,7.476010789968350334e-01
6.704902740921598934e+02,1.963561594359352284e+03,1.894159688098321112e+03,-5.668030922632967261e-01,8.187891024169271503e-01,9.120669034696748945e-02
3.268193206085623359e+01,9.785050690161934028e+01,9.732138071136278086e+02,9.839155201298889208e-01,4.050230854922814983e-02,1.739822181997725536e-01
1.724092453289409832e+02,4.996046630408357032e+02,3.657536649175665389e+02,4.533031945374900173e-01,4.794426644453524400e-01,-7.514325953348361953e-01
2.574748427327298259e+02,1.546843751124436949e+03,8.055655872901050998e+02,-3.731855968079170749e-01,-5.229154500489311408e-01,-7.663497520292171794e-01
7.193076726590608132e+02,1.226921838822159216e+01,1.300336013241754245e+03,6.612443735373044751e-01,-5.520075729203828274e-01,5.079798400564790040e-01
1.193689673697555008e+03,6.861685903275997589e+02,4.876678672794789691e+02,2.077904243223681613e-01,-4.466392982896605912e-01,-8.702508125725880728e-01
5.757924547320203601e+02,2.492996336858839186e+02,5.767229949145506680e+02,1.827595849059049371e-01,8.371317748110606027e-01,5.155669944116914039e-01
7.600954904323568826e+02,6.716197482669192595e+02,1.394079230794704927e+03,-9.791362882264279532e-01,1.695516741621698187e-01,1.120016020732683693e-01
1.688243551549160429e+03,2.563041575841480153e+02,4.967893180463394174e+02,8.889198764326647906e-01,4.287339163866848435e-01,-1.612720751484004733e-01
1.536347653916925992e+03,5.848493471157734120e+02,1.810710837295508782e+03,1.641202392644353081e-01,9.808395565285474849e-01,1.049681447519532768e-01
1.345138817366127569e+03,1.435097335732184092e+03,1.942687230682691052e+03,-4.804215427983283826e-01,2.911886473227655592e-01,8.272873218450842447e-01
4.690526093299318688e+01,8.349979939944340686e+02,3.542973149674406841e+02,2.614397821783444598e-01,-5.954499966723365567e-01,-7.596634397925532411e-01
2.581152978306910768e+02,1.328729215896339383e+03,1.134370045001795916e+03,3.503731543646443902e-01,-9.257921492757632542e-01,-1.419420622646159480e-01
4.132389870551087370e+02,1.027365640771498192e+03,2.133065259962767470e+02,8.496316217785775393e-01,-3.675917729647725785e-01,3.781565756700777658e-01
1.762417214320251105e+03,1.459018440908683658e+02,8.480686786558271706e+02,3.215233597961633660e-01,-4.971717313516610948e-01,8.058802632216393036e-01
1.308836503448772874e+03,5.320230520803642094e+02,5.304647767327770680e+02,4.072631254688774960e-01,-2.884122178504829326e-01,-8.665766782160058135e-01
1.985003149150783884e+03,1.365523349283992438e+01,1.598246742959490120e+03,9.640606426090244652e-01,2.606228613018575779e-01,5.160234044214950799e-02
1.404915601047123118e+03,1.399232418546372401e+03,1.391861682346441739e+03,1.029950582734762976e-01,-9.286656371835845247e-01,3.563315201966426038e-01
1.915423695235537480e+03,9.655885297413456101e+02,5.356398104344522153e+02,-3.108089958229526620e-02,1.656395043320795790e-01,9.856964706672020071e-01
1.395476079252185855e+03,1.596278579144971673e+03,6.332987530939462886e+02,-3.254298733399108023e-01,-1.737533667915079627e-01,-9.294649886179604525e-01
1.459129565867553993e+03,5.219688772996408943e+02,1.641448113307683343e+03,5.399061233857984643e-01,-6.390170504605380275e-01,5.478673079781576361e-01
1.346233246788902989e+03,1.108238314809247413e+03,1.714902436774294301e+03,-4.257327531559115252e-01,-7.199752186878873861e-01,-5.480760050993078725e-01
1.549467847831535892e+03,2.592339521802043123e+02,6.277210804467376875e+02,7.702437220533170370e-02,-4.949352759266629764e-01,8.655092828674759708e-01
9.665586078993397905e+02,1.621636256872451440e+03,1.719046362637743414e+03,8.029988921196056229e-01,5.946385387862553884e-01,3.997233349246820389e-02
4.888814511300210341e+01,3.314653983731492417e+02,1.222496979383642639e+02,-2.779208960909594350e-01,-8.733560807873350651e-01,4.000114144218689383e-01
1.761931198688988616e+03,2.925754341726851635e+02,3.880108512712470201e+02,-9.597332251928997193e-01,-1.710746470968050048e-01,2.228129295654510955e-01
1.813699931866450015e+03,1.243682493604960655e+03,1.215904138219820425e+03,-7.597692380391284361e-01,-5.986218583102577151e-01,-2.537766255639319901e-01
6.024146110327184260e+02,1.266755115295223504e+03,1.197425995704475554e+03,9.435863732806933912e-01,3.270104857177399960e-01,5.204707858886736815e-02
1.969032058361418194e+03,1.886381544181268509e+03,1.640460293106009885e+03,4.374905829959421788e-01,2.176853158229239971e-01,-8.724764140450700367e-01
1.655513780509820208e+03,4.078485428545075706e+02,4.506074922489864321e+02,-9.238943169284329071e-02,-8.728276184988238429e-01,-4.792036532593892950e-01
1.721055073663008443e+03,1.520835550841357247e+02,1.031082236071698617e+02,5.588173510787598497e-01,4.562142587611259237e-01,6.925256083614197422e-01
1.209137363882412501e+03,4.144984558556259344e+02,5.204260676636440621e+02,8.694065211889383527e-01,1.192422818291870856e-01,4.794930438893945102e-01
8.986297003631892721e+01,3.233281304473995874e+02,1.279903198457772760e+03,6.364763639206392210e-01,-9.296981563048378056e-03,-7.712401729060659461e-01
1.379057320442960020e+02,3.300417343569661739e+02,1.084518628252678354e+03,-2.974279503063806396e-02,6.712983442964797209e-01,7.405902369654695505e-01
1.137935588840521632e+03,1.301381021911355901e+03,1.446547083886926657e+03,-6.438550358253970485e-01,6.801516613150817570e-01,-3.504916695908919522e-01
1.812168051966143821e+03,8.347993405255591597e+02,1.993099537315463749e+03,3.378479111647674782e-01,-6.810400888652817786e-01,-6.496485097958532018e-01
1.685272121097731542e+03,1.366326377139483839e+03,1.156844706415011842e+03,5.290500165974764135e-01,8.328935340446843583e-01,1.624636601974918104e-01
1.058249581805433991e+03,1.215832350422381978e+03,3.401638659500301287e+02,7.066455423608078434e-02,9.640224118470158698e-01,2.562563369582862571e-01
5.523793163699197351e+01,2.488434287632754831e+02,4.222698975397867116e+02,6.740396510738444480e-01,-7.116357180038098695e-01,-1.981038960784267111e-01
1.111876968531704506e+03,7.201150304932535562e+01,7.592371898554471272e+02,4.699667336232319914e-01,7.849712202118430682e-01,-4.036724572306615855e-01
6.836419730211915748e+02,5.237301619778266968e+02,1.223371161004783517e+03,8.461449013329769286e-01,-1.503581120660939796e-01,-5.113034755251784080e-01
1.977100887247427409e+03,3.227442842431624968e+02,1.899807385224882182e+03,4.844431457958295328e-01,2.261657801832987758e-02,-8.745303476096077944e-01
1.414352737845980528e+03,4.653002316674667895e+02,5.512570262800018099e+02,9.219299065375360369e-01,1.728657495192461591e-01,3.466448904496348682e-01
8.006778315072328951e+02,3.227165504880391609e+02,1.823471347487975208e+03,-2.466160198633997880e-01,9.280097232517431349e-01,-2.792462932555386246e-01
1.710948603772826345e+03,4.560656663342770116e+02,2.543318753450669476e+02,-3.517566964824981879e-01,1.724872711107418577e-01,9.200626977464574363e-01
9.138800268784166292e+02,1.655904690879099689e+03,8.578603079494648682e+02,-8.489628959475501446e-01,-1.222223682303466147e-01,5.141242009558728565e-01
1.018660974255149313e+03,1.711197515359847785e+03,1.062233923396152704e+03,9.640929119422319005e-01,1.566837166949204552e-01,-2.144179798090957156e-01
7.852003552900521299e+02,6.466861079696752768e+02,7.395406568393698308e+02,-5.061571830002080663e-01,8.465891351610509430e-01,-1.645956935176546843e-01
9.209982542716090848e+02,9.325223426361550594e+01,4.515212486808563881e+02,7.434115212585764576e-01,-6.572885380769665220e-01,-1.237379803158815822e-01
1.111785622380167979e+03,1.787185510845021327e+03,1.611647731605570925e+03,-6.621072390351219195e-01,-6.175233995410125409e-01,4.245925753432331917e-01
3.810550214388159702e+02,2.702767942036214777e+02,1.113579882422171039e+02,-4.374710158147491756e-01,-3.855925638596897631e-01,-8.123653642408215081e-01
7.457094938640662463e+01,1.676664847787543522e+03,8.830572000585732440e+02,8.925315485048019859e-01,4.443840321045559594e-01,7.687826047796142426e-02
1.601339064760119015e+02,4.220031841055602513e+02,9.303263079321841360e+02,-9.782804677847828367e-01,-2.072322852157849893e-01,-4.701735321143818425e-03
6.994611177005261027e+01,1.352444390696252185e+03,8.595652965066602746e+02,-3.869239420857285006e-01,-6.784670802952862401e-01,6.244776088831606176e-01
1.727056302439711772e+03,1.560803558994504328e+03,2.645108662543016180e+02,1.454471631751540484e-01,-9.865611617022168600e-01,7.444593303245340687e-02
1.854122705105997738e+03,8.318144940932792224e+02,1.793050854003386263e+01,-1.568045134330383061e-01,8.768486110489150942e-01,4.544764656927975377e-01
9.796931456439695296e+01,7.107479124426754424e+02,1.266315340131839548e+03,-2.717792055347161839e-01,6.056285601342015212e-01,-7.478971256721691496e-01
1.782142206029333920e+03,1.548625786384773619e+03,1.277013835677227462e+03,9.893289650347550923e-01,-1.401368562574251964e-01,3.987305432928800464e-02
1.411033020786052930e+03,1.724879612812257790e+02,1.243241990791523904e+03,7.915184386645437442e-01,4.687138246635880884e-02,-6.093452508715688776e-01
5.587020444776733257e+02,1.980597979841140386e+03,1.359629778413119311e+03,-4.349282866094321687e-01,-8.331001263375393817e-01,3.417331780839540922e-01
4.494468046017665301e+02,1.975278025516514163e+03,6.433264966352758165e+02,5.160333484447940933e-01,-2.742701355088110748e-01,-8.114711800556024812e-01
9.505844241474275123e+02,1.668102649737326828e+03,5.532116901866393164e+02,-5.639422069152284500e-01,-6.985369112279066206e-01,4.404717594940195102e-01
3.014340400792327728e+02,1.405950942867114463e+03,1.679371777332800775e+03,6.755901417530706388e-01,-1.703740263164520707e-01,-7.173218604802078513e-01
6.377435765568917532e+02,1.910705562040584482e+03,1.876887839912229538e+03,-2.405560089462240383e-02,-6.413195963121516296e-01,-7.668966706484110496e-01
1.647214020682865794e+03,2.654101428303630428e+02,8.158224011329697305e+02,-6.852337626001243631e-01,7.169852663141862426e-01,1.280110092189412629e-01
1.928218128375880269e+02,1.420600814391193012e+01,6.122991195550357588e+02,-8.695425401380298958e-01,-4.695448287318470526e-01,-1.530471322876818530e-01
1.789304879190538600e+02,6.942691406712009439e+02,1.740210996512839756e+03,5.786644609580376963e-01,4.907696121902972997e-01,6.513774860821710533e-01
1.787873655397982304e+02,1.891379219566820211e+03,5.199393876218845207e+02,-9.605729386576543627e-01,1.795741571049533358e-01,2.122563346961496844e-01
4.279735159908892683e+02,7.175523609762573187e+02,5.647583125553081800e+02,-8.592785289093026746e-01,4.561514459366816654e-01,2.314438768369975197e-01
1.073323253976882143e+03,1.331989019005171485e+03,1.951047119777819262e+03,-9.555511532155728238e-01,-2.871019839492757186e-01,6.704061754472979973e-02
1.094865263334065048e+03,8.225875875405901070e+02,4.920077336114192690e+02,2.475004561788781907e-02,9.970384431246099854e-01,7.281331041482963506e-02
1.772674101144320048e+03,1.600246327863246506e+03,1.572835505428393162e+03,8.009467334043833819e-01,1.717537773757465969e-01,-5.735721142158238806e-01
1.140413097326837715e+03,2.496880333369244624e+02,2.003525843112940947e+02,-5.650453049589314325e-02,7.346263400846049507e-02,9.956959774137774666e-01
1.023008306147590929e+03,1.394865299040349555e+03,9.205151399747468304e+02,-6.726704244228169927e-01,-6.289255189728717998e-02,-7.372645570096763024e-01
1.460839352877027295e+03,1.878091841756347549e+03,8.384955710989316913e+01,4.816253115374546367e-01,-8.649558695480237258e-01,1.410262494036909064e-01
2.981818434669274325e+02,1.363202358391080224e+02,9.149601390627037745e+02,2.223945867059155812e-01,-3.664269203361736893e-01,-9.034777030214151683e-01
1.027650855656639578e+03,1.012323440870402919e+03,2.080210507912523212e+02,-2.533337311943743564e-01,-7.573558757096416905e-01,6.018588689777848444e-01
8.617053402476708470e+02,6.186381593470065354e+02,1.874694555079167685e+03,8.849677687379898794e-01,-3.227635028572207743e-01,3.356423237886434485e-01
1.583245327324637856e+03,6.204006279543616529e+02,1.697426472648800427e+03,4.389083610921512557e-01,-8.355622654886192269e-01,-3.304468959680635920e-01
1.019158185115559149e+03,3.406748203534552886e+02,1.201734449785534935e+03,-3.815383153079920375e-01,-8.901789819274518178e-01,2.490178589710878576e-01
4.991434371843561735e+02,1.121898605410145819e+03,1.704953279679329398e+03,6.740908941431981161e-01,-5.092924166133931951e-01,-5.349978512230806338e-01
1.778757463713418474e+02,1.448112508417242680e+03,7.950003709357860089e+02,1.184743208088179789e-01,6.793325456822475461e-01,-7.242037887816981101e-01
3.583412612691638799e+01,1.389133559880825032e+03,9.073324224832899745e+02,6.409339607044898246e-01,-7.030637657517028183e-01,-3.080665501197594747e-01
9.166354962054865609e+02,6.215148218139623850e+02,1.206450756970488328e+03,7.628818995114085011e-01,-6.183157831477997801e-01,-1.889359672169077797e-01
2.561846401099341506e+02,3.012359950105491890e+01,3.406469894129928662e+02,4.953953270957487387e-01,-3.112641417767809671e-01,-8.109858839311940848e-01
1.162049622461909166e+03,1.889503916892443385e+03,1.236261919387729449e+03,4.952699777201202136e-01,7.647090404119812890e-01,4.122229162495683052e-01
1.234858362941346513e+03,1.671878907374210712e+03,5.642210518968036013e+02,-1.993435417592724357e-01,9.755400166956730290e-01,-9.264895133931827509e-02
1.149735976531022743e+03,1.838051864025460418e+03,1.952281708508043494e+03,9.798958431932348612e-01,1.499795839603491054e-01,1.315684646398973534e-01
1.311420610149490130e+03,1.849619196626028952e+03,2.921622319228656011e+02,5.477816658239486047e-01,-5.178360763002688438e-01,6.571004829317066420e-01
1.809630853018040625e+03,1.190739955349011552e+03,1.692329953764284028e+03,-4.061928670299489452e-01,-8.451930718436714285e-01,3.473557629886810383e-01
1.525936672387751059e+03,8.175484880004609067e+02,7.649393170143694078e+02,-3.049201982443778408e-02,3.469154800660684268e-01,9.374006008199244899e-01
2.878955908974236877e+02,6.782208557426547486e+02,1.168383069078964581e+03,-7.063647329051748747e-01,3.551246006482161044e-01,-6.123196731465077036e-01
7.706656651300478416e+02,1.510343953146451440e+03,1.030752783454241353e+03,-1.478360436090087604e-01,-9.250815275290653616e-01,-3.498123377391462174e-01
9.032671429911403038e+02,3.222100270101207116e+02,1.973787047840307196e+03,-5.674406560463030047e-01,5.027205880063844168e-01,-6.521373415625395520e-01
1.866567132483079604e+03,6.028659030657963740e+02,2.291991666412627069e+02,8.676387258101342370e-01,-2.761681324855649322e-01,4.134418992724397945e-01
1.996015288388251520e+03,6.438883827661696841e+02,1.761168212157778726e+03,-3.255137992402176023e-02,-6.869794501919498919e-02,-9.971063132962210140e-01
5.598639043260404833e+02,1.695487540124259795e+03,1.198901702535634968e+03,8.991935683143432723e-01,2.492578747116535320e-01,-3.596129010427020489e-01
7.507392575366937990e+02,1.087380795008733458e+03,3.972540693273325587e+02,2.260559396136720134e-01,1.575153255821648002e-01,-9.612947697621809784e-01
2.548818775618015877e+02,5.950822004520235851e+02,1.183864687581852195e+03,-8.779993063831775801e-01,1.518394025600428021e-01,-4.539405399618637316e-01
1.554571144446655353e+03,8.068156952060603544e+02,5.661102794653436376e+02,1.096624113877953943e-01,2.080906142313667384e-01,9.719426175435597060e-01
1.247416279644723318e+03,6.991789838043279133e+02,1.487315443365099554e+03,-8.521540262637558039e-01,1.275028293442602156e-01,5.075199937260391758e-01
2.265026573562849421e+02,1.739807741669758343e+03,1.967691474766485044e+03,-3.830782787623436270e-01,8.126846826290433645e-01,-4.390838632432434996e-01
1.557652819479966411e+03,1.690687593482324928e+03,1.535751624200929882e+03,-6.717921006128891870e-01,-6.469132554383959510e-01,3.608304497852397041e-01
9.794933962365521438e+02,1.417085310723968860e+03,6.054544022725483501e+02,-7.361759724548899708e-01,4.492417530096303180e-01,-5.061884875547164597e-01
2.204812881334405716e+01,1.503139208240043672e+03,1.417304029028748118e+03,7.390922174712688184e-03,8.348500371958474942e-01,-5.504278242090414608e-01
8.236575415519222361e+02,1.919709080316821201e+03,7.812518406557709341e+02,2.192229500675903497e-01,4.755365297409452352e-01,8.519426665249263397e-01
1.013868717502262712e+03,3.021486607702969991e+02,2.266334875690585591e+02,-5.157815735407924596e-01,7.863573158060455093e-01,3.400169705677869025e-01
4.544936600897872836e+02,5.996203954738599577e+02,1.785678332322371034e+03,7.084515384481706590e-01,6.875451509655993165e-01,1.593050000913702746e-01
2.001485934769822279e+02,1.324743140877660039e+02,1.128322440225206947e+03,1.398917624339089671e-01,6.143704206390475653e-01,-7.765174055015988674e-01
2.225532285810829478e+02,8.968529340347329253e+02,3.313190666659471049e+02,-8.525581373045345579e-01,3.679007328251045483e-01,-3.712057021417820568e-01
2.697703172048076112e+02,2.956071069707664378e+02,1.882542712208055036e+03,-9.162923806345039113e-01,2.623956991278633688e-01,-3.025834930566326797e-01
1.574348626853938185e+03,1.391447296152622812e+03,1.783891677399784385e+03,5.025765730158059386e-01,8.620618822536745274e-01,6.531538425930240310e-02
9.048224178857744846e+02,1.659203219801161822e+03,4.859213972795992618e+02,9.332886632950732064e-01,5.914821172126465826e-02,3.542227547957244593e-01
6.922002576014125452e+02,1.887267154012066612e+02,1.641743882559600252e+03,-1.836297753739370587e-03,7.567193025873254486e-01,6.537373517723394922e-01
1.804171629719167640e+03,1.160171441007307067e+03,7.375294712126434433e+02,-7.374750010145975088e-01,5.685027395337242107e-01,3.646028771432970328e-01
1.322780176112528352e+03,5.857784508470230094e+02,1.324606470977214485e+03,-8.335970697407366625e-01,-5.521493220156528103e-01,1.571787254409340306e-02
1.491632710752483717e+03,2.986240582062795852e+02,9.615856785308842518e+02,9.966643829884842543e-01,5.134045290958725444e-02,6.343709937585706449e-02
1.108959902046739671e+03,1.577576349531939570e+02,1.697739140306094214e+03,7.801741644094174477e-01,-4.632076960796419618e-01,4.204365629683715078e-01
1.006975749864972954e+03,1.580806863388581633e+03,7.169462434123845469e+02,-6.132568289478239620e-01,7.793117300572306450e-01,-1.287994143778052880e-01
1.886752405248535752e+03,1.012860542352710127e+03,1.014993843666444945e+03,-4.549254562773010213e-01,8.567564031184095041e-01,-2.429224051965875042e-01
1.898281441939292336e+03,1.465108723945539850e+03,9.620361790799403252e+02,5.183969909605116166e-01,-8.325995208206099507e-01,1.950451170687899083e-01
5.642276003323611349e+02,9.544806284024929255e+02,9.204083637704937928e+02,5.908620914056218476e-01,-4.614415457569825407e-01,6.617806953887227506e-01
1.388612519234173988e+03,1.055840326512418187e+03,3.493288473581490621e+02,3.080153574895331259e-01,-4.012958580332654512e-01,8.626054566694674186e-01
1.508322196395630954e+03,1.798261260752600037e+03,6.090291003756640293e+02,9.564901838303836445e-01,-2.516987536117709090e-01,1.475610574182770751e-01
3.002471788801006483e+02,1.898526144039019300e+03,1.751819074912400083e+03,-3.582320565067120266e-01,-1.970287580571492836e-01,-9.126058635519658235e-01
1.433722684853898500e+03,1.232532401018496103e+03,1.125007353581802363e+03,-7.133425629009264579e-01,-6.670198396628594928e-01,2.150044684421024144e-01
3.479392521970505641e+02,5.722655624685290832e+02,1.855826514823599837e+03,-7.540181537618888541e-01,-6.535329458998352381e-01,-6.596447847891750982e-02
2.008670923967266333e+02,3.850035245294354240e+02,5.627637763573212624e+02,-1.088460340737246040e-01,-5.343934256410383110e-01,8.381981910610745157e-01
8.421353477746500857e+02,1.739477329660775240e+03,1.693234822524929768e+03,-3.474219342048598391e-01,-9.449498501045563992e-02,9.329355269477241919e-01
1.028845006095934423e+03,1.786508169590552825e+03,1.895956731364240795e+03,-9.756479664883609404e-01,7.906635706274860176e-02,-2.045960817512204599e-01
7.939408650446359843e+02,4.793408993278127355e+02,5.587419158568928879e+02,7.302813251575193676e-02,9.965369234044159086e-01,-3.976244651581439804e-02
1.334422987421282642e+03,1.865324743536418509e+03,1.493607608749395922e+03,4.088902789637384738e-01,9.077935972839573653e-01,-9.337839417771422179e-02
1.773728024601960442e+03,1.271186194874797366e+03,2.137666492893621637e+02,1.018135588879461179e-01,-9.948034404044250323e-01,-3.379143241841742196e-04
1.678803865341579012e+03,1.822042013022062065e+03,9.646173723073720794e+02,8.440728996640736170e-01,4.191009636327482357e-01,3.345075818793716849e-01
1.029256292416728002e+03,4.262694509372664129e+02,5.058007450207029478e+02,1.372154992447188471e-01,8.991896359879557599e-01,4.154875513163664991e-01
7.539082848028180024e+02,1.521883838702517096e+03,3.853005217422758051e+02,2.194969850347638918e-01,4.935346727277998835e-01,-8.415726946474155756e-01
1.009499025671434254e+02,1.108685453406544411e+03,1.008349385316957637e+03,-5.556111940594730125e-01,7.924455521164838201e-01,-2.516470702523827541e-01
1.216783751896477526e+02,6.457308496366107420e+02,8.329217880219320023e+02,-6.888948986570673227e-01,-1.074402664465149843e-01,-7.168545234217127415e-01
1.311903044813800250e+02,2.561832152337764228e+02,6.556985438630198360e+02,2.937566546344018148e-01,-8.994168641921914675e-01,3.236608290551852285e-01
9.342514671501889723e+01,1.213973654936520006e+03,1.810641238384257576e+03,-2.546932010903902865e-01,3.614106090112287339e-01,-8.969469020028235651e-01
1.154593702379322849e+03,2.085734350815857567e+02,1.881873342023979603e+03,-7.105913142421423911e-01,-6.787854521616428771e-01,-1.852303810322138145e-01
6.718523567366876250e+02,2.307845220543169873e+01,1.733299235672453506e+03,9.150486881273810214e-03,8.875855032428854319e-01,-4.605521067402791324e-01
3.682363929581666753e+02,6.246519742779316857e+02,5.622283746468772279e+02,2.227444675820185460e-01,-2.192023735279562957e-01,9.499132705680626287e-01
1.678374212835868093e+03,7.626104021960044577e+01,1.137207677674587558e+03,1.417921695368777879e-01,6.718152088476234685e-01,7.270208427679700769e-01
